-0.6457986235618591 0.02485998347401619 1.157037615776062
-0.6416433453559875 0.038072846829891205 1.1414339542388916
-0.5793638229370117 0.015271488577127457 1.381382942199707
-0.5659292936325073 0.015603579580783844 1.3629992008209229
-0.6190978288650513 0.0038537010550498962 0.7262933254241943
-0.621601939201355 -0.001288488507270813 0.6828636527061462
-0.600204586982727 -0.07679262012243271 0.7777156829833984
-0.5839719772338867 -0.01557854749262333 0.9045772552490234
-0.5420657992362976 -0.010759476572275162 1.1103140115737915
-0.4309682846069336 -0.06421426683664322 1.59521484375
0.18926796317100525 -0.05197010189294815 1.1340163946151733
0.3163299560546875 -0.08958904445171356 1.3193475008010864
0.33290407061576843 -0.049454089254140854 1.01606285572052
0.3595808446407318 -0.061450254172086716 1.1396225690841675
0.3641100525856018 -0.04428107291460037 0.9374006390571594
0.3752211332321167 -0.04067215695977211 0.8862249255180359
0.39615127444267273 -0.07763662934303284 0.9529688358306885
0.42199698090553284 -0.024769622832536697 0.6795846819877625
0.4313740134239197 -0.03159968927502632 0.6651301980018616
0.47676461935043335 -0.07940590381622314 0.7065932154655457
0.5715450644493103 -0.04084300249814987 0.8690513968467712
0.5353904962539673 -0.007474586367607117 0.669035792350769
-0.6388094425201416 -0.03811486437916756 0.707863450050354
-0.6196926236152649 -0.025866851210594177 0.6631881594657898
-0.3605022430419922 -0.013242076151072979 1.0927478075027466
-0.2801473140716553 -0.014310473576188087 1.1632091999053955
-0.22097593545913696 -0.045141201466321945 1.1984772682189941
0.5168663859367371 -0.01485485676676035 0.7029905319213867
0.4851974844932556 0.000968041829764843 0.4871408939361572
0.5012582540512085 -0.005404947325587273 0.49791815876960754
-0.5733530521392822 -0.08338862657546997 0.9187743663787842
-0.5424140691757202 -0.05452989786863327 0.8452610969543457
-0.5488840937614441 -0.06702136248350143 0.7995988130569458
0.5467358827590942 -0.10712910443544388 1.265629529953003
0.49841341376304626 0.01874326914548874 0.49704134464263916
0.6033715605735779 -0.04502793028950691 0.7631365656852722
-0.25046080350875854 -0.031171731650829315 1.3126832246780396
0.6022034883499146 -0.04566842317581177 0.853512167930603
-0.5177057385444641 -0.04545888304710388 0.9163894653320312
0.4362673759460449 -0.06508991867303848 0.5323530435562134
0.5904763340950012 -0.04309311881661415 0.8430601358413696
-0.5811082124710083 -0.09965197741985321 0.8814959526062012
-0.3278653621673584 -0.02022961899638176 0.8830437660217285
-0.33420780301094055 -0.019390441477298737 0.8947451710700989
-0.32656237483024597 -0.05122281610965729 0.8862937688827515
-0.3356606662273407 -0.05156167969107628 0.8935770392417908
-0.30165672302246094 -0.036306869238615036 0.9630646705627441
-0.30919307470321655 -0.038122888654470444 0.937545657157898
-0.2899325489997864 -0.010033469647169113 0.9184461236000061
-0.2798958122730255 -0.00239642639644444 0.9611450433731079
-0.3060417175292969 -0.06238951534032822 0.9372738599777222
-0.3200001120567322 -0.08750896900892258 0.9146526455879211
-0.27646544575691223 -0.03823591768741608 1.0373218059539795
-0.2987068295478821 -0.09238757193088531 0.9217192530632019
-0.29885199666023254 -0.04845637455582619 0.9330960512161255
-0.29948630928993225 -0.09425670653581619 0.9627335667610168
-0.2871437966823578 -0.0627392828464508 0.9667976498603821
-0.2536744475364685 -0.01172271091490984 1.0204280614852905
-0.2760469317436218 -0.05213509500026703 0.9715743064880371
-0.2847907245159149 -0.0774083137512207 0.9893825054168701
-0.2841692566871643 -0.06595242768526077 1.0246614217758179
-0.2870469391345978 -0.03467804938554764 1.0709670782089233
-0.30274489521980286 -0.09190735965967178 1.0445785522460938
-0.2310781329870224 -0.003332341555505991 1.1234431266784668
-0.23574697971343994 0.011786509305238724 1.0797946453094482
-0.2835543155670166 -0.0584985725581646 1.1017959117889404
-0.19921451807022095 0.01150662824511528 1.0786069631576538
-0.23556926846504211 -0.0800522118806839 1.166259765625
-0.2750926911830902 -0.12294959276914597 1.097389817237854
-0.1966196596622467 0.010091705247759819 1.1248509883880615
-0.1663927584886551 -0.01147023681551218 1.1413233280181885
-0.17732223868370056 -0.034961894154548645 1.194406270980835
-0.15008588135242462 -0.03777240216732025 1.2028758525848389
-0.1771167516708374 -0.13767530024051666 1.2457268238067627
-0.2298227697610855 -0.13181887567043304 1.1598390340805054
-0.1512625813484192 -0.060594528913497925 1.246092438697815
-0.18909810483455658 -0.08861007541418076 1.2316697835922241
-0.14991295337677002 -0.08107869327068329 1.2821857929229736
-0.14271992444992065 -0.10198540985584259 1.3194994926452637
-0.14335662126541138 -0.15193447470664978 1.3098573684692383
-0.17708036303520203 -0.16437187790870667 1.1934740543365479
-0.10079222917556763 -0.12476511299610138 1.7075557708740234
-0.08668471872806549 -0.019283968955278397 1.4368513822555542
-0.13511738181114197 0.0639474168419838 0.8440765142440796
-0.17842738330364227 0.012731608003377914 0.8319777250289917
-0.14955447614192963 -0.08272989094257355 0.8422888517379761
-0.19124019145965576 -0.11190111935138702 0.8265007734298706
-0.09397469460964203 -0.0993143767118454 1.6254032850265503
-0.10460089147090912 -0.1427769958972931 1.7253053188323975
-0.07908094674348831 -0.12604710459709167 1.6792113780975342
-0.06477797031402588 -0.0876658707857132 1.641963243484497
-0.08173660188913345 -0.09897993505001068 1.5920897722244263
-0.12064576894044876 -0.017382463440299034 1.0444258451461792
-0.16378626227378845 -0.05780922621488571 0.9933320879936218
-0.16999471187591553 -0.12367546558380127 0.9729210138320923
-0.08680111914873123 -0.10923803597688675 1.5268094539642334
-0.1344922035932541 -0.09644998610019684 -0.02023051306605339
-0.1386617124080658 -0.18192985653877258 -0.015648743137717247
-0.14073577523231506 -0.1960374116897583 0.01608707755804062
-0.10680393129587173 -0.15319786965847015 1.3654836416244507
-0.0991588830947876 -0.09741051495075226 1.3358776569366455
-0.09542471170425415 -0.11503267288208008 1.3093706369400024
-0.11864399909973145 -0.16222283244132996 1.348268747329712
-0.1067446693778038 -0.18732130527496338 1.295243740081787
-0.11978782713413239 -0.0747794359922409 0.4223078191280365
-0.11037740856409073 -0.10037754476070404 0.33622631430625916
-0.11775781214237213 -0.04867962375283241 0.2743358314037323
-0.12464092671871185 -0.07578566670417786 0.3018934726715088
-0.07654537260532379 -0.11300784349441528 1.6527551412582397
-0.10220412164926529 -0.1457916647195816 1.2676018476486206
-0.11279062926769257 -0.13895459473133087 1.2303571701049805
-0.11052489280700684 -0.17564789950847626 1.2442436218261719
-0.13526709377765656 -0.19139260053634644 1.2336100339889526
-0.10436563193798065 -0.03604023531079292 0.204755499958992
-0.0855901688337326 -0.1711091697216034 1.5073721408843994
-0.0749024748802185 -0.10309949517250061 1.527750015258789
-0.08190609514713287 -0.13246211409568787 1.5143399238586426
-0.09944337606430054 -0.11208838224411011 0.5239109396934509
-0.020375557243824005 -0.13782265782356262 1.7312839031219482
-0.10834090411663055 -0.1717628389596939 1.1864691972732544
-0.10857094824314117 -0.08549121022224426 1.1677874326705933
-0.0859922468662262 -0.15015245974063873 0.716515302658081
-0.02797670103609562 -0.08577489852905273 1.6977508068084717
-0.08317900449037552 -0.18421173095703125 1.3662614822387695
-0.0888858437538147 -0.1259794384241104 0.8333638906478882
-0.134982168674469 -0.13500460982322693 0.8516890406608582
-0.12462801486253738 -0.2007926106452942 0.9038335084915161
-0.10257270932197571 -0.21756085753440857 0.8453320264816284
-0.11295396834611893 -0.21680086851119995 0.05838920921087265
0.008229751139879227 -0.0659133642911911 1.6998302936553955
-0.016032865270972252 -0.12625470757484436 1.7193210124969482
-0.0956646278500557 -0.14200489223003387 1.4273381233215332
-0.07229064404964447 -0.16925111413002014 1.466788649559021
-0.0821651816368103 -0.025262802839279175 0.2749144434928894
-0.09452834725379944 -0.03530873730778694 0.16351306438446045
-0.1102302074432373 -0.19319424033164978 0.08906514942646027
-0.08801282942295074 0.004349786788225174 -0.02154802531003952
-0.07139946520328522 -0.11157122254371643 1.3155828714370728
-0.07647601515054703 -0.13775917887687683 0.49892860651016235
-0.06534260511398315 -0.20518800616264343 -0.01661653444170952
-0.10572375357151031 -0.21539710462093353 -0.023082464933395386
-0.03854050859808922 -0.109259232878685 1.5379247665405273
-0.04654884338378906 -0.13483938574790955 1.4914326667785645
-0.03051234595477581 -0.21815279126167297 0.9090754985809326
-0.08577477186918259 0.08720611035823822 0.8563905358314514
-0.09886430948972702 -0.15209412574768066 0.20758089423179626
-0.0689583569765091 -0.13106659054756165 0.12646345794200897
-0.07014422118663788 0.0016718637198209763 0.036982834339141846
-0.06337693333625793 -0.09819445013999939 1.289280891418457
-0.07811830937862396 -0.10516145825386047 1.2475981712341309
-0.04731816053390503 -0.22011823952198029 1.2678823471069336
-0.0765417218208313 -0.06005800887942314 0.6255815029144287
-0.06568629294633865 -0.15244942903518677 0.7130674123764038
-0.04764479398727417 -0.12935686111450195 0.8021132946014404
-0.05607841536402702 -0.12665365636348724 0.09415633976459503
-0.05919434130191803 -0.19659963250160217 0.06014322489500046
-0.0660296380519867 -0.21526062488555908 1.451796531677246
-0.05146247148513794 -0.11031840741634369 1.349395990371704
-0.03358962759375572 -0.09499908983707428 1.2951453924179077
-0.04736385494470596 -0.1396465003490448 0.5250924825668335
-0.026937387883663177 -0.11959473043680191 0.5286163091659546
-0.06208246946334839 -0.022818665951490402 0.4663192331790924
-0.046122316271066666 -0.19941240549087524 1.4239599704742432
-0.023659352213144302 -0.15785691142082214 1.4099054336547852
-0.054499782621860504 -0.10866206884384155 1.394503116607666
-0.033945247530937195 -0.05935405567288399 0.47512418031692505
0.025911850854754448 -0.11148630082607269 1.7240889072418213
-0.04911636561155319 -0.2659902572631836 1.5676095485687256
-0.034396860748529434 -0.19297149777412415 0.9735157489776611
-0.024273261427879333 -0.1696283221244812 1.4233508110046387
-0.010002044960856438 -0.19549281895160675 1.4025241136550903
-0.02849981188774109 -0.1791379153728485 1.395670771598816
-0.004285974428057671 -0.25332123041152954 1.5039900541305542
-0.045551836490631104 -0.24447962641716003 1.457674503326416
0.0012064985930919647 -0.14235424995422363 1.4406682252883911
-0.027192339301109314 -0.07794079929590225 0.6073685884475708
0.06838702410459518 -0.15222008526325226 1.7299363613128662
0.046151623129844666 -0.04773863032460213 1.6763944625854492
0.00029553472995758057 -0.2640874981880188 1.454042911529541
-0.018243294209241867 -0.24049851298332214 1.4143729209899902
0.010744879022240639 -0.14599628746509552 1.4131555557250977
0.00615739356726408 -0.24306991696357727 1.4135822057724
0.03855443373322487 -0.12301225960254669 1.395190715789795
0.0006632637232542038 -0.1017749011516571 1.283705472946167
0.07016807794570923 -0.10031793266534805 1.7201462984085083
0.036545075476169586 -0.15215924382209778 1.4404323101043701
0.024791982024908066 -0.19626659154891968 1.4181863069534302
0.09541203081607819 -0.07797011733055115 1.6876466274261475
0.07936663180589676 -0.139759361743927 1.7150459289550781
0.02040090039372444 -0.19242030382156372 1.405184030532837
0.06544012576341629 -0.21398094296455383 1.436738133430481
0.03276114910840988 -0.1711007058620453 1.4149174690246582
0.021763380616903305 -0.09272405505180359 0.5515494346618652
0.07077337056398392 -0.1243172436952591 1.4736297130584717
0.04912220686674118 -0.12323229759931564 0.465979665517807
0.007043945137411356 -0.2540901303291321 1.2197145223617554
0.06615740060806274 -0.1305418759584427 1.2463229894638062
0.0542958602309227 -0.10938407480716705 1.1422150135040283
0.06128179654479027 -0.28134453296661377 0.054672371596097946
0.09207594394683838 -0.29922404885292053 0.0267108753323555
0.06297609955072403 -0.0801829919219017 -0.01821870729327202
0.020870231091976166 -0.23330309987068176 1.21249520778656
0.00933309830725193 -0.2351660430431366 1.1318811178207397
0.02978193387389183 -0.14275993406772614 0.6942676901817322
0.05450926348567009 -0.176963672041893 -0.04763553664088249
0.12131183594465256 -0.13724052906036377 1.6734819412231445
0.06943337619304657 -0.2668522596359253 1.5650625228881836
0.05714721232652664 -0.24342939257621765 1.492089867591858
0.05234657973051071 -0.24292302131652832 1.450087547302246
0.081080362200737 -0.1586921364068985 0.842640221118927
0.17026185989379883 -0.14617982506752014 1.6937921047210693
0.0820925384759903 -0.13050517439842224 1.5191463232040405
0.07668495178222656 -0.1464928239583969 1.4892258644104004
0.06809969246387482 -0.06049630790948868 0.26865696907043457
0.06113368272781372 -0.053473737090826035 0.2055363804101944
0.08040259778499603 -0.08336251974105835 -0.04790288954973221
0.12306484580039978 -0.16329310834407806 1.7471795082092285
0.09606099873781204 -0.1517818570137024 1.381623387336731
0.08749769628047943 -0.21797221899032593 0.8368191719055176
0.06292768567800522 -0.13153672218322754 0.8252855539321899
0.11195788532495499 -0.1930253803730011 0.8229310512542725
0.062333088368177414 -0.04178965836763382 0.7138624787330627
0.11282692849636078 -0.29573172330856323 0.04520535469055176
0.13143157958984375 -0.14836663007736206 1.6811398267745972
0.039619315415620804 -0.19694119691848755 1.1114765405654907
0.043577805161476135 -0.24599407613277435 1.2300472259521484
0.04151370748877525 -0.26586970686912537 1.2233284711837769
0.13218015432357788 -0.1911288946866989 0.8929656744003296
0.10270132124423981 -0.1994810700416565 1.516484022140503
0.11029013246297836 -0.12694552540779114 1.5287902355194092
0.10651173442602158 -0.15037065744400024 1.511430025100708
0.11117404699325562 -0.16361087560653687 1.5044357776641846
0.11623577773571014 -0.17444607615470886 1.4793267250061035
0.089947409927845 -0.0688367411494255 0.6061801910400391
0.08658526837825775 -0.13531842827796936 0.6252768039703369
0.09830616414546967 -0.22273121774196625 1.3536559343338013
0.10700155794620514 -0.17937104403972626 1.3048644065856934
0.0742635652422905 -0.16971611976623535 1.3287990093231201
0.07533568143844604 -0.17804886400699615 1.3007885217666626
0.09323465824127197 -0.1200166791677475 0.7886977195739746
0.12391117215156555 -0.13000118732452393 -0.04289158806204796
0.1376294642686844 -0.17561276257038116 -0.04203501716256142
0.13582071661949158 -0.1502285897731781 1.6380194425582886
0.1158529669046402 -0.16095665097236633 1.350907325744629
0.12767231464385986 -0.11385771632194519 0.2538512945175171
0.1575123369693756 -0.12857969105243683 1.6174856424331665
0.13512764871120453 -0.10581566393375397 1.628151297569275
0.1407986581325531 -0.1272631585597992 1.5893969535827637
0.13810400664806366 -0.15360018610954285 0.05383733659982681
0.14292867481708527 -0.26226478815078735 0.01876617968082428
0.11149288713932037 -0.27134957909584045 0.07292626798152924
0.16968216001987457 -0.018628180027008057 0.9263180494308472
0.13390588760375977 -0.016470640897750854 0.819195568561554
0.1689154952764511 -0.16300413012504578 1.6871325969696045
0.15780439972877502 0.036635830998420715 0.8261967897415161
0.18674618005752563 -0.002145721111446619 0.8823606371879578
0.1303260624408722 -0.19817978143692017 1.2898341417312622
0.13122759759426117 -0.23016761243343353 1.268784523010254
0.10243827104568481 -0.23282963037490845 1.3241859674453735
0.12633369863033295 -0.21536913514137268 1.2302682399749756
0.10842166841030121 -0.2148856371641159 1.213416576385498
0.11094652116298676 -0.30469411611557007 1.1886485815048218
0.133342444896698 -0.25835302472114563 1.2224209308624268
0.1287260353565216 -0.23019060492515564 1.1514979600906372
0.1162218526005745 -0.2320040464401245 1.069854497909546
0.1441144049167633 -0.23592305183410645 1.0757933855056763
0.15471099317073822 -0.2540800869464874 1.1281119585037231
0.1449430137872696 -0.2942734360694885 1.1543868780136108
0.13760170340538025 -0.25122660398483276 1.0236471891403198
0.18567919731140137 -0.30375635623931885 1.06467866897583
0.18127866089344025 -0.28102877736091614 1.0450851917266846
0.16194204986095428 -0.2610586881637573 1.0234873294830322
0.15699931979179382 -0.34789106249809265 1.0578776597976685
0.1598615050315857 -0.3123520314693451 1.0268323421478271
0.15391932427883148 -0.2928788661956787 1.0146995782852173
0.19834904372692108 -0.33712247014045715 0.9156458377838135
0.1467975229024887 -0.33177152276039124 1.0265296697616577
0.1487322747707367 -0.34547072649002075 1.0005559921264648
0.1752329170703888 -0.3068881630897522 0.9482005834579468
0.14783981442451477 -0.33071091771125793 0.9777897596359253
0.15121310949325562 -0.35530003905296326 0.9781879186630249
0.16827034950256348 -0.34026244282722473 0.9496637582778931
0.1842365562915802 -0.3387354016304016 0.943864107131958
0.1546861231327057 -0.37206023931503296 0.9520128965377808
0.1704176813364029 -0.35549381375312805 0.943329393863678
0.16355493664741516 -0.3622919023036957 0.9515410661697388
0.19500210881233215 -0.34129902720451355 0.898094892501831
0.16932620108127594 -0.37371641397476196 0.9390404224395752
0.17685502767562866 -0.3355333209037781 0.9140889048576355
0.1878785789012909 -0.3630852699279785 0.9093244671821594
0.20002105832099915 -0.35428717732429504 0.9125815629959106
-0.2561139166355133 -0.01458745263516903 1.044500470161438
-0.2689542770385742 -0.07516631484031677 1.0114587545394897
-0.24704718589782715 -0.05692564696073532 1.0178340673446655
-0.2892509996891022 -0.11230109632015228 1.0332672595977783
-0.19384847581386566 -0.021740540862083435 1.054631233215332
-0.2587333619594574 -0.111672542989254 1.0272064208984375
-0.13811056315898895 -0.07906747609376907 1.2224267721176147
-0.15873371064662933 -0.13160735368728638 1.176094889640808
-0.1864863634109497 -0.09901124984025955 0.9379583597183228
-0.19186200201511383 -0.015761027112603188 0.904541015625
-0.13946157693862915 0.05104930326342583 0.9093339443206787
-0.0756213515996933 0.04602717235684395 1.331876277923584
-0.07829751074314117 0.05615533888339996 1.2814536094665527
-0.07854103296995163 0.08348886668682098 1.263491153717041
-0.16855883598327637 -0.011766329407691956 0.9416937828063965
-0.11446379125118256 -0.14206388592720032 1.6963846683502197
-0.10636869817972183 -0.11358655989170074 1.3491320610046387
-0.1232486441731453 -0.0883287563920021 1.2828717231750488
-0.024967851117253304 0.10637140274047852 1.1767334938049316
-0.05614103749394417 0.12235188484191895 1.111214518547058
-0.14271502196788788 -0.08032752573490143 0.04698120057582855
-0.1474173218011856 -0.16322246193885803 0.03133605420589447
-0.09154842793941498 -0.1474979817867279 1.6773059368133545
-0.08351339399814606 -0.12995009124279022 1.6292610168457031
-0.1242978572845459 -0.20358256995677948 1.207167625427246
-0.12452264875173569 -0.2117062509059906 1.177537441253662
-0.13188056647777557 -0.23008352518081665 1.1657119989395142
-0.0651305615901947 -0.008562890812754631 1.4185283184051514
-0.05644998699426651 -0.012817964889109135 1.4129538536071777
-0.10655328631401062 -0.20934250950813293 1.2246006727218628
-0.12617263197898865 -0.12200917303562164 1.2043453454971313
-0.1214032843708992 -0.11629966646432877 0.11410169303417206
-0.12744632363319397 -0.07314329594373703 0.13205276429653168
-0.028627537190914154 0.0355648472905159 1.319819450378418
-0.09953450411558151 -0.15569289028644562 1.4355597496032715
-0.10083838552236557 -0.14725399017333984 1.415961503982544
-0.09221251308917999 -0.14540305733680725 1.3953795433044434
-0.10489747673273087 -0.14136794209480286 1.3957451581954956
-0.1089424192905426 -0.1551501452922821 1.3778388500213623
-0.11611327528953552 -0.12876567244529724 0.7574563026428223
-0.1300375759601593 -0.09160731732845306 0.7444082498550415
-0.015176084823906422 0.15375378727912903 1.1976734399795532
-0.013239496387541294 0.1415320634841919 1.2400436401367188
-0.0988026112318039 -0.20033890008926392 1.2252202033996582
-0.1179824098944664 -0.11626389622688293 0.8390498161315918
-0.1175384670495987 -0.008079055696725845 0.03685533255338669
-0.12032395601272583 -0.01798228546977043 -0.012077510356903076
-0.13353335857391357 -0.19033919274806976 0.8391047120094299
-0.030766822397708893 0.09075883030891418 1.3196988105773926
-0.08466723561286926 -0.23973101377487183 1.5730960369110107
-0.06403376907110214 -0.12396185100078583 1.5187679529190063
-0.03588409349322319 -0.03770086541771889 1.521394968032837
-0.031183267012238503 -0.07942008227109909 1.5562467575073242
-0.05289934575557709 -0.07947427034378052 1.5344791412353516
-0.04964606463909149 -0.04335356131196022 1.473068118095398
0.010335894301533699 -0.018164105713367462 1.5639610290527344
-0.06032455712556839 -0.15363965928554535 1.4652763605117798
-0.09855031967163086 0.04421548545360565 0.9720443487167358
-0.0455268993973732 -0.15371939539909363 1.7656850814819336
-0.05558062344789505 -0.159071683883667 1.7591726779937744
-0.06097722798585892 -0.16721877455711365 1.7452327013015747
0.028229329735040665 -0.04539979249238968 1.4640052318572998
-0.028539635241031647 -0.0009917635470628738 1.458020806312561
-0.05053916200995445 -0.1111961379647255 -0.02310137450695038
0.01250813715159893 0.04772118106484413 1.4174492359161377
-0.059458374977111816 -0.2291436642408371 1.4902806282043457
-0.06185884028673172 -0.10106664896011353 0.34468260407447815
-0.003668021410703659 -0.06776180863380432 1.509291648864746
-0.02637864276766777 -0.11137820780277252 1.474657416343689
0.02014334872364998 0.003662210889160633 1.4974424839019775
-0.036089975386857986 0.05142005532979965 0.8567051887512207
-0.06593962013721466 -0.03706793859601021 0.2955886423587799
0.020507441833615303 0.14696474373340607 1.1122703552246094
-0.03197329863905907 0.022025706246495247 1.0504072904586792
-0.08334960788488388 -0.22513893246650696 1.2136274576187134
-0.09502105414867401 -0.1960376650094986 1.1267848014831543
-0.05072440952062607 -0.06524211913347244 0.2739315629005432
-0.029036130756139755 -0.07882455736398697 0.21316784620285034
-0.06024640426039696 -0.030433734878897667 0.20884685218334198
-0.005088794976472855 -0.08919015526771545 1.5146492719650269
-0.02294451929628849 -0.132820263504982 0.6673275232315063
-0.048188332468271255 -0.06122087687253952 0.6243201494216919
0.03716401010751724 0.1548181176185608 1.2306327819824219
0.03456166386604309 0.1663174331188202 1.1586012840270996
-0.04703013598918915 -0.23242948949337006 1.1379714012145996
-0.04040263220667839 -0.06546559929847717 0.06828638166189194
0.023000948131084442 0.12358963489532471 1.1406046152114868
0.017340106889605522 0.09575413167476654 1.166188359260559
0.057040661573410034 -0.0801958441734314 1.5097287893295288
-0.04623371362686157 -0.20442569255828857 1.3545376062393188
0.06263689696788788 0.062108613550662994 1.4001582860946655
0.07085098326206207 -0.04482430964708328 1.4510383605957031
0.04920515418052673 -0.09383288025856018 1.5016653537750244
0.07253455370664597 0.12238090485334396 1.1435105800628662
0.08430524170398712 0.1220029667019844 1.101944923400879
0.005390578880906105 -0.2225249707698822 1.346977710723877
0.020019307732582092 0.02140093967318535 1.0473041534423828
-0.027027616277337074 -0.22875739634037018 1.0771727561950684
0.12684327363967896 0.0418943390250206 1.4082001447677612
0.038023706525564194 -0.10538862645626068 1.294280767440796
0.10910889506340027 -0.008552192710340023 1.4922356605529785
0.07565590739250183 -0.053549814969301224 1.4849125146865845
0.03999868035316467 -0.0919424295425415 1.2116894721984863
0.046194374561309814 0.09423268586397171 0.920397162437439
0.07313381135463715 -0.17912472784519196 1.6898685693740845
0.0360875129699707 -0.22339516878128052 0.037299077957868576
0.04337938129901886 -0.2607725262641907 0.006595224142074585
0.033436041325330734 -0.12955524027347565 0.01996375061571598
0.02538309432566166 -0.2746303677558899 1.561842441558838
0.027822021394968033 -0.06302634626626968 0.6794230937957764
0.12767484784126282 -0.05174233764410019 1.4512226581573486
0.07716476917266846 -0.18058842420578003 1.4517054557800293
0.104668527841568 -0.1820978820323944 1.3882118463516235
0.06443621963262558 -0.1500619351863861 1.3862885236740112
0.04975387081503868 -0.06486943364143372 0.340248703956604
0.05062633380293846 -0.16995471715927124 0.19319549202919006
0.07287484407424927 -0.07526697218418121 0.13918212056159973
0.1333017647266388 0.11845969408750534 1.1422619819641113
0.12618982791900635 0.14663898944854736 1.1232181787490845
0.06489497423171997 -0.14869454503059387 0.7030969262123108
0.06499841809272766 -0.05384688824415207 0.6171295642852783
0.06973055005073547 -0.22297972440719604 1.667946457862854
0.1043018102645874 -0.22328659892082214 1.6245787143707275
0.06663592904806137 -0.13821598887443542 0.5115945339202881
0.09351120889186859 -0.1737578958272934 1.701828122138977
0.1131105050444603 -0.1796499788761139 1.653172492980957
0.06395676732063293 -0.13502652943134308 1.1291449069976807
0.07290466874837875 -0.11666809022426605 1.1090012788772583
0.06244765222072601 -0.18408972024917603 1.077326774597168
0.08339153230190277 -0.25209400057792664 1.5592906475067139
0.09477822482585907 -0.17702564597129822 1.4787194728851318
0.08300119638442993 -0.2165127992630005 1.4703364372253418
0.16561448574066162 0.11319530010223389 1.1029813289642334
0.06572908908128738 -0.2342720329761505 1.2631818056106567
0.05785001069307327 -0.28691768646240234 1.2120475769042969
0.07640072703361511 -0.18986153602600098 1.2098236083984375
0.11743809282779694 -0.09368874132633209 0.07571527361869812
0.09290026873350143 -0.19232356548309326 0.11630801856517792
0.11174634844064713 -0.1929413080215454 0.09576770663261414
0.13083353638648987 -0.16161072254180908 1.6771724224090576
0.06923434883356094 -0.2582634389400482 1.2633650302886963
0.1266414076089859 -0.06874394416809082 0.37606287002563477
0.10524144023656845 -0.11277703195810318 0.4384113848209381
0.12969046831130981 -0.09211881458759308 0.31985852122306824
0.11340076476335526 -0.2007438838481903 1.3743647336959839
0.10041135549545288 -0.19618868827819824 1.3760229349136353
0.11441896855831146 -0.17381051182746887 1.3395428657531738
0.12545649707317352 0.06295427680015564 0.8972517848014832
0.10538829863071442 -0.1177079975605011 0.8168320655822754
0.14226338267326355 -0.09380750358104706 0.18510915338993073
0.147571861743927 -0.1259046196937561 0.1978197544813156
0.12415872514247894 -0.17831647396087646 1.336682915687561
0.18190595507621765 0.013891670852899551 1.318299651145935
0.18805687129497528 0.0432763546705246 1.3043354749679565
0.039396848529577255 -0.3307151198387146 1.0985991954803467
0.1676965206861496 -0.07159098982810974 0.9632961750030518
0.17033891379833221 -0.12823200225830078 0.9459813833236694
0.09841551631689072 -0.21611377596855164 1.1546138525009155
0.09640993922948837 -0.31621402502059937 1.0399932861328125
0.09830582141876221 -0.27879881858825684 1.01707923412323
0.12865523993968964 -0.3450399339199066 1.0996599197387695
-0.24058537185192108 -0.020817743614315987 1.0193716287612915
-0.2738337814807892 -0.07293450087308884 0.9772167801856995
-0.20954346656799316 -0.1247389018535614 1.0873582363128662
-0.23207300901412964 -0.14652040600776672 1.1248695850372314
-0.16753801703453064 -0.09704964607954025 1.118118405342102
-0.1471976935863495 -0.05944693088531494 1.1549707651138306
-0.18865205347537994 -0.15712076425552368 0.846738338470459
-0.08065390586853027 0.11644851416349411 1.147610068321228
-0.08197562396526337 0.08508585393428802 1.2296370267868042
-0.14413699507713318 -0.2606048882007599 1.0597914457321167
-0.14690344035625458 -0.16172973811626434 0.9404839277267456
-0.1461879014968872 -0.08459129929542542 0.21886780858039856
-0.12396588921546936 -0.13388273119926453 0.23435407876968384
-0.09927428513765335 -0.03197729215025902 0.4488421380519867
-0.14559721946716309 -0.19631946086883545 0.8431721925735474
-0.10079149901866913 -0.0885949656367302 0.5898274183273315
-0.10292353481054306 -0.12572893500328064 0.650865375995636
-0.0941249430179596 -0.06391169875860214 0.6576701402664185
-0.10099013149738312 -0.04785338044166565 1.1107597351074219
-0.1102825328707695 -0.11498861014842987 1.1237690448760986
0.005137772299349308 0.11899517476558685 1.2950820922851562
-0.10918103158473969 -0.023721015080809593 0.8326930403709412
-0.08042749017477036 -0.14453327655792236 0.2517353594303131
-0.09919452667236328 -0.08780330419540405 1.2152502536773682
-0.08774078637361526 -0.08045525848865509 1.1434526443481445
-0.0807458832859993 -0.12449293583631516 0.3953193128108978
-0.056618042290210724 -0.16087223589420319 1.6886037588119507
-0.0647754892706871 -0.19147571921348572 1.670198678970337
-0.02864176034927368 -0.22514864802360535 1.669968843460083
-0.050153136253356934 -0.25402700901031494 1.626502513885498
-0.07221408188343048 -0.23648768663406372 1.5384118556976318
-0.06192807853221893 -0.10151227563619614 0.28871214389801025
-0.03238878399133682 -0.13796646893024445 0.7244939208030701
-0.03203168138861656 -0.1088777408003807 0.21844053268432617
-0.04967628791928291 -0.13874538242816925 0.22136810421943665
-0.06078408285975456 -0.044306203722953796 0.16055068373680115
-0.05497181415557861 0.06504237651824951 0.9723722338676453
-0.008831946179270744 -0.15507839620113373 1.7278748750686646
-0.025126386433839798 -0.16520994901657104 1.7144945859909058
0.07027586549520493 0.06632392108440399 1.2590391635894775
-0.0101375263184309 0.06669385731220245 1.2668284177780151
0.05477959290146828 0.04329906404018402 1.3042501211166382
0.014989164657890797 -0.10707638412714005 1.247096300125122
0.07254457473754883 0.11164341121912003 1.3161693811416626
0.05911900848150253 0.10085563361644745 1.1685981750488281
0.12391922622919083 0.14050965011119843 1.2494027614593506
0.08601419627666473 -0.049049489200115204 1.6478159427642822
0.09015961736440659 0.09189261496067047 1.1697005033493042
0.04190712422132492 -0.2184922993183136 0.8996682167053223
0.022205796092748642 -0.12581266462802887 0.21016034483909607
0.037872012704610825 -0.14603790640830994 0.15147796273231506
0.021410463377833366 -0.13089734315872192 0.661971390247345
0.04271259158849716 -0.01505134254693985 1.0811083316802979
0.03883206099271774 -0.049801163375377655 0.5227168202400208
0.12533311545848846 0.012476769275963306 1.3486287593841553
0.07150895893573761 -0.22851622104644775 1.3755972385406494
0.11222127079963684 -0.05649781972169876 1.6095197200775146
0.09803545475006104 -0.11559050530195236 1.5609829425811768
0.10046717524528503 -0.09503316879272461 1.5448155403137207
0.09364579617977142 -0.17496325075626373 1.7457598447799683
0.05448015779256821 -0.2486037015914917 1.3160338401794434
0.10125605016946793 -0.03351619839668274 0.4428257346153259
0.06941892206668854 -0.02039024606347084 0.4389539361000061
0.08933133631944656 -0.04798734188079834 0.28523820638656616
0.11076445132493973 -0.056220754981040955 0.2552489638328552
0.1151958554983139 -0.17173931002616882 1.4708263874053955
0.10419803112745285 -0.18107068538665771 1.4771223068237305
0.11575837433338165 -0.174265056848526 1.4622931480407715
0.097823366522789 -0.05535911023616791 0.7243965268135071
0.10026372224092484 -0.099481001496315 0.5904769897460938
0.13445860147476196 0.021814625710248947 0.9376775622367859
0.10897427797317505 -0.1032169833779335 1.0876684188842773
0.10017222166061401 -0.15332522988319397 1.068190574645996
0.1147797554731369 -0.16630131006240845 1.0081030130386353
0.13204526901245117 -0.15024450421333313 1.5858831405639648
0.1341676414012909 -0.14241406321525574 1.5098297595977783
0.05133233219385147 -0.27171584963798523 1.1977534294128418
0.15458077192306519 -0.07303203642368317 1.514932632446289
0.14578409492969513 -0.10647663474082947 1.5440385341644287
0.13771802186965942 -0.13246405124664307 -0.010271678678691387
0.14506752789020538 -0.20575138926506042 -0.0013225656002759933
0.15736380219459534 -0.08227014541625977 1.4804913997650146
0.1600366234779358 -0.06322452425956726 1.4586865901947021
0.16399240493774414 -0.058699220418930054 1.429583191871643
0.16555368900299072 -0.04211118817329407 1.4221941232681274
0.03775408864021301 -0.3363528549671173 1.1165850162506104
0.16094137728214264 -0.1577238142490387 0.8208537697792053
0.057168979197740555 -0.3189295530319214 1.1311912536621094
0.049310941249132156 -0.33887630701065063 1.1147778034210205
0.19252854585647583 -0.11501052975654602 0.8306630253791809
0.18943682312965393 -0.09217275679111481 0.8109562397003174
0.20194852352142334 -0.05754051357507706 0.8184143304824829
-0.19369396567344666 -0.1498546004295349 1.1455843448638916
-0.14532165229320526 -0.18016651272773743 1.2256317138671875
-0.15199825167655945 -0.17325188219547272 1.2085705995559692
-0.14246007800102234 -0.16821853816509247 1.2199665307998657
-0.1383662223815918 -0.17220157384872437 1.2376282215118408
-0.19972503185272217 -0.0020023025572299957 0.8362706303596497
-0.11005829274654388 -0.14487484097480774 1.2737840414047241
-0.14692381024360657 -0.08807720243930817 1.0732160806655884
-0.06943868100643158 -0.0549621507525444 1.5473692417144775
-0.1297909915447235 -0.1441531777381897 1.1849197149276733
-0.13921357691287994 -0.12258273363113403 1.140096664428711
-0.05321637913584709 -0.02743285521864891 1.4628243446350098
-0.045365482568740845 -0.02176951989531517 1.4315168857574463
-0.13788041472434998 -0.15412715077400208 1.021256923675537
-0.10318934917449951 -0.17287489771842957 0.9814908504486084
-0.11042147874832153 -0.04596586897969246 0.7485188245773315
0.006124630570411682 0.08516906201839447 1.3487474918365479
-0.004463059827685356 -0.03973770886659622 1.6358729600906372
-0.0438087098300457 -0.028048846870660782 -0.003329044207930565
-0.05743299052119255 -0.014630986377596855 -0.01919437013566494
-0.08322697132825851 0.024325136095285416 0.8545748591423035
-0.006479170173406601 0.0955011248588562 0.8581430912017822
-0.056351058185100555 -0.025338098406791687 0.830100417137146
0.059843629598617554 -0.0022003157064318657 1.3744245767593384
-0.012740972451865673 -0.09592242538928986 0.756440281867981
-0.008556358516216278 -0.26110655069351196 1.5432376861572266
-0.011130316182971 0.016328316181898117 0.8744045495986938
-0.006235683336853981 -0.025030430406332016 0.8494018316268921
0.0014716258738189936 -0.11619026958942413 0.8502131700515747
-0.07873882353305817 -0.16635368764400482 0.8570091724395752
-0.005425568670034409 -0.22617407143115997 0.8500260710716248
0.006142985075712204 -0.1086658239364624 0.8117180466651917
-0.008073204196989536 -0.16107238829135895 0.8617523908615112
0.037974581122398376 -0.10954979807138443 1.4678828716278076
0.008549554273486137 -0.03553236648440361 0.8361367583274841
0.006478243041783571 -0.04837776720523834 0.8073714971542358
0.0595359280705452 -0.10896076261997223 1.5408483743667603
0.06089210510253906 -0.0995142012834549 1.520058512687683
0.017942875623703003 -0.12328419089317322 0.8299558162689209
0.11720817536115646 0.05735336244106293 0.824968159198761
0.027545839548110962 -0.0958629697561264 0.20467470586299896
0.02509506419301033 -0.03432447463274002 0.7877703905105591
0.11109048128128052 0.05947135388851166 1.2798819541931152
0.06310425698757172 -0.11918826401233673 0.3321564793586731
0.05716370418667793 -0.10669142752885818 0.2676111161708832
0.07325577735900879 -0.12750712037086487 0.28465813398361206
0.06260349601507187 -0.17291736602783203 0.23475095629692078
0.13694718480110168 -0.05568704009056091 1.4945722818374634
0.06102129817008972 -0.016354244202375412 0.8234311938285828
0.08191369473934174 -0.03630276024341583 0.7933467626571655
0.0797024518251419 -0.16073445975780487 1.2207669019699097
0.09414996206760406 -0.1279776692390442 0.3819097876548767
0.1346982717514038 -0.09638433158397675 1.580190658569336
0.0769968032836914 -0.14930130541324615 1.276198148727417
0.10361215472221375 -0.13030728697776794 0.2842969596385956
0.13789920508861542 0.11154969036579132 1.2911957502365112
0.08678984642028809 -0.12480360269546509 1.2041494846343994
0.11420920491218567 -0.07778100669384003 0.14050564169883728
0.17083194851875305 0.12433978915214539 1.2202465534210205
0.09868727624416351 -0.05984554439783096 0.183511421084404
0.10302477329969406 -0.18293771147727966 0.20538049936294556
0.16556265950202942 -0.00234810053370893 1.358364462852478
0.12260986864566803 -0.18577569723129272 1.410771369934082
0.1241757944226265 -0.18132230639457703 1.3820772171020508
0.122892364859581 -0.18402248620986938 1.4107708930969238
0.13555759191513062 -0.1506408452987671 1.358201026916504
0.06323844194412231 -0.29435575008392334 1.176788330078125
0.04562229663133621 -0.3032175302505493 1.1718086004257202
0.17924770712852478 0.03683359920978546 1.2857048511505127
0.19595587253570557 0.07690341025590897 1.2426331043243408
0.18771427869796753 0.07868756353855133 1.2140356302261353
0.09115784615278244 -0.2282227873802185 1.2158291339874268
0.07547850906848907 -0.26190343499183655 1.2320423126220703
0.14848899841308594 -0.18174706399440765 0.8370494842529297
0.0845075324177742 -0.2790285348892212 1.239159345626831
0.07484219968318939 -0.3135436773300171 1.1373624801635742
0.07498519122600555 -0.2534540295600891 1.1135106086730957
0.0695464015007019 -0.2955053150653839 1.1054644584655762
0.14395251870155334 -0.3215959668159485 1.1293487548828125
0.13175508379936218 -0.30002033710479736 0.9977929592132568
0.12756124138832092 -0.34774547815322876 1.0523635149002075
-0.1467110812664032 -0.2603425979614258 1.0982786417007446
-0.13504335284233093 -0.2109854519367218 1.1652933359146118
-0.14169083535671234 -0.20542797446250916 1.1859606504440308
-0.13425390422344208 -0.248244047164917 1.106525182723999
-0.06674426794052124 -0.03180853649973869 1.489244818687439
-0.07383128255605698 -0.03910931572318077 1.4722797870635986
-0.07690555602312088 -0.013858099468052387 1.4412212371826172
-0.08104655146598816 -0.1561887264251709 1.6563793420791626
-0.09369772672653198 -0.17836664617061615 1.5726585388183594
-0.12001509964466095 -0.10079127550125122 0.2796890139579773
-0.12290854007005692 -0.0764683187007904 0.8255296945571899
-0.1184798926115036 -0.10409939289093018 0.8068193793296814
-0.06650805473327637 0.13435254991054535 1.1303348541259766
-0.09018924832344055 -0.19320958852767944 1.2198023796081543
-0.10608555376529694 -0.040101323276758194 0.8009670972824097
-0.03383474797010422 -0.176140695810318 1.6938551664352417
-0.10353554040193558 -0.15803059935569763 1.1147198677062988
-0.0723951905965805 -0.21440427005290985 1.092829704284668
-0.012163740582764149 0.09561401605606079 1.2112818956375122
0.05573560670018196 0.09224247187376022 1.2017929553985596
-0.06344819068908691 -0.07036073505878448 1.1625959873199463
-0.04430769011378288 -0.117037832736969 0.845935583114624
-0.06277977675199509 -0.20654162764549255 1.0343260765075684
-0.05125301331281662 -0.004314708523452282 1.069801926612854
0.008086995221674442 -0.26126837730407715 1.632402777671814
-0.0034133901353925467 -0.10186558216810226 0.7390780448913574
0.00761261023581028 0.013234910555183887 1.355534315109253
0.04271538928151131 -0.20443223416805267 -0.037029389292001724
0.15337242186069489 0.14993169903755188 1.1733099222183228
0.11938565224409103 0.09101665765047073 1.2132883071899414
0.10676214843988419 0.16129706799983978 1.191555380821228
0.08925612270832062 0.08669286966323853 0.8448457717895508
0.11379260569810867 -0.08660531044006348 -0.030620116740465164
0.10083948075771332 -0.03854715824127197 0.8121530413627625
0.09782475978136063 -0.12424492090940475 0.3368690609931946
0.10503512620925903 -0.2293074131011963 1.352912425994873
0.07807707041501999 -0.25555941462516785 1.281764268875122
0.18688052892684937 -0.0028343824669718742 0.8148190975189209
0.20225995779037476 -0.05510806292295456 0.8808122873306274
0.1309291422367096 -0.32930660247802734 1.0136070251464844
-0.24272345006465912 -0.14304818212985992 1.0883195400238037
-0.206182062625885 -0.08491235971450806 0.8968667984008789
-0.2143341302871704 -0.07818025350570679 0.8386991024017334
-0.07982172071933746 -0.02678590640425682 1.4330466985702515
-0.0766589343547821 0.02747788466513157 1.3287873268127441
-0.08375845849514008 -0.12430404126644135 1.509927749633789
-0.14323830604553223 -0.0718371719121933 1.0389511585235596
-0.14751163125038147 -0.1093858927488327 1.0753809213638306
-0.08251747488975525 -0.12156355381011963 1.5110327005386353
-0.08447635173797607 -0.13276615738868713 1.495743989944458
-0.08508874475955963 -0.12683330476284027 1.5055910348892212
-0.08526767045259476 -0.13033537566661835 1.5072194337844849
-0.09095552563667297 -0.14130696654319763 1.4938956499099731
-0.09500555694103241 -0.13692116737365723 0.1175725907087326
-0.08909782022237778 -0.2178485095500946 1.612673044204712
-0.029607757925987244 -0.07977771759033203 1.2159873247146606
-0.04133482277393341 -0.15184010565280914 0.028355389833450317
-0.039149053394794464 -0.09721651673316956 1.2510488033294678
-0.0075856903567910194 -0.07704497873783112 1.1707569360733032
-0.043027278035879135 0.09415310621261597 0.9299496412277222
0.022522736340761185 -0.186608225107193 1.701443076133728
-0.01555765699595213 -0.09211595356464386 0.6859736442565918
0.028468351811170578 0.02416498214006424 1.3266242742538452
0.00203578919172287 -0.19903448224067688 0.9906760454177856
-0.043758027255535126 -0.2439974844455719 1.1807782649993896
0.0633847787976265 0.07286097854375839 1.232840657234192
0.04528699815273285 -0.10262812674045563 0.13335809111595154
0.06412522494792938 -0.18452779948711395 0.9775241613388062
0.12268263101577759 -0.17758417129516602 0.9456465840339661
0.1144394651055336 -0.085722416639328 1.516801118850708
0.04518518224358559 -0.2141331285238266 1.1339994668960571
0.030423497781157494 -0.08452895283699036 1.1646696329116821
0.09330995380878448 -0.05742574855685234 1.0887112617492676
0.08977170288562775 0.056411128491163254 0.9490545988082886
0.11029943078756332 -0.2914552092552185 -0.039220891892910004
0.0858558863401413 -0.27414608001708984 -0.05447310954332352
0.1394284963607788 -0.26119986176490784 -0.047249969094991684
0.12334077805280685 -0.17404980957508087 0.18285420536994934
0.11954692006111145 -0.18365317583084106 1.4088618755340576
0.12220452725887299 -0.183929443359375 1.409143328666687
0.07659398764371872 -0.2108515202999115 1.2897210121154785
0.07611086964607239 -0.24485379457473755 1.2715986967086792
0.19781851768493652 0.11169548332691193 1.1634114980697632
0.1901475489139557 0.10303512960672379 1.120902180671692
0.19968922436237335 0.10773110389709473 1.11939537525177
0.14056357741355896 -0.2903413772583008 0.9997618794441223
0.1371261328458786 -0.34532833099365234 0.9933435916900635
0.14740660786628723 -0.3650376796722412 0.9858220815658569
-0.20631539821624756 -0.061085429042577744 1.0417301654815674
-0.15073566138744354 -0.2352408915758133 1.143953800201416
-0.09117095172405243 -0.1061379611492157 0.31351813673973083
-0.03448551893234253 0.12670227885246277 1.1048202514648438
-0.11486415565013885 -0.1636272519826889 1.0609025955200195
-0.028569744899868965 -0.04534811154007912 0.838736891746521
-0.04079241305589676 -0.03992156684398651 0.7950661778450012
-0.03249131515622139 -0.09277777373790741 0.8036169409751892
-0.0035290499217808247 -0.024536728858947754 1.1163132190704346
0.022928044199943542 -0.20875607430934906 0.8351430892944336
0.0852959081530571 0.01480065193027258 0.8416517972946167
0.1312323808670044 0.0966881588101387 1.1844767332077026
0.13301318883895874 -0.12386144697666168 1.5177724361419678
0.14175797998905182 -0.09872548282146454 1.5034595727920532
0.1886364221572876 -0.12390466034412384 0.8836324214935303
-0.15493756532669067 -0.2367023527622223 1.11130952835083
-0.07641448825597763 -0.08353108167648315 1.5531904697418213
-0.006915937177836895 0.12701012194156647 1.1448006629943848
-0.0531010702252388 -0.06516268104314804 1.5865682363510132
-0.0338730551302433 -0.09438345581293106 1.565294861793518
-0.006839733570814133 -0.10035040229558945 1.5416481494903564
0.022929836064577103 -0.21357643604278564 1.040745735168457
0.037078775465488434 -0.23084533214569092 1.2215988636016846
0.05674618110060692 -0.18942585587501526 0.11166530847549438
0.07393263280391693 -0.2017795294523239 1.1825814247131348
0.08429257571697235 -0.16681671142578125 1.1387876272201538
0.15090005099773407 -0.04395353049039841 1.434969425201416
0.1428757905960083 -0.01772424951195717 1.4558566808700562
0.09200352430343628 -0.12680980563163757 1.1580824851989746
0.1012166440486908 -0.07599750906229019 0.80086350440979
0.0380469486117363 -0.28520622849464417 1.2010796070098877
0.1703243851661682 0.005045805126428604 1.3797013759613037
-0.06202356517314911 0.007687125355005264 1.3955096006393433
-0.08710081875324249 -0.03009871207177639 0.32322797179222107
0.009361141361296177 -0.10240940749645233 0.6944948434829712
0.0568704828619957 -0.2618919312953949 1.6124556064605713
-0.07573258876800537 0.11744390428066254 1.1873793601989746
-0.13250713050365448 -0.17446640133857727 1.242240071296692
-0.04715520888566971 -0.06839446723461151 0.35937729477882385
0.06740731745958328 0.0037712501361966133 1.4983065128326416
0.06190750002861023 -0.27380916476249695 -0.03802978992462158
0.11778222024440765 -0.17431989312171936 1.4623818397521973
0.11626605689525604 -0.17376795411109924 1.4611334800720215
0.10597476363182068 -0.1846095621585846 1.37354576587677
0.11705159395933151 -0.1685880869626999 0.14671377837657928
0.13223347067832947 -0.13448649644851685 0.12436747550964355
0.08680733293294907 -0.30968713760375977 1.1827664375305176
-0.17745178937911987 -0.15778058767318726 0.906998872756958
-0.06918653845787048 -0.010045275092124939 1.416179895401001
-0.0676192194223404 -0.012247728183865547 1.4176994562149048
-0.07295405864715576 -0.014474529772996902 1.416664481163025
-0.04207476228475571 -0.08652883768081665 0.15356089174747467
-0.027739612385630608 -0.09913705289363861 0.8437658548355103
0.03417422994971275 -0.15350912511348724 0.10013405233621597
0.10329697281122208 -0.3311256170272827 1.1377272605895996
0.11409802734851837 -0.2137097418308258 1.5786592960357666
0.11209079623222351 -0.1013374775648117 0.7510124444961548
0.16515037417411804 -0.03751445561647415 1.40666663646698
0.16777348518371582 -0.013782872818410397 1.384039044380188
0.044790543615818024 -0.11866240203380585 -0.03973609209060669
0.050251834094524384 -0.646849513053894 1.0282360315322876
0.05000060424208641 -0.6211439371109009 1.0058616399765015
0.0475582629442215 -0.6306958198547363 1.0084946155548096
0.04271909222006798 -0.6265933513641357 1.015899658203125
0.043422866612672806 -0.6460050940513611 1.0180240869522095
0.0487167127430439 -0.6400730609893799 1.0302714109420776
0.08728054910898209 -0.5186603665351868 1.0030708312988281
0.07372740656137466 -0.5225074291229248 0.9989230632781982
0.07990854978561401 -0.5401347875595093 1.0068846940994263
0.0778036117553711 -0.5477471351623535 1.0102946758270264
0.10431335866451263 -0.388782799243927 0.9348074197769165
0.10242362320423126 -0.39890217781066895 0.9509691596031189
0.10228801518678665 -0.3993431329727173 0.9290036559104919
0.06884773075580597 -0.5344523787498474 0.9692481756210327
0.06943757832050323 -0.5467470288276672 0.9824402332305908
0.08098342269659042 -0.5677201747894287 1.0298701524734497
0.07907941937446594 -0.557949423789978 1.0190839767456055
0.09205911308526993 -0.42804160714149475 0.9158909320831299
0.0913776159286499 -0.43523257970809937 0.9364069700241089
0.10761197656393051 -0.46465247869491577 0.9965956807136536
0.10340715944766998 -0.4583560824394226 0.9907185435295105
0.06527955085039139 -0.626375675201416 1.0385997295379639
0.05547906085848808 -0.6119236946105957 0.9986069798469543
0.10664674639701843 -0.39776477217674255 0.9192799925804138
0.09996458888053894 -0.40351736545562744 0.9164988994598389
