-0.20904187858104706 0.058112453669309616 1.2718300819396973
0.2510925531387329 -0.03535233438014984 1.1601346731185913
0.1717894971370697 0.013469628989696503 1.4369721412658691
0.3098466098308563 -0.015197631902992725 1.2010642290115356
0.30079737305641174 -0.039388928562402725 1.1958796977996826
0.30962255597114563 -0.021666664630174637 1.1315304040908813
0.33259785175323486 -0.020939268171787262 1.3153746128082275
0.3391931354999542 -0.05742599815130234 1.2379088401794434
0.4053601920604706 -0.05273735523223877 1.0824984312057495
0.35627511143684387 -0.014249921776354313 1.4689085483551025
0.40734943747520447 -0.08641725778579712 1.2031638622283936
0.44982239603996277 -0.05305728316307068 1.4143435955047607
0.5477736592292786 -0.15803168714046478 0.8809422850608826
0.568379819393158 -0.15541599690914154 0.8618488907814026
0.5786725878715515 -0.17456792294979095 0.7480677366256714
0.5887172818183899 -0.18171948194503784 0.6700456142425537
0.5748457312583923 -0.1976645290851593 0.685494065284729
0.5342612266540527 -0.10733310133218765 1.1603870391845703
0.5979644656181335 -0.16359582543373108 0.7506222128868103
0.6036036610603333 -0.1732664257287979 0.6760801076889038
0.5323394536972046 -0.20377309620380402 0.9417164325714111
0.5230700969696045 -0.2113674283027649 0.9913578033447266
0.5113738775253296 -0.23113180696964264 0.9631572365760803
0.5437148213386536 -0.2210996448993683 0.8914279937744141
0.624580979347229 -0.1689055860042572 0.7773657441139221
0.6315004825592041 -0.1847815215587616 0.6934053897857666
0.5946829915046692 -0.16615614295005798 0.9517272710800171
0.5513635277748108 -0.20954076945781708 0.9356194138526917
0.5792624950408936 -0.23237133026123047 0.8804938793182373
0.5429444313049316 -0.22845177352428436 0.9447603821754456
0.5586206316947937 -0.26150035858154297 0.8735804557800293
0.5541284680366516 -0.18909421563148499 1.0101546049118042
0.5968294739723206 -0.207861989736557 0.9582623839378357
0.6168608665466309 -0.25469574332237244 0.7178837656974792
0.600344717502594 -0.2856633961200714 0.6588754057884216
0.6522909998893738 -0.21640191972255707 0.6614238023757935
0.600749671459198 -0.15753959119319916 1.0289885997772217
0.6232666969299316 -0.19415968656539917 0.8139981031417847
0.5953354239463806 -0.2666199803352356 0.7887746691703796
0.6192938089370728 -0.25931403040885925 0.7784000635147095
0.6529075503349304 -0.2553154230117798 0.6935076117515564
0.6556358933448792 -0.18326056003570557 0.9620217680931091
0.6761336922645569 -0.18276159465312958 0.9300088286399841
0.685192883014679 -0.2308068424463272 0.7546783685684204
0.6768173575401306 -0.2366088181734085 0.7755315899848938
0.5940448641777039 -0.1341567039489746 1.1313910484313965
0.6880975961685181 -0.1383189857006073 1.0818181037902832
0.6482134461402893 -0.1556040644645691 1.0790783166885376
0.6372336745262146 -0.11193589866161346 1.2739259004592896
0.6366581916809082 -0.1179611012339592 1.2268543243408203
0.6343406438827515 -0.11427319794893265 1.222974419593811
0.6346978545188904 -0.13438472151756287 1.2082425355911255
0.6716198921203613 -0.1344309002161026 1.1412056684494019
0.6596820950508118 -0.14056718349456787 1.1623239517211914
-0.4398137331008911 0.09544584155082703 0.8551793098449707
-0.44107872247695923 0.07332676649093628 0.8724926114082336
-0.43328893184661865 0.04941219836473465 0.8437319993972778
-0.21973884105682373 -0.060568638145923615 0.5796520113945007
-0.2127266675233841 -0.10845610499382019 0.5461722612380981
-0.2912898063659668 -0.03877773508429527 0.7679595947265625
-0.2919900417327881 -0.052303578704595566 0.711884617805481
-0.30411237478256226 -0.076243557035923 0.7549499869346619
-0.2728222906589508 -0.08669722080230713 0.6420317888259888
-0.23947905004024506 -0.07039887458086014 0.6550185680389404
-0.22657924890518188 -0.10284978151321411 0.6252808570861816
-0.35019510984420776 0.00583580881357193 0.905465841293335
-0.32649338245391846 -0.028666581958532333 0.8625650405883789
-0.3374630808830261 -0.009927269071340561 0.8588495254516602
-0.25899815559387207 -0.08809667080640793 0.694499135017395
-0.2515878677368164 -0.06397347152233124 0.6932925581932068
-0.2962774634361267 -0.060641199350357056 0.7906520366668701
-0.278674453496933 -0.04736774414777756 0.7410702705383301
-0.38856738805770874 0.0953131914138794 1.0437556505203247
-0.28029218316078186 0.04397718980908394 0.8976131081581116
-0.25490471720695496 0.03364879637956619 0.9430164098739624
-0.24996152520179749 0.054673224687576294 0.9391323924064636
-0.35364389419555664 0.056238774210214615 1.0861825942993164
-0.28798848390579224 0.057766515761613846 1.0318156480789185
-0.2607349753379822 0.060185518115758896 0.9741234183311462
-0.2570953965187073 0.039884697645902634 0.9668722748756409
-0.34294673800468445 0.0969201847910881 1.3289036750793457
-0.2648954391479492 0.07830114662647247 1.0652897357940674
-0.2615247368812561 0.053237155079841614 1.1132844686508179
-0.23766329884529114 0.07866312563419342 1.071327567100525
-0.20076456665992737 0.05535390228033066 1.121786117553711
-0.2101648896932602 0.07245880365371704 1.0884039402008057
-0.17362651228904724 0.06026940792798996 1.1844799518585205
0.4614548683166504 -0.07899170368909836 1.080427646636963
0.4157739281654358 -0.03713375702500343 1.580123782157898
0.5314285159111023 -0.1194695457816124 1.0455108880996704
0.4867880642414093 -0.08639616519212723 1.0237609148025513
0.49964725971221924 -0.12792998552322388 1.0211501121520996
0.512907862663269 -0.11313676834106445 1.013549566268921
0.48274290561676025 -0.08303304016590118 1.2222743034362793
0.5042411088943481 -0.16302835941314697 1.0486009120941162
0.5209144353866577 -0.17973379790782928 0.9930449724197388
0.5021427869796753 -0.19951024651527405 1.0167261362075806
0.5083746910095215 -0.20241735875606537 0.9862372279167175
0.5298817753791809 -0.1935664713382721 0.9311579465866089
0.5763903260231018 -0.21832816302776337 0.7272876501083374
0.5902009606361389 -0.22549617290496826 0.6746850609779358
0.6188110113143921 -0.21684840321540833 0.6637459993362427
0.5553025007247925 -0.150302916765213 1.0268770456314087
0.5691540241241455 -0.15503805875778198 0.9885565042495728
0.5463925004005432 -0.20984946191310883 0.9654542207717896
0.5410531759262085 -0.21804821491241455 0.924905002117157
0.5267015099525452 -0.24717850983142853 0.895061194896698
0.5034929513931274 -0.10911095887422562 1.33807373046875
0.6163947582244873 -0.1803562343120575 0.9586056470870972
0.6439719200134277 -0.19709433615207672 0.912605881690979
0.5997741222381592 -0.17032185196876526 1.087002158164978
0.6723191142082214 -0.26749876141548157 0.7381981015205383
0.680560827255249 -0.22920265793800354 0.7009066343307495
0.6369870901107788 -0.2085278332233429 0.94371497631073
0.6434882879257202 -0.22585801780223846 0.8917360305786133
0.7137199640274048 -0.17020373046398163 1.0732060670852661
0.6675587296485901 -0.20539674162864685 1.0355008840560913
0.6896163821220398 -0.18673060834407806 1.028076171875
0.7061716318130493 -0.2265523225069046 0.8967660069465637
0.7079674601554871 -0.20506665110588074 0.9040479063987732
-0.4867151379585266 0.13606330752372742 1.0188997983932495
-0.23101063072681427 -0.05294438451528549 0.51934415102005
-0.356512188911438 1.882016658782959e-05 0.8401032090187073
-0.3353765606880188 -0.023622408509254456 0.8143765926361084
-0.3781191110610962 0.033939700573682785 0.8804512023925781
-0.5068493485450745 0.14551395177841187 1.3361332416534424
-0.3593754172325134 0.06878171861171722 0.9152612686157227
-0.34476763010025024 0.045758116990327835 0.8881839513778687
-0.17949901521205902 -0.0677698478102684 0.5637547969818115
-0.16447657346725464 -0.042062897235155106 0.5602754950523376
-0.3116299510002136 -0.009669672697782516 0.8634144067764282
-0.2950133681297302 -0.03415695205330849 0.8121998906135559
-0.30823007225990295 -0.027810364961624146 0.8559930324554443
-0.4862246513366699 0.12222054600715637 1.2908000946044922
-0.4332340657711029 0.12818172574043274 1.1865031719207764
-0.22411376237869263 0.09064260125160217 1.190970778465271
0.1587463915348053 0.0016076881438493729 1.2447335720062256
0.14447304606437683 -0.011500205844640732 1.2533519268035889
0.25302475690841675 -0.03903849795460701 1.2014058828353882
0.2619338929653168 -0.02623320370912552 1.1266708374023438
0.32549619674682617 -0.025781236588954926 1.2471435070037842
0.3913654386997223 -0.05573580414056778 1.1307146549224854
0.3835035562515259 -0.0707450658082962 1.115584373474121
0.43330347537994385 -0.0858037918806076 1.2712206840515137
0.44832876324653625 -0.09432198107242584 1.3535171747207642
0.4771585762500763 -0.11743054538965225 1.1675448417663574
0.5236222147941589 -0.23754720389842987 0.8984015583992004
0.5601954460144043 -0.23163315653800964 0.8481704592704773
0.5510648488998413 -0.2636394500732422 0.8062960505485535
0.5737301111221313 -0.24535734951496124 0.7505423426628113
0.5563458204269409 -0.16499674320220947 1.0917277336120605
0.6064749956130981 -0.29289281368255615 0.6819860935211182
-0.4272036850452423 0.058781594038009644 0.8673665523529053
-0.2217014729976654 -0.02464299462735653 0.7181056141853333
-0.19437254965305328 -0.03931635990738869 0.6642318964004517
-0.5202721357345581 0.15276701748371124 1.4438245296478271
-0.25895947217941284 0.07150817662477493 1.053422212600708
-0.24423792958259583 0.06811681389808655 1.0235399007797241
-0.23334939777851105 0.060780737549066544 1.0572539567947388
-0.19353729486465454 0.06892098486423492 1.0986498594284058
-0.14905214309692383 0.050845809280872345 1.2545807361602783
-0.15800240635871887 0.03371002525091171 1.2565664052963257
0.36879557371139526 -0.05850449204444885 1.401829719543457
0.391221821308136 -0.06518875807523727 1.4541747570037842
0.5543741583824158 -0.13678374886512756 1.056760549545288
0.554356038570404 -0.13614217936992645 0.9797189831733704
0.5038793683052063 -0.13892899453639984 1.1651957035064697
0.5423319339752197 -0.20238395035266876 0.8736785650253296
0.5700932741165161 -0.15284548699855804 1.1359659433364868
0.5569725036621094 -0.13300858438014984 1.222739577293396
0.6448050141334534 -0.1804061084985733 1.0585863590240479
0.6446661949157715 -0.19713018834590912 0.9945559501647949
0.6600401997566223 -0.24572333693504333 0.8270666003227234
0.6183746457099915 -0.2645999789237976 0.741097092628479
0.6781453490257263 -0.2261338233947754 0.8171463012695312
-0.23035988211631775 -0.0713123008608818 0.5491343140602112
-0.1880018711090088 -0.049299318343400955 0.5478436946868896
-0.2950342297554016 -0.042748451232910156 0.7626399993896484
-0.2305019646883011 -0.07110965251922607 0.6120268106460571
-0.1890018880367279 -0.0700903981924057 0.6086018681526184
-0.30106526613235474 0.026416804641485214 0.9207229614257812
-0.2443687617778778 0.06611137092113495 1.2028740644454956
-0.22975194454193115 0.06347224116325378 1.1476889848709106
-0.22780823707580566 0.07418493181467056 1.1208431720733643
-0.21017619967460632 0.05373305082321167 1.1976394653320312
-0.18202845752239227 0.0393199622631073 1.131767988204956
-0.1765536665916443 0.054094813764095306 1.1198062896728516
0.2665465772151947 -0.011227283626794815 1.131792664527893
0.4865915775299072 -0.13633306324481964 1.0918023586273193
0.5177827477455139 -0.16974350810050964 1.0903193950653076
0.5299044251441956 -0.18623562157154083 1.0467822551727295
0.6289770007133484 -0.23935885727405548 0.8771658539772034
-0.2947247326374054 -0.026625381782650948 0.6129831671714783
-0.2843048870563507 -0.0554598867893219 0.583599865436554
-0.2777611315250397 -0.044093310832977295 0.5784868597984314
-0.3248260021209717 0.037151556462049484 0.8029849529266357
-0.27679580450057983 -0.02550295740365982 0.7814695835113525
-0.29190593957901 -0.024612635374069214 0.8341456055641174
-0.17683818936347961 0.046987101435661316 1.2174839973449707
-0.1484069973230362 0.042603954672813416 1.3257089853286743
-0.13589824736118317 0.046901121735572815 1.3143383264541626
0.14493823051452637 -0.02029329165816307 1.2662888765335083
0.1893017590045929 0.015747085213661194 1.6540275812149048
0.3555956482887268 -0.0005902498960494995 1.5980168581008911
0.37673160433769226 -0.020416663959622383 1.616736888885498
0.432045042514801 -0.03962656110525131 1.5479487180709839
0.5931560397148132 -0.1014399603009224 1.2966852188110352
0.6182674765586853 -0.10254556685686111 1.3327627182006836
0.6199101805686951 -0.08777444064617157 1.2704564332962036
0.6226826906204224 -0.11466116458177567 1.2555902004241943
0.6490750908851624 -0.10032779723405838 1.2713557481765747
-0.47731006145477295 0.1173909455537796 0.9509721398353577
-0.4603537321090698 0.12678013741970062 0.9321252703666687
-0.539576530456543 0.17421363294124603 1.1982275247573853
-0.5170896649360657 0.1746475100517273 1.1870335340499878
-0.2286112755537033 -0.017091605812311172 0.5650542974472046
-0.20913340151309967 -0.034367624670267105 0.5235836505889893
-0.2636013925075531 -0.06633557379245758 0.6503274440765381
-0.2994697690010071 0.021945688873529434 0.7555617094039917
-0.37097328901290894 0.0822603851556778 0.966510534286499
-0.5149239897727966 0.1577572524547577 1.494980812072754
0.2608206272125244 -0.01364569179713726 1.197420597076416
0.2756635546684265 -0.00047391653060913086 1.4265486001968384
0.4088572859764099 -0.06151479482650757 1.1489405632019043
0.39080315828323364 -0.034325987100601196 1.2748488187789917
0.4498509168624878 -0.08710671961307526 1.082056999206543
0.4679560363292694 -0.10279350727796555 1.0320580005645752
0.45136335492134094 -0.11740508675575256 1.1140949726104736
0.5597923398017883 -0.17730014026165009 0.8286895751953125
0.566266655921936 -0.19590173661708832 0.8176665902137756
0.5655037760734558 -0.23847131431102753 0.8880605697631836
0.6298859119415283 -0.16389013826847076 1.0559420585632324
0.6672982573509216 -0.19021092355251312 0.8354689478874207
-0.2504107356071472 -0.05778304859995842 0.553301215171814
-0.20268626511096954 -0.06027171015739441 0.5164921879768372
-0.23238807916641235 0.08024094998836517 1.026283621788025
-0.203459233045578 0.08136297762393951 1.1181046962738037
-0.18106523156166077 0.05073557049036026 1.1730037927627563
0.6388294100761414 -0.18500028550624847 0.869924008846283
0.6690368056297302 -0.24166962504386902 0.6362951397895813
0.6751534938812256 -0.24499405920505524 0.6517190933227539
-0.32085391879081726 -0.028264828026294708 0.7978835701942444
-0.24466508626937866 -0.02587876468896866 0.7319182753562927
-0.22762104868888855 -0.05018248036503792 0.6888850927352905
0.47022509574890137 -0.06179358810186386 1.4702564477920532
0.683724582195282 -0.22288039326667786 0.6433975100517273
0.6811284422874451 -0.21218517422676086 0.9592598676681519
-0.24538685381412506 0.09951264411211014 1.266284704208374
0.6596221923828125 -0.17609433829784393 1.0495572090148926
-0.25743407011032104 -0.00031325221061706543 0.8058184385299683
0.5795269012451172 -0.2724214494228363 0.6972835063934326
0.6483168601989746 -0.17611514031887054 1.0359786748886108
-0.31231948733329773 -0.053758300840854645 0.7623031139373779
-0.36610615253448486 -0.13869526982307434 0.9728911519050598
-0.3710424304008484 -0.13504444062709808 0.9839802384376526
-0.3540090322494507 -0.1562672108411789 0.9827382564544678
-0.36206308007240295 -0.15448153018951416 0.9933227896690369
-0.341062068939209 -0.10582207888364792 1.0404398441314697
-0.3467367887496948 -0.12156893312931061 1.0196361541748047
-0.33763808012008667 -0.11030499637126923 0.9902486205101013
-0.33602702617645264 -0.08263225108385086 1.0224288702011108
-0.3354794681072235 -0.13615068793296814 1.026688814163208
-0.3380015790462494 -0.16486595571041107 1.016182780265808
-0.32290831208229065 -0.07026916742324829 1.100820779800415
-0.3176979720592499 -0.1628757268190384 1.0178920030593872
-0.332719624042511 -0.12920084595680237 1.0159333944320679
-0.31824490427970886 -0.14453038573265076 1.0553033351898193
-0.3202962279319763 -0.12066423892974854 1.0458085536956787
-0.3131260871887207 -0.058972980827093124 1.0699905157089233
-0.31413733959198 -0.1116042211651802 1.0453742742538452
-0.31405189633369446 -0.11773939430713654 1.0695539712905884
-0.3189837336540222 -0.09497737139463425 1.0973185300827026
-0.3355286121368408 -0.05436070263385773 1.1316912174224854
-0.3250487148761749 -0.1047452837228775 1.128548264503479
-0.302237868309021 -0.004511854611337185 1.1572332382202148
-0.31081515550613403 -0.015750791877508163 1.1130774021148682
-0.3250153660774231 -0.05479395389556885 1.1660995483398438
-0.2781723737716675 -0.013890987262129784 1.1019856929779053
-0.28041791915893555 -0.03692040964961052 1.216569185256958
-0.29322221875190735 -0.09776384383440018 1.1759114265441895
-0.2783176898956299 0.006448984146118164 1.1446845531463623
-0.24708209931850433 -0.00011570286005735397 1.155247449874878
-0.250728964805603 0.008937286213040352 1.2120709419250488
-0.22764016687870026 0.009119529277086258 1.21088445186615
-0.22082965075969696 -0.04122696816921234 1.2842893600463867
-0.2583092153072357 -0.07296322286128998 1.2210850715637207
-0.21754316985607147 0.016208942979574203 1.2553163766860962
-0.2434004545211792 -0.01205546036362648 1.2642290592193604
-0.20483936369419098 0.014037162065505981 1.2937679290771484
-0.18963612616062164 0.012179236859083176 1.3285324573516846
-0.18296322226524353 -0.03560246527194977 1.3376023769378662
-0.21222981810569763 -0.08040304481983185 1.2428302764892578
-0.19089818000793457 0.06049977242946625 1.7247259616851807
-0.13421767950057983 0.10908138751983643 1.3943954706192017
-0.12972870469093323 0.06646568328142166 0.8714128732681274
-0.17629893124103546 0.017085453495383263 0.8801005482673645
-0.1532456874847412 -0.07545708119869232 0.884107232093811
-0.1965973675251007 -0.10332249104976654 0.875730037689209
-0.17355574667453766 0.07222799956798553 1.6324474811553955
-0.19853241741657257 0.048286791890859604 1.7467098236083984
-0.16624686121940613 0.054121628403663635 1.6967799663543701
-0.1470986157655716 0.08351324498653412 1.647831916809082
-0.1563919633626938 0.06509321928024292 1.5970463752746582
-0.11528652906417847 -0.00022906064987182617 1.038293480873108
-0.15269885957241058 -0.05026175081729889 1.003029704093933
-0.15936225652694702 -0.1190294548869133 0.9908599853515625
-0.1530059278011322 0.04585415869951248 1.5283520221710205
-0.2945195436477661 -0.06498999148607254 0.06891629844903946
-0.3103877902030945 -0.12425635755062103 0.032388459891080856
-0.31400561332702637 -0.14960601925849915 0.04891672730445862
-0.15491525828838348 -0.022212669253349304 1.3853802680969238
-0.14587198197841644 0.018316593021154404 1.3308320045471191
-0.13949277997016907 -0.008204784244298935 1.3121446371078491
-0.16289830207824707 -0.03412904962897301 1.3738000392913818
-0.14602744579315186 -0.07777494192123413 1.3304322957992554
-0.23179806768894196 -0.030577402561903 0.48521021008491516
-0.23317599296569824 -0.05837486311793327 0.4011414647102356
-0.2454531192779541 -0.006315076723694801 0.3384197950363159
-0.2507362365722656 -0.03223181143403053 0.367891401052475
-0.1603143811225891 0.06286679208278656 1.6657458543777466
-0.14133583009243011 -0.049215175211429596 1.2814569473266602
-0.1437433511018753 -0.06000202149152756 1.238938331604004
-0.14631982147693634 -0.08514103293418884 1.2705235481262207
-0.17076510190963745 -0.09916938841342926 1.2719876766204834
-0.24144329130649567 0.004320623818784952 0.26509299874305725
-0.15537045896053314 -0.01941818743944168 1.5248620510101318
-0.14151684939861298 0.050859447568655014 1.5293453931808472
-0.14951568841934204 0.02217593789100647 1.522096872329712
-0.19940243661403656 -0.06625127792358398 0.5833687782287598
-0.11303494870662689 0.04484948515892029 1.7600406408309937
-0.1299341768026352 -0.10646367073059082 1.2083444595336914
-0.11782124638557434 -0.033728357404470444 1.1546512842178345
-0.13881216943264008 -0.12412598729133606 0.7521767020225525
-0.11555642634630203 0.09568685293197632 1.7086607217788696
-0.13437041640281677 -0.05399284511804581 1.3987467288970947
-0.10528141260147095 -0.11801733076572418 0.8554878234863281
-0.13993608951568604 -0.1307462453842163 0.8773290514945984
-0.12343404442071915 -0.19879068434238434 0.9161138534545898
-0.10719762742519379 -0.2142634391784668 0.8525358438491821
-0.2876358926296234 -0.1885594129562378 0.06631068885326385
-0.07700034230947495 0.11596879363059998 1.7076879739761353
-0.10624509304761887 0.05534771829843521 1.7453378438949585
-0.15386570990085602 0.003472931683063507 1.4363462924957275
-0.1365448385477066 -0.022389251738786697 1.4832143783569336
-0.20884564518928528 0.016401421278715134 0.33369994163513184
-0.23811714351177216 -0.00883337203413248 0.21643094718456268
-0.2767238914966583 -0.18690431118011475 0.10950007289648056
-0.2443455159664154 -0.004711776971817017 0.07596045732498169
-0.114350825548172 -0.005322713404893875 1.316044569015503
-0.18037579953670502 -0.09326368570327759 0.5561562776565552
-0.2428947538137436 -0.14589735865592957 0.010212474502623081
-0.2845454812049866 -0.14640790224075317 0.005550926085561514
-0.10690563172101974 0.04304796829819679 1.54520583152771
-0.11053147912025452 0.013493705540895462 1.5024793148040771
-0.03249863535165787 -0.21657878160476685 0.9072794914245605
-0.07893452793359756 0.08917969465255737 0.8662216663360596
-0.23754329979419708 -0.11121688783168793 0.2769479751586914
-0.21490348875522614 -0.10925979912281036 0.20106036961078644
-0.22294799983501434 -0.014163441956043243 0.11810822039842606
-0.09847331047058105 -0.004504434764385223 1.2813611030578613
-0.10602342337369919 -0.02514640986919403 1.2405998706817627
-0.07882682234048843 -0.12416945397853851 1.312938928604126
-0.14454609155654907 -0.026468098163604736 0.6755853891372681
-0.12161555886268616 -0.12599694728851318 0.7428059577941895
-0.07637563347816467 -0.11728842556476593 0.8153360486030579
-0.2065529227256775 -0.11776253581047058 0.16740186512470245
-0.23109892010688782 -0.18030662834644318 0.07531103491783142
-0.13045650720596313 -0.07379226386547089 1.4768824577331543
-0.09862331300973892 0.005865488201379776 1.3511607646942139
-0.06808790564537048 -0.0006812512874603271 1.2865251302719116
-0.1497272551059723 -0.095862478017807 0.5781550407409668
-0.12632358074188232 -0.0763256847858429 0.5782877802848816
-0.16668292880058289 0.02020377293229103 0.5204077959060669
-0.10129489749670029 -0.06170948967337608 1.4479888677597046
-0.07594521343708038 -0.022278159856796265 1.4306628704071045
-0.10523295402526855 0.018887270241975784 1.3907582759857178
-0.13829244673252106 -0.01701146736741066 0.5251913666725159
-0.0639692097902298 0.0683014765381813 1.749140739440918
-0.12404543161392212 -0.11430913954973221 1.6104345321655273
-0.03698831424117088 -0.1883103847503662 0.9890660047531128
-0.08032010495662689 -0.032973501831293106 1.4442949295043945
-0.05932174623012543 -0.061846550554037094 1.4295506477355957
-0.07957656681537628 -0.04607045650482178 1.4236485958099365
-0.07145925611257553 -0.11336319893598557 1.542678952217102
-0.10992959141731262 -0.10554511100053787 1.4896371364593506
-0.05555493384599686 -0.002482812851667404 1.4542529582977295
-0.10829787701368332 -0.04161457717418671 0.6445993185043335
-0.022418547421693802 0.021708518266677856 1.7711068391799927
-0.0342663899064064 0.12376270443201065 1.6780292987823486
-0.059830192476511 -0.12995323538780212 1.4937176704406738
-0.07339133322238922 -0.10666907578706741 1.4480164051055908
-0.03870154917240143 -0.012123651802539825 1.429938554763794
-0.047443877905607224 -0.10961951315402985 1.4485112428665161
-0.009120743721723557 0.006960291415452957 1.4062532186508179
-0.028990188613533974 -0.014547418802976608 1.280214786529541
-0.017411671578884125 0.07581652700901031 1.747380018234253
-0.01880359835922718 -0.014211941510438919 1.4583979845046997
-0.023619040846824646 -0.056656334549188614 1.4446232318878174
0.011578232049942017 0.09053348004817963 1.708022117614746
-0.008705295622348785 0.03242504596710205 1.7531745433807373
-0.01836448535323143 -0.048136547207832336 1.432215690612793
0.009971730411052704 -0.0788445696234703 1.4693092107772827
-0.01295611634850502 -0.02798011153936386 1.4378321170806885
0.08015156537294388 -0.09166307002305984 0.5989660024642944
0.012253757566213608 0.010859832167625427 1.488650918006897
0.1160636693239212 -0.11132760345935822 0.5161353349685669
-0.0019158115610480309 -0.16300605237483978 1.2711273431777954
0.04587731137871742 -0.043390050530433655 1.2608085870742798
0.04861276596784592 -0.07097655534744263 1.1487698554992676
0.15138114988803864 -0.12571080029010773 0.07916004955768585
0.16706807911396027 -0.11714981496334076 0.0603114478290081
0.13787472248077393 0.0018713846802711487 0.09037822484970093
0.012955356389284134 -0.14705458283424377 1.2567185163497925
0.0023743677884340286 -0.1878555715084076 1.181943416595459
0.07425348460674286 -0.14122478663921356 0.7394499182701111
0.13360700011253357 -0.04805448278784752 0.06404761970043182
0.040346577763557434 0.022704340517520905 1.7133305072784424
-0.003003239631652832 -0.12426036596298218 1.619124174118042
-0.007623437792062759 -0.10775726288557053 1.5336776971817017
-0.0044649094343185425 -0.10882604122161865 1.4895415306091309
0.09927520155906677 -0.16123418509960175 0.8843949437141418
0.08822290599346161 0.013668693602085114 1.7413966655731201
0.017992358654737473 0.009015131741762161 1.5421868562698364
0.016630573198199272 -0.00987878069281578 1.5128016471862793
0.1395859718322754 -0.020258232951164246 0.3369368314743042
0.1317727118730545 -0.010453447699546814 0.27531933784484863
0.14992496371269226 0.012073695659637451 0.07318052649497986
0.03243010863661766 0.008254822343587875 1.7979602813720703
0.05124787986278534 -0.01197376474738121 1.4103593826293945
0.09967193007469177 -0.2195298969745636 0.8710211515426636
0.09074711054563522 -0.1321098506450653 0.8717106580734253
0.1303602159023285 -0.1955820620059967 0.8732435703277588
0.09902479499578476 -0.040965013206005096 0.7597705125808716
0.19422392547130585 -0.11675601452589035 0.07210949063301086
0.04919414967298508 0.011248275637626648 1.724429726600647
0.03652818128466606 -0.15909335017204285 1.1488523483276367
0.04142342507839203 -0.13317996263504028 1.2745187282562256
0.04273868352174759 -0.14925938844680786 1.272100567817688
0.12549805641174316 -0.18978409469127655 0.9407243728637695
0.03777584061026573 -0.06405524164438248 1.55521821975708
0.04739384725689888 0.0092434361577034 1.552581787109375
0.042475972324609756 -0.01611548289656639 1.5401394367218018
0.04902706295251846 -0.03227200359106064 1.5351319313049316
0.058044638484716415 -0.04422115162014961 1.5119190216064453
0.13981223106384277 -0.06600857526063919 0.6582964658737183
0.13781392574310303 -0.13197730481624603 0.6778256297111511
0.06527702510356903 -0.04714730754494667 1.3917646408081055
0.06962008774280548 -0.0004310011863708496 1.331275463104248
0.0368364155292511 -0.003754563629627228 1.3477559089660645
0.04693606495857239 -0.024910535663366318 1.323934555053711
0.12701396644115448 -0.11915238946676254 0.8402257561683655
0.19435779750347137 -0.004339464008808136 0.07626152038574219
0.2080441117286682 -0.028339721262454987 0.07067884504795074
0.05985549837350845 0.00270751491189003 1.6780630350112915
0.07614755630493164 -0.025670815259218216 1.384395956993103
0.20291075110435486 -0.06555293500423431 0.32200750708580017
0.08377525210380554 0.019571591168642044 1.6531281471252441
0.06200547516345978 0.046634722501039505 1.6573057174682617
0.07015392184257507 0.0163310207426548 1.6215083599090576
0.2106165587902069 -0.037312787026166916 0.14674849808216095
0.21785587072372437 -0.08545224368572235 0.07323174178600311
0.20621277391910553 -0.1159752681851387 0.0994611456990242
0.15205597877502441 -0.015116491355001926 0.9810402393341064
0.15220576524734497 -0.015959149226546288 0.8820065855979919
0.08544415980577469 -0.0053167082369327545 1.738390564918518
0.16937470436096191 0.03741823136806488 0.8891000747680664
0.18044379353523254 0.0008404920808970928 0.9527469873428345
0.09430503845214844 -0.010010398924350739 1.3260631561279297
0.10714636743068695 -0.030148155987262726 1.3131543397903442
0.0768393874168396 -0.04995184391736984 1.3594977855682373
0.10677038878202438 -0.018309801816940308 1.2720263004302979
0.09709050506353378 -0.02218548208475113 1.251618504524231
0.11343559622764587 -0.09637528657913208 1.2381011247634888
0.1253894567489624 -0.05228088051080704 1.2736172676086426
0.14698415994644165 -0.029178444296121597 1.2082265615463257
0.164076566696167 -0.036905527114868164 1.1323840618133545
0.18897834420204163 -0.05201706290245056 1.1485918760299683
0.17307475209236145 -0.06661248207092285 1.1980489492416382
0.14573943614959717 -0.1019565537571907 1.2181134223937988
0.19381088018417358 -0.0733087956905365 1.0969836711883545
0.20748639106750488 -0.13906177878379822 1.1508411169052124
0.21805623173713684 -0.11692971736192703 1.1309595108032227
0.21044743061065674 -0.09127029776573181 1.102729320526123
0.16599872708320618 -0.1735871583223343 1.1339963674545288
0.18990325927734375 -0.1446841061115265 1.100564956665039
0.1921015977859497 -0.12515993416309357 1.087090253829956
0.22688078880310059 -0.20794521272182465 0.9869821071624756
0.16912128031253815 -0.16065344214439392 1.1008461713790894
0.16855376958847046 -0.1781439185142517 1.072608232498169
0.209198996424675 -0.16133013367652893 1.0180275440216064
0.17428745329380035 -0.16852746903896332 1.04716157913208
0.16761669516563416 -0.19544674456119537 1.0509870052337646
0.19180777668952942 -0.19197583198547363 1.020468831062317
0.21120432019233704 -0.1988358199596405 1.0152842998504639
0.16425225138664246 -0.2186889797449112 1.024375319480896
0.1889522224664688 -0.21176984906196594 1.0150511264801025
0.17570115625858307 -0.2132449597120285 1.0240428447723389
0.21923373639583588 -0.21441659331321716 0.9670374393463135
0.18313321471214294 -0.2278902530670166 1.0118725299835205
0.2035207450389862 -0.19774319231510162 0.9807294011116028
0.20325559377670288 -0.23081053793430328 0.9803155660629272
0.22018587589263916 -0.22491809725761414 0.9830643534660339
-0.3153511583805084 -0.04886598512530327 1.0939691066741943
-0.3035159111022949 -0.10528017580509186 1.084262490272522
-0.2915908992290497 -0.08867184072732925 1.0803009271621704
-0.30661943554878235 -0.12243784964084625 1.1208769083023071
-0.2609957158565521 -0.04665696620941162 1.0883560180664062
-0.28112542629241943 -0.12257230281829834 1.1042797565460205
-0.20563440024852753 -0.008710825815796852 1.232337474822998
-0.2018662840127945 -0.0622212216258049 1.2112390995025635
-0.17209690809249878 -0.09718503803014755 0.9695425033569336
-0.17585206031799316 -0.015192659571766853 0.9510383605957031
-0.126008540391922 0.05126518756151199 0.934657096862793
-0.09803993254899979 0.15059152245521545 1.2559340000152588
-0.09024771302938461 0.14753617346286774 1.1976375579833984
-0.08965844660997391 0.17073224484920502 1.1692782640457153
-0.15057457983493805 -0.01115957461297512 0.9711077213287354
-0.2042078971862793 0.04147602617740631 1.7161105871200562
-0.15494602918624878 0.008771374821662903 1.3511708974838257
-0.17547979950904846 0.007868614047765732 1.284869909286499
-0.02323159947991371 0.16041487455368042 1.072906494140625
-0.04691183939576149 0.16494108736515045 0.9929239749908447
-0.2965739667415619 -0.08295413106679916 0.12780402600765228
-0.3146050274372101 -0.13423655927181244 0.07874375581741333
-0.18077373504638672 0.03209929168224335 1.6987321376800537
-0.16496267914772034 0.04309912398457527 1.6443583965301514
-0.15703849494457245 -0.12191121280193329 1.248504877090454
-0.15669792890548706 -0.13850723206996918 1.2221506834030151
-0.160853773355484 -0.15861433744430542 1.2184746265411377
-0.10530319809913635 0.11276593059301376 1.3702349662780762
-0.09698955714702606 0.10421738028526306 1.365867257118225
-0.1375412791967392 -0.12380781769752502 1.2635248899459839
-0.14839106798171997 -0.053411345928907394 1.2043719291687012
-0.2678210735321045 -0.0998573824763298 0.19318370521068573
-0.2744751572608948 -0.05463210120797157 0.20035256445407867
-0.049310311675071716 0.1269136220216751 1.2506685256958008
-0.16042807698249817 -0.008173380047082901 1.448828935623169
-0.15958955883979797 -0.0026126131415367126 1.4277637004852295
-0.14570288360118866 -0.006676279008388519 1.4102730751037598
-0.15984602272510529 -0.0009627491235733032 1.4069241285324097
-0.15902571380138397 -0.020028673112392426 1.3981229066848755
-0.15064819157123566 -0.10823938250541687 0.7978963255882263
-0.16256074607372284 -0.06974327564239502 0.793685793876648
-0.015071537345647812 0.2186993658542633 1.0822664499282837
-0.017791207879781723 0.2165018618106842 1.1328423023223877
-0.1285894811153412 -0.11691360175609589 1.2594597339630127
-0.1288752555847168 -0.10881861299276352 0.8696424961090088
-0.26945942640304565 -0.020387466996908188 0.12580101191997528
-0.27471959590911865 -0.02007092908024788 0.08846740424633026
-0.1396206170320511 -0.18589374423027039 0.8550529479980469
-0.0478881374001503 0.18696390092372894 1.2326953411102295
-0.16219952702522278 -0.08265943825244904 1.6079145669937134
-0.1315346509218216 0.028118081390857697 1.526466965675354
-0.0972612202167511 0.11166748404502869 1.4960052967071533
-0.0987856388092041 0.07604647427797318 1.5539758205413818
-0.11847000569105148 0.07575575262308121 1.5274507999420166
-0.10323020070791245 0.09279421716928482 1.4429957866668701
-0.05205656960606575 0.13221362233161926 1.5394835472106934
-0.12305042147636414 -0.0075869373977184296 1.4787060022354126
-0.08403056114912033 0.043858326971530914 0.9775072336196899
-0.14065216481685638 0.038199372589588165 1.7993357181549072
-0.1508232057094574 0.03171306103467941 1.7934880256652832
-0.15421617031097412 0.02074296772480011 1.7795134782791138
-0.02107556350529194 0.07349616289138794 1.4366010427474976
-0.07492697983980179 0.1249937191605568 1.4135141372680664
-0.21396386623382568 -0.08260057866573334 0.049580708146095276
-0.023428620770573616 0.16090360283851624 1.3608696460723877
-0.1259814351797104 -0.08401831984519958 1.5214266777038574
-0.1835843175649643 -0.060674529522657394 0.4031727910041809
-0.06194878742098808 0.07321041822433472 1.49653959274292
-0.08640797436237335 0.03422589600086212 1.4792819023132324
-0.029969535768032074 0.13602323830127716 1.4615058898925781
-0.03230274096131325 0.051356200128793716 0.8601102828979492
-0.1922198235988617 0.0021523216273635626 0.35361677408218384
0.030254391953349113 0.17710907757282257 0.9936870336532593
-0.03159384801983833 0.03662405163049698 1.0351393222808838
-0.10999204218387604 -0.1488165259361267 1.258878231048584
-0.10272897779941559 -0.15170499682426453 1.1581019163131714
-0.18079262971878052 -0.02558833360671997 0.33140671253204346
-0.16614554822444916 -0.04030515253543854 0.2689158022403717
-0.19683673977851868 0.009016349911689758 0.264245867729187
-0.06926620751619339 0.056236300617456436 1.514914631843567
-0.09352147579193115 -0.10211606323719025 0.6924309730529785
-0.11917999386787415 -0.0279153473675251 0.6658690571784973
0.03629228472709656 0.21987825632095337 1.1241381168365479
0.04216775298118591 0.21035921573638916 1.0401718616485596
-0.05710660293698311 -0.18451687693595886 1.1847071647644043
-0.19505654275417328 -0.0684199184179306 0.13340871036052704
0.03131313621997833 0.16072341799736023 1.032662034034729
0.021898072212934494 0.14009249210357666 1.069271445274353
-0.0012266859412193298 0.0526236817240715 1.5070940256118774
-0.09161806851625443 -0.08012474328279495 1.3924205303192139
0.029258497059345245 0.16571436822414398 1.3419710397720337
0.02381216734647751 0.06292720884084702 1.4273152351379395
-0.01029026135802269 0.045084256678819656 1.507529854774475
0.0802474245429039 0.15201915800571442 1.0421199798583984
0.09819559752941132 0.13865387439727783 0.9989356398582458
-0.02798994816839695 -0.09770143777132034 1.3886079788208008
0.013572905212640762 0.03529948368668556 1.0336196422576904
-0.029931537806987762 -0.19943362474441528 1.1131722927093506
0.09014471620321274 0.1349383145570755 1.3671928644180298
0.00871753878891468 -0.013602910563349724 1.2973896265029907
0.059316083788871765 0.11042678356170654 1.4685026407241821
0.025200439617037773 0.0646604597568512 1.469910740852356
0.02352401614189148 -0.031991638243198395 1.2088969945907593
0.045533161610364914 0.09349028766155243 0.9245748519897461
-0.01227862760424614 -0.013594284653663635 1.7359331846237183
0.13311322033405304 -0.09784524142742157 0.09119491279125214
0.12338081002235413 -0.10544241219758987 0.066717728972435
0.12620602548122406 -0.04335026070475578 0.10431072115898132
-0.04787332937121391 -0.12873418629169464 1.6118470430374146
0.0701756402850151 -0.06243613362312317 0.7234830260276794
0.08118539303541183 0.05022776126861572 1.4394266605377197
0.02159472182393074 -0.045233458280563354 1.479330062866211
0.05956403911113739 -0.030757982283830643 1.4281803369522095
0.019074006006121635 0.000464659184217453 1.4038947820663452
0.11879079043865204 -0.033875659108161926 0.4045112729072571
0.1421884000301361 -0.11762599647045135 0.24679163098335266
0.1365051120519638 -0.030720414593815804 0.21067197620868683
0.14407283067703247 0.13813205063343048 1.0513520240783691
0.13915041089057922 0.16488519310951233 1.018868327140808
0.10772287845611572 -0.1459597945213318 0.7511998414993286
0.11339374631643295 -0.05252870172262192 0.6673761606216431
-0.01396188884973526 -0.06097804754972458 1.7217988967895508
0.026450693607330322 -0.07307158410549164 1.6788262128829956
0.1309119164943695 -0.1302690953016281 0.5600517392158508
0.008216392248868942 -0.0077044665813446045 1.7495137453079224
0.031245017424225807 -0.025205615907907486 1.6996833086013794
0.060183703899383545 -0.0983986109495163 1.1447176933288574
0.06504698097705841 -0.08662794530391693 1.11821448802948
0.05564028397202492 -0.15888947248458862 1.1013113260269165
0.010517541319131851 -0.1116907149553299 1.6111921072006226
0.03437488153576851 -0.04482092708349228 1.5088248252868652
0.023256313055753708 -0.08396824449300766 1.5070959329605103
0.1818963587284088 0.11535030603408813 1.0133628845214844
0.0572551004588604 -0.08872105181217194 1.2994227409362793
0.06763000041246414 -0.15261352062225342 1.2623581886291504
0.06637783348560333 -0.10132807493209839 1.245224952697754
0.1789834350347519 -0.014431092888116837 0.16321948170661926
0.19371207058429718 -0.0952315703034401 0.18364934623241425
0.20814573764801025 -0.0824049562215805 0.1689421683549881
0.04847358539700508 -0.0034469813108444214 1.7233577966690063
0.0663183331489563 -0.09736128151416779 1.3009586334228516
0.19213294982910156 -0.0380350723862648 0.4449853301048279
0.17131175100803375 -0.09358519315719604 0.49747321009635925
0.2008364200592041 -0.051682718098163605 0.38848698139190674
0.07249438762664795 -0.04682323709130287 1.421768307685852
0.059305280447006226 -0.04319465905427933 1.4182313680648804
0.07891567796468735 -0.03489970788359642 1.3766988515853882
0.11848922073841095 0.06366193294525146 0.9347662925720215
0.13155221939086914 -0.11699435114860535 0.8751236200332642
0.20716425776481628 -0.034780047833919525 0.26263976097106934
0.22323521971702576 -0.06559708714485168 0.269812673330307
0.08238749206066132 -0.014647901058197021 1.3701362609863281
0.15803296864032745 0.07096122205257416 1.285363793373108
0.16932879388332367 0.09577812999486923 1.2623201608657837
0.0764547735452652 -0.2259635627269745 1.1612434387207031
0.14763236045837402 -0.0661448985338211 1.0063835382461548
0.1496894359588623 -0.12364806234836578 1.001206398010254
0.11059626936912537 -0.014811001718044281 1.1967699527740479
0.12655028700828552 -0.12695874273777008 1.095879077911377
0.1470450609922409 -0.0910056009888649 1.077008605003357
0.12853480875492096 -0.15693217515945435 1.162454605102539
-0.29884499311447144 -0.06412120908498764 1.0696996450424194
-0.3070797920227051 -0.12129297107458115 1.054254412651062
-0.23908090591430664 -0.10060181468725204 1.1470396518707275
-0.24987894296646118 -0.09984554350376129 1.1942527294158936
-0.21754474937915802 -0.06664733588695526 1.1543418169021606
-0.21694904565811157 -0.027368532493710518 1.1731541156768799
-0.191156268119812 -0.15166500210762024 0.8829004168510437
-0.07717333734035492 0.17307431995868683 1.0312267541885376
-0.08770351111888885 0.1636781394481659 1.1312121152877808
-0.16917304694652557 -0.22440457344055176 1.1287000179290771
-0.13869795203208923 -0.1599608063697815 0.9615696668624878
-0.28066104650497437 -0.04155237227678299 0.28899502754211426
-0.25805261731147766 -0.09182146191596985 0.3033224046230316
-0.2051343470811844 0.011987460777163506 0.5076926946640015
-0.150698721408844 -0.19187870621681213 0.8611660599708557
-0.18154273927211761 -0.04793262109160423 0.6505793333053589
-0.1695745587348938 -0.09106263518333435 0.7023587226867676
-0.1520862877368927 -0.033411383628845215 0.708858847618103
-0.10243397951126099 -0.018136724829673767 1.0972797870635986
-0.11491797864437103 -0.07646597921848297 1.1223809719085693
-0.0071590859442949295 0.20665881037712097 1.20367431640625
-0.11360566318035126 -0.018635977059602737 0.8650804758071899
-0.21484781801700592 -0.10460497438907623 0.31525909900665283
-0.11875715851783752 -0.02105199731886387 1.2015609741210938
-0.0952211245894432 -0.03866969048976898 1.1303421258926392
-0.19729256629943848 -0.08215579390525818 0.45541641116142273
-0.144692525267601 0.016482163220643997 1.7170467376708984
-0.15144562721252441 -0.01908809319138527 1.7052372694015503
-0.11452604830265045 -0.05613177642226219 1.7143611907958984
-0.1334567815065384 -0.09204619377851486 1.6724926233291626
-0.14696700870990753 -0.08442553132772446 1.5726752281188965
-0.1900988221168518 -0.06113046035170555 0.34814882278442383
-0.08604490011930466 -0.11522824317216873 0.7421824336051941
-0.16934166848659515 -0.07031292468309402 0.2769073247909546
-0.18747639656066895 -0.09883256256580353 0.2825147211551666
-0.20495259761810303 -0.01935805007815361 0.2119155079126358
-0.04588354378938675 0.0647154450416565 0.9667080044746399
-0.0992312952876091 0.025150779634714127 1.7622584104537964
-0.11709702014923096 0.01438213512301445 1.748520851135254
0.06346641480922699 0.1261623352766037 1.1878324747085571
-0.018553730100393295 0.14438220858573914 1.1855483055114746
0.03844140097498894 0.1164139062166214 1.2429850101470947
-0.0076549723744392395 -0.0322110652923584 1.2469496726989746
0.058344319462776184 0.19261467456817627 1.2372028827667236
0.06495305150747299 0.13936825096607208 1.0750501155853271
0.1209464818239212 0.19696789979934692 1.160712480545044
0.010181969031691551 0.11103050410747528 1.651587724685669
0.09486673772335052 0.12455474585294724 1.0845026969909668
0.039824895560741425 -0.21854794025421143 0.9109464883804321
0.10718280076980591 -0.08191791921854019 0.2656799256801605
0.13851134479045868 -0.09077447652816772 0.20623549818992615
0.06942053139209747 -0.13012029230594635 0.7061636447906494
0.03202110156416893 0.007549045607447624 1.0707371234893799
0.09569624066352844 -0.048971258103847504 0.5766962766647339
0.09463734924793243 0.08719409257173538 1.3105400800704956
0.04361162707209587 -0.055084630846977234 1.4110593795776367
0.04078279063105583 0.09532036632299423 1.6156290769577026
0.03016107715666294 0.02904883772134781 1.5842785835266113
0.03656027838587761 0.044793546199798584 1.5599312782287598
0.0035067349672317505 -0.0010554678738117218 1.7966803312301636
0.04574214294552803 -0.07639067620038986 1.3472307920455933
0.1607162058353424 -0.0175483301281929 0.5106849670410156
0.12719498574733734 -0.005351297557353973 0.5063765048980713
0.1569305956363678 -0.010366849601268768 0.35650330781936646
0.17901097238063812 -0.013089224696159363 0.3281416893005371
0.05795508250594139 -0.041800957173109055 1.500089406967163
0.044905804097652435 -0.050446946173906326 1.5099610090255737
0.05856271833181381 -0.04717446118593216 1.4937056303024292
0.1335640400648117 -0.052381984889507294 0.7746562361717224
0.15301810204982758 -0.09570516645908356 0.6446937918663025
0.11670801043510437 0.02384735830128193 0.9750642776489258
0.09618888050317764 -0.07819940149784088 1.0961331129074097
0.08884542435407639 -0.13204948604106903 1.0862507820129395
0.09862340986728668 -0.15690091252326965 1.0358200073242188
0.0611150860786438 -0.006534270942211151 1.6220953464508057
0.07315731793642044 -0.01256943866610527 1.5395545959472656
0.06257563084363937 -0.1449546217918396 1.2437419891357422
0.09455352276563644 0.05778934061527252 1.5279737710952759
0.08098088204860687 0.031100347638130188 1.5678794384002686
0.20796985924243927 -0.010186828672885895 0.0988662987947464
0.2220490425825119 -0.052260056138038635 0.08569734543561935
0.10375458747148514 0.03617676720023155 1.4941960573196411
0.11167438328266144 0.04866265133023262 1.4614466428756714
0.12107808887958527 0.03609282895922661 1.4275389909744263
0.12393877655267715 0.04903367906808853 1.4134858846664429
0.07242198288440704 -0.22717201709747314 1.1806718111038208
0.1779288351535797 -0.1575925648212433 0.8907786011695862
0.08729776740074158 -0.20222915709018707 1.1917059421539307
0.08398468792438507 -0.22851181030273438 1.1807469129562378
0.20512524247169495 -0.11288803815841675 0.9115646481513977
0.20796754956245422 -0.0900774747133255 0.891922652721405
0.2161441445350647 -0.05514485388994217 0.9024219512939453
-0.22176888585090637 -0.09069494903087616 1.1997911930084229
-0.18185125291347504 -0.08894035965204239 1.264492392539978
-0.18987397849559784 -0.08832116425037384 1.2484596967697144
-0.1811302751302719 -0.08000017702579498 1.2543554306030273
-0.1770680844783783 -0.0786469355225563 1.2712324857711792
-0.19616642594337463 0.00249602273106575 0.89118492603302
-0.15171121060848236 -0.04457467049360275 1.2881816625595093
-0.14584413170814514 -0.06376717984676361 1.0719243288040161
-0.1371261030435562 0.10513085126876831 1.532152533531189
-0.1491822898387909 -0.08031338453292847 1.194748044013977
-0.14701218903064728 -0.07651190459728241 1.1406450271606445
-0.104956716299057 0.1060461476445198 1.4274028539657593
-0.08945900201797485 0.09928693622350693 1.389259934425354
-0.13462382555007935 -0.1396453082561493 1.038062572479248
-0.10055223852396011 -0.16564291715621948 0.9989240169525146
-0.13889095187187195 -0.02683124877512455 0.7943596243858337
-0.016343850642442703 0.1845366358757019 1.2712750434875488
-0.08064965903759003 0.12928089499473572 1.625928282737732
-0.20145472884178162 -0.03467526659369469 0.07878425717353821
-0.2148444652557373 -0.020959721878170967 0.0702655166387558
-0.08218108117580414 0.02541511133313179 0.8711444139480591
0.0013432744890451431 0.09477797150611877 0.8560930490493774
-0.06738625466823578 -0.020267382264137268 0.8497825860977173
0.026102539151906967 0.08852332830429077 1.3333449363708496
-0.0540413036942482 -0.07930285483598709 0.7674216032028198
-0.08232481777667999 -0.1156674474477768 1.588098406791687
-0.006930024363100529 0.01435882318764925 0.8754273653030396
-0.005801905877888203 -0.026439877226948738 0.8543996810913086
0.01803296059370041 -0.11895732581615448 0.8598677515983582
-0.07900605350732803 -0.16371536254882812 0.8595086336135864
-0.008064227178692818 -0.22497010231018066 0.8521735668182373
0.038167305290699005 -0.1108841598033905 0.8405480980873108
-0.008391395211219788 -0.1608063280582428 0.8637963533401489
-0.018976915627717972 0.028626184910535812 1.4781394004821777
0.029975706711411476 -0.03731918707489967 0.8521554470062256
0.03491971269249916 -0.050443775951862335 0.8365172147750854
-0.006617903709411621 0.0363631397485733 1.5564942359924316
-0.0017822086811065674 0.04185061156749725 1.5314384698867798
0.04651006683707237 -0.12489255517721176 0.8562623262405396
0.13245889544487 0.0568927563726902 0.8683990836143494
0.10846161097288132 -0.05316196009516716 0.2654567360877991
0.05701230838894844 -0.03590736165642738 0.8260025382041931
0.09923311322927475 0.1183474063873291 1.2190146446228027
0.13700127601623535 -0.08508782833814621 0.39100804924964905
0.13372156023979187 -0.06405587494373322 0.32934463024139404
