-0.9747913479804993 -0.39247044920921326 1.1502764225006104
-0.9306120872497559 -0.43042051792144775 1.0743544101715088
-0.8909463286399841 -0.42319169640541077 1.1086779832839966
-0.34690314531326294 -0.08508843183517456 1.2525923252105713
-0.17098106443881989 -0.06441850960254669 1.3887312412261963
-0.16774901747703552 -0.04944698512554169 1.3783924579620361
0.23303119838237762 -0.09918995201587677 1.3172643184661865
0.23473140597343445 -0.1768350601196289 1.71913480758667
0.4440312385559082 -0.16552965342998505 1.7155009508132935
0.4658052921295166 -0.1880696713924408 1.7382731437683105
0.5489051342010498 -0.18404029309749603 1.6923959255218506
0.8177778720855713 -0.176234632730484 1.5325427055358887
0.8290060758590698 -0.16853448748588562 1.577217698097229
0.8454497456550598 -0.1488468199968338 1.5217677354812622
0.8661352396011353 -0.17848926782608032 1.5141792297363281
0.8818143010139465 -0.15059156715869904 1.5406825542449951
-0.9623768925666809 -0.38786643743515015 1.3688409328460693
-0.9774637222290039 -0.3696995973587036 1.3546621799468994
-0.790651261806488 -0.3148331046104431 1.5364619493484497
-0.7860167622566223 -0.30085909366607666 1.5113869905471802
-1.1265294551849365 -0.4382864534854889 0.959907054901123
-1.1481729745864868 -0.4513244926929474 0.9202934503555298
-1.0277535915374756 -0.4936097264289856 1.0039812326431274
-0.9975829720497131 -0.4045772850513458 1.1053065061569214
-0.8682423830032349 -0.33989179134368896 1.2665553092956543
-0.5233733654022217 -0.2591382563114166 1.7101556062698364
0.41074979305267334 -0.10375810414552689 1.2769960165023804
0.3670593202114105 -0.11840452253818512 1.5151153802871704
0.6477109789848328 -0.17066790163516998 1.2852286100387573
0.5684412717819214 -0.14726980030536652 1.3941866159439087
0.7484118342399597 -0.2081453949213028 1.2543058395385742
0.7999546527862549 -0.22874990105628967 1.2253005504608154
0.7518038749694824 -0.2450055480003357 1.2917689085006714
1.0047261714935303 -0.2774478793144226 1.0979901552200317
1.0235049724578857 -0.29787352681159973 1.0950413942337036
1.0133821964263916 -0.34630268812179565 1.172575831413269
0.9724560976028442 -0.23161403834819794 1.342473030090332
1.1126465797424316 -0.2497721165418625 1.1648797988891602
-1.126224398612976 -0.49885690212249756 0.9595862030982971
-1.1321545839309692 -0.47705644369125366 0.9072540998458862
-0.6557493805885315 -0.17491306364536285 1.1407067775726318
-0.5135712623596191 -0.1092270016670227 1.1801612377166748
-0.40842974185943604 -0.09662695229053497 1.2075223922729492
1.0710259675979614 -0.259202241897583 1.1806730031967163
1.221570611000061 -0.3179706335067749 0.9927304983139038
1.220257043838501 -0.31825512647628784 1.012632966041565
-0.9367077946662903 -0.4585511088371277 1.1166505813598633
-0.9626303911209106 -0.4137459695339203 1.0279301404953003
-0.9787723422050476 -0.44195064902305603 0.989520788192749
0.6190857887268066 -0.18568146228790283 1.6317124366760254
1.222683310508728 -0.29113367199897766 1.0045278072357178
1.085008978843689 -0.27162039279937744 1.2944883108139038
-0.40341734886169434 -0.09812194854021072 1.3403692245483398
1.015953540802002 -0.23411038517951965 1.3569886684417725
-0.9118579626083374 -0.3819907009601593 1.0775827169418335
1.1228398084640503 -0.38006386160850525 1.0091848373413086
1.0090997219085693 -0.24308361113071442 1.3398391008377075
-0.9509443044662476 -0.4887278079986572 1.0894593000411987
-0.45177143812179565 -0.05312173441052437 0.9086811542510986
-0.4575366973876953 -0.052810344845056534 0.9214543700218201
-0.4422558844089508 -0.08524798601865768 0.9109421372413635
-0.4548177123069763 -0.08172114193439484 0.9240196347236633
-0.4139466881752014 -0.054090823978185654 0.989891767501831
-0.42600950598716736 -0.06302940845489502 0.9637643694877625
-0.4068090319633484 -0.033583205193281174 0.9379465579986572
-0.3985944390296936 -0.020488617941737175 0.9813407063484192
-0.417062371969223 -0.08889724314212799 0.966829776763916
-0.4268496334552765 -0.1164398342370987 0.9456387758255005
-0.3815496563911438 -0.048052407801151276 1.0671199560165405
-0.39986497163772583 -0.11773937940597534 0.9469919204711914
-0.40905070304870605 -0.07263310253620148 0.9585468769073486
-0.39739981293678284 -0.11811958253383636 0.9949200749397278
-0.3913087844848633 -0.08192065358161926 0.9916293621063232
-0.3653140068054199 -0.019106749445199966 1.0425258874893188
-0.3815441131591797 -0.0718105211853981 0.9962548017501831
-0.3843555152416229 -0.09326993674039841 1.017543077468872
-0.3863968253135681 -0.07936277985572815 1.0550243854522705
-0.3933720588684082 -0.047702327370643616 1.105496883392334
-0.39606383442878723 -0.10594388842582703 1.0811457633972168
-0.3322087526321411 -0.0006603230722248554 1.1523123979568481
-0.34602946043014526 0.008042534813284874 1.1032944917678833
-0.37957364320755005 -0.06803146004676819 1.1371562480926514
-0.3036339282989502 0.013612212613224983 1.0954480171203613
-0.3138463795185089 -0.08000370860099792 1.2035753726959229
-0.35104238986968994 -0.12961801886558533 1.136973261833191
-0.29567092657089233 0.015289240516722202 1.1451209783554077
-0.2558165192604065 -0.002824697643518448 1.160041093826294
-0.259709894657135 -0.02204122208058834 1.220630407333374
-0.22862210869789124 -0.023448243737220764 1.2269258499145508
-0.21901312470436096 -0.13030563294887543 1.2841122150421143
-0.2909933030605316 -0.13300442695617676 1.198909044265747
-0.21909750998020172 -0.044981811195611954 1.275897741317749
-0.251096248626709 -0.08072996884584427 1.269621729850769
-0.2015978842973709 -0.0655798614025116 1.3169441223144531
-0.1802239865064621 -0.08082307875156403 1.3513140678405762
-0.1683734953403473 -0.13642600178718567 1.3426026105880737
-0.2174234241247177 -0.1601492166519165 1.2273176908493042
-0.18954502046108246 -0.00699547678232193 1.7694698572158813
-0.16977907717227936 -0.002214476466178894 1.4131360054016113
-0.1390307992696762 0.06929104030132294 0.865098237991333
-0.18297308683395386 0.022821247577667236 0.8588802218437195
-0.15770620107650757 -0.07116693258285522 0.8678296804428101
-0.20247071981430054 -0.1016085296869278 0.8546842336654663
-0.17854705452919006 -0.007344219833612442 1.667425274848938
-0.19126160442829132 -0.015755455940961838 1.798722267150879
-0.16179312765598297 -0.011472277343273163 1.7409754991531372
-0.1531641185283661 0.010647647082805634 1.67867112159729
-0.15801651775836945 -0.018135253340005875 1.6325637102127075
-0.12622138857841492 -0.01183830201625824 1.051133632659912
-0.1562068611383438 -0.06551629304885864 1.0107359886169434
-0.15581068396568298 -0.13549688458442688 0.9946022629737854
-0.1515045166015625 -0.050747692584991455 1.5650966167449951
-0.22200290858745575 0.3357318937778473 0.1855839043855667
-0.23518849909305573 0.3331107497215271 0.12179567664861679
-0.24381358921527863 0.30775582790374756 0.11115836352109909
-0.1342201679944992 -0.13415363430976868 1.3978995084762573
-0.13290463387966156 -0.06954507529735565 1.3554487228393555
-0.12280622869729996 -0.09098860621452332 1.3306185007095337
-0.1414409726858139 -0.14630399644374847 1.3797749280929565
-0.11929985880851746 -0.1714743673801422 1.3235598802566528
-0.18897123634815216 0.008439806289970875 0.49994516372680664
-0.19261103868484497 0.04181315004825592 0.41022107005119324
-0.19752898812294006 0.12530362606048584 0.3923397660255432
-0.2048424780368805 0.08630025386810303 0.40115591883659363
-0.15902173519134521 -0.007727231830358505 1.7045577764511108
-0.12064711004495621 -0.12508681416511536 1.287954330444336
-0.12729674577713013 -0.12218569219112396 1.246476173400879
-0.12569734454154968 -0.164438858628273 1.2641956806182861
-0.15334175527095795 -0.1848413050174713 1.257683277130127
-0.18692134320735931 0.17702677845954895 0.34736645221710205
-0.1371384561061859 -0.12303556501865387 1.5767704248428345
-0.14379021525382996 -0.04470798000693321 1.564051628112793
-0.1436268538236618 -0.07814665883779526 1.5644294023513794
-0.1637749969959259 -0.08652622252702713 0.5516887307167053
-0.09813949465751648 -0.0009714141488075256 1.8082150220870972
-0.10898201167583466 -0.15888908505439758 1.2059557437896729
-0.12347286939620972 -0.06306561827659607 1.1749674081802368
-0.12313175201416016 -0.12840695679187775 0.7344998717308044
-0.11332244426012039 0.04311417043209076 1.736864447593689
-0.10795187950134277 -0.1650739312171936 1.4044291973114014
-0.10635010898113251 -0.11297975480556488 0.8451595306396484
-0.14505133032798767 -0.12808360159397125 0.8684200048446655
-0.12281318008899689 -0.20688873529434204 0.9141356945037842
-0.11089728772640228 -0.21608704328536987 0.8498896360397339
-0.22404319047927856 0.26882651448249817 0.08995906263589859
-0.07658246159553528 0.07210268080234528 1.7273494005203247
-0.09115950763225555 0.008147023618221283 1.7891889810562134
-0.13557285070419312 -0.12067759037017822 1.4672050476074219
-0.11608709394931793 -0.13381919264793396 1.5298652648925781
-0.15545380115509033 0.14169135689735413 0.4051060974597931
-0.1745714694261551 0.20952969789505005 0.3247368037700653
-0.22126249969005585 0.23067587614059448 0.11048012971878052
-0.1671813726425171 0.36500173807144165 0.24639825522899628
-0.09655784070491791 -0.08667989075183868 1.335917353630066
-0.14678406715393066 -0.0911838710308075 0.5107516050338745
-0.16637347638607025 0.3321746289730072 0.09020698815584183
-0.20815587043762207 0.33841150999069214 0.08605863898992538
-0.09915222227573395 -0.04176315292716026 1.5808736085891724
-0.09548670053482056 -0.08404088020324707 1.5430880784988403
-0.0275094173848629 -0.22067388892173767 0.9070978164672852
-0.09008052200078964 0.08948412537574768 0.8665613532066345
-0.19672146439552307 0.08355510979890823 0.26727649569511414
-0.1686246246099472 0.16816778481006622 0.20993341505527496
-0.14868120849132538 0.3160134553909302 0.2633386552333832
-0.08429326117038727 -0.07094281166791916 1.3049341440200806
-0.09183552861213684 -0.08221785724163055 1.260271430015564
-0.046707626432180405 -0.2028844952583313 1.301037311553955
-0.1257740706205368 -0.042449064552783966 0.6483864784240723
-0.10278637707233429 -0.13067379593849182 0.7242411971092224
-0.07016368955373764 -0.11137523502111435 0.8037462830543518
-0.15531504154205322 0.20227791368961334 0.18496976792812347
-0.16853074729442596 0.25817644596099854 0.0981842502951622
-0.10098253190517426 -0.18374419212341309 1.5378239154815674
-0.08061333745718002 -0.07989278435707092 1.3734630346298218
-0.05163657292723656 -0.062342122197151184 1.3104804754257202
-0.1162291094660759 -0.11276139318943024 0.5257583856582642
-0.08837799727916718 -0.09836950898170471 0.5389232635498047
-0.120615653693676 0.016944585368037224 0.554892897605896
-0.07130347937345505 -0.17589741945266724 1.4966113567352295
-0.05243929848074913 -0.12848839163780212 1.4560575485229492
-0.09404972195625305 -0.08789953589439392 1.4259071350097656
-0.0944216400384903 -0.016098862513899803 0.5332598090171814
-0.04877425357699394 0.0309564471244812 1.7872580289840698
-0.08139411360025406 -0.20237165689468384 1.6971664428710938
-0.019567834213376045 -0.1981741338968277 0.9911911487579346
-0.05492015555500984 -0.1418069303035736 1.4793567657470703
-0.02991335280239582 -0.1702762246131897 1.463948369026184
-0.05205642804503441 -0.15503162145614624 1.4449138641357422
-0.02537664957344532 -0.20318374037742615 1.621065616607666
-0.07003046572208405 -0.21166634559631348 1.56278395652771
-0.03307582437992096 -0.103873111307621 1.4908361434936523
-0.07975033670663834 -0.06959910690784454 0.6208690404891968
0.00941896066069603 -0.0069037750363349915 1.821560263633728
-0.03192250803112984 0.08277963846921921 1.6899516582489014
-0.010819811373949051 -0.2304852306842804 1.5720553398132324
-0.032362353056669235 -0.2179875373840332 1.5065261125564575
-0.014808842912316322 -0.11183296144008636 1.4577672481536865
-0.006305839866399765 -0.2203681617975235 1.506691813468933
0.016238398849964142 -0.07921221852302551 1.4333816766738892
-0.011019421741366386 -0.06789492070674896 1.3035166263580322
0.004485752433538437 0.04764152318239212 1.7801711559295654
0.00989849679172039 -0.11233377456665039 1.4983934164047241
0.006966613233089447 -0.16661447286605835 1.4814229011535645
0.03105546161532402 0.058207929134368896 1.7285892963409424
0.02191537246108055 0.0043838247656822205 1.796461582183838
0.005484640598297119 -0.16136527061462402 1.4524774551391602
0.053834911435842514 -0.17504316568374634 1.5254099369049072
0.01443924568593502 -0.13475127518177032 1.464303731918335
0.0526806078851223 -0.3134452700614929 0.6677603721618652
0.03847192972898483 -0.06832072138786316 1.525903344154358
0.08389201760292053 -0.371680349111557 0.6075890064239502
0.03468109294772148 -0.2268795669078827 1.248352289199829
0.07525572180747986 -0.08014904707670212 1.2795686721801758
0.07494063675403595 -0.07385051250457764 1.1563736200332642
0.1632436364889145 -0.5058760643005371 0.14387255907058716
0.199547678232193 -0.5014707446098328 0.11596383154392242
0.1523110717535019 -0.31907251477241516 0.1521618515253067
0.049902670085430145 -0.2008010447025299 1.2416003942489624
0.04170294106006622 -0.21962955594062805 1.1656320095062256
0.04872160777449608 -0.2348596304655075 0.8049038052558899
0.15316841006278992 -0.385490357875824 0.09658419340848923
0.07499011605978012 -0.004117123782634735 1.7559967041015625
0.051975589245557785 -0.188560351729393 1.7027966976165771
0.04087729752063751 -0.18745416402816772 1.6100233793258667
0.046524032950401306 -0.19990892708301544 1.5593169927597046
0.0884145051240921 -0.13393375277519226 0.8895478248596191
0.13286884129047394 -0.0024288371205329895 1.7826972007751465
0.04636890068650246 -0.05901781842112541 1.5816115140914917
0.04923844709992409 -0.08176018297672272 1.557143211364746
0.13223859667778015 -0.3429158926010132 0.39434194564819336
0.13293743133544922 -0.34914663434028625 0.3358605206012726
0.17199069261550903 -0.31061020493507385 0.12895193696022034
0.07621431350708008 -0.007843602448701859 1.8485007286071777
0.09184624254703522 -0.11125224828720093 1.4469717741012573
0.09571667015552521 -0.19748342037200928 0.8821706771850586
0.07499080151319504 -0.1176585778594017 0.8696861267089844
0.11998855322599411 -0.17126527428627014 0.8781629800796509
0.09646154195070267 -0.15116499364376068 0.7362163066864014
0.2156352549791336 -0.5101740956306458 0.13786475360393524
0.09001883864402771 -0.01257111132144928 1.7706063985824585
0.07026837766170502 -0.17302662134170532 1.1410183906555176
0.08049407601356506 -0.19906753301620483 1.2605513334274292
0.08345247805118561 -0.21764501929283142 1.2518521547317505
0.13010475039482117 -0.16158246994018555 0.9273055195808411
0.08428683876991272 -0.12955054640769958 1.6169207096099854
0.07923056185245514 -0.052056435495615005 1.5887967348098755
0.07778777927160263 -0.07847081869840622 1.5855286121368408
0.08754368126392365 -0.09560077637434006 1.5838409662246704
0.09941719472408295 -0.11267272382974625 1.5643279552459717
0.12399999052286148 -0.25915950536727905 0.6937035918235779
0.10958167910575867 -0.2926460802555084 0.7593516111373901
0.10769400000572205 -0.16686895489692688 1.4029184579849243
0.12323463708162308 -0.08954587578773499 1.3666560649871826
0.08016437292098999 -0.09372170269489288 1.373542070388794
0.08677688986063004 -0.10486564040184021 1.3452191352844238
0.10698552429676056 -0.1327776312828064 0.8580740094184875
0.2176760882139206 -0.3513006865978241 0.12327764928340912
0.23449747264385223 -0.3843305706977844 0.1112280786037445
0.09880205988883972 -0.028936050832271576 1.723978042602539
0.12284740805625916 -0.12308437377214432 1.4222227334976196
0.1898130178451538 -0.39911097288131714 0.4014243483543396
0.11883141845464706 -0.011337656527757645 1.6919152736663818
0.09104850888252258 0.013592559844255447 1.688501238822937
0.10607287287712097 -0.022939320653676987 1.6592061519622803
0.22373265027999878 -0.4050120711326599 0.21026436984539032
0.24116861820220947 -0.4736623466014862 0.13530808687210083
0.2085355520248413 -0.5081081986427307 0.17476096749305725
0.1617659628391266 0.0072164637967944145 0.9340529441833496
0.15189550817012787 -0.019442642107605934 0.8258817791938782
0.1308041214942932 -0.02118023857474327 1.7857292890548706
0.1738257110118866 0.03445395082235336 0.8266643285751343
0.1889818012714386 0.021773526445031166 0.886297345161438
0.15442268550395966 -0.10104431957006454 1.3618717193603516
0.17707088589668274 -0.12736225128173828 1.3406440019607544
0.12743060290813446 -0.16445514559745789 1.3673911094665527
0.18104708194732666 -0.09246356040239334 1.3115582466125488
0.17489959299564362 -0.09012410044670105 1.2878644466400146
0.21573591232299805 -0.1745762974023819 1.2402455806732178
0.21050220727920532 -0.13706743717193604 1.2989637851715088
0.22475549578666687 -0.07237407565116882 1.255554437637329
0.24609977006912231 -0.029735594987869263 1.1855801343917847
0.27608722448349 -0.03716454654932022 1.2062709331512451
0.26741063594818115 -0.08514412492513657 1.2393193244934082
0.26606833934783936 -0.14620263874530792 1.2373454570770264
0.3004772365093231 -0.0275200754404068 1.1538580656051636
0.3565670847892761 -0.10808800160884857 1.1814852952957153
0.35167065262794495 -0.06852760910987854 1.1765903234481812
0.32825368642807007 -0.03554219752550125 1.1549433469772339
0.34675857424736023 -0.15639349818229675 1.1400362253189087
0.3489537835121155 -0.09652969986200333 1.1290696859359741
0.3358490467071533 -0.06903298199176788 1.1262449026107788
0.43815746903419495 -0.08101309090852737 1.0118978023529053
0.34566473960876465 -0.12842293083667755 1.1153229475021362
0.36105549335479736 -0.13208457827568054 1.0836946964263916
0.3858248293399811 -0.0624958872795105 1.0527966022491455
0.3568079173564911 -0.10509185492992401 1.0660279989242554
0.37153229117393494 -0.13838526606559753 1.0562201738357544
0.39267173409461975 -0.10594341158866882 1.0362608432769775
0.41731080412864685 -0.09486038237810135 1.0343822240829468
0.3938351273536682 -0.1487058699131012 1.0219365358352661
0.4077374041080475 -0.12034007161855698 1.0244500637054443
0.3965453505516052 -0.13439837098121643 1.0286694765090942
0.4381498396396637 -0.08135461807250977 0.9882634282112122
0.41929855942726135 -0.13976694643497467 1.0104767084121704
0.41191738843917847 -0.08226681500673294 1.0026018619537354
0.4374758303165436 -0.11435608565807343 0.9884341359138489
0.44838303327560425 -0.09708505868911743 0.9972081780433655
-0.3658352196216583 -0.02063835598528385 1.0686836242675781
-0.36810970306396484 -0.08663728833198547 1.0402169227600098
-0.34678494930267334 -0.06444847583770752 1.0442153215408325
-0.3774314224720001 -0.12969286739826202 1.0684198141098022
-0.2935253083705902 -0.021419387310743332 1.0715267658233643
-0.34384679794311523 -0.1264926791191101 1.0545220375061035
-0.2020624727010727 -0.06528835743665695 1.2480798959732056
-0.21079382300376892 -0.1235371083021164 1.2052102088928223
-0.17141546308994293 -0.10786300152540207 0.9629173278808594
-0.17819611728191376 -0.02107952907681465 0.9330359697341919
-0.13087403774261475 0.04831414669752121 0.9291780591011047
-0.17062363028526306 0.032656699419021606 1.2232134342193604
-0.17120248079299927 0.023928336799144745 1.1565661430358887
-0.1844673454761505 0.047957707196474075 1.1190376281738281
-0.15570791065692902 -0.01700526848435402 0.9656028747558594
-0.20068393647670746 -0.03201399743556976 1.7670844793319702
-0.14081540703773499 -0.08932647854089737 1.372082233428955
-0.16727213561534882 -0.06622166931629181 1.3079978227615356
-0.1232285350561142 0.049223892390728 1.0047115087509155
-0.1700352430343628 0.0418655090034008 0.9181910753250122
-0.23480480909347534 0.2773532271385193 0.2044028788805008
-0.24762170016765594 0.29197460412979126 0.14268606901168823
-0.17515578866004944 -0.036841362714767456 1.7497323751449585
-0.16019006073474884 -0.03604989871382713 1.6895740032196045
-0.13792434334754944 -0.19875290989875793 1.229698896408081
-0.13844990730285645 -0.2084692418575287 1.1956759691238403
-0.14227841794490814 -0.2311970591545105 1.1849137544631958
-0.14885830879211426 0.0035705026239156723 1.3685076236724854
-0.13644441962242126 -0.004278920590877533 1.3636997938156128
-0.11233867704868317 -0.19937258958816528 1.2463876008987427
-0.1386888325214386 -0.10520718991756439 1.2166404724121094
-0.21925000846385956 0.19348882138729095 0.2222621589899063
-0.21617163717746735 0.20766396820545197 0.27159664034843445
-0.10800482332706451 0.02010798454284668 1.2146775722503662
-0.14093007147312164 -0.13377173244953156 1.482174277305603
-0.1410512775182724 -0.12659814953804016 1.4559826850891113
-0.12686456739902496 -0.1268639713525772 1.4308083057403564
-0.1408144235610962 -0.120371975004673 1.430768609046936
-0.13852255046367645 -0.13709163665771484 1.413631558418274
-0.14491777122020721 -0.10797007381916046 0.7792561054229736
-0.1598019003868103 -0.06964253634214401 0.7727158069610596
-0.13274312019348145 0.11481811851263046 1.0007736682891846
-0.12458202242851257 0.11514489352703094 1.0574028491973877
-0.10323568433523178 -0.1910056620836258 1.248751163482666
-0.13245359063148499 -0.10420103371143341 0.8568006753921509
-0.19976626336574554 0.31066620349884033 0.2624073624610901
-0.2010631561279297 0.3488629162311554 0.23787157237529755
-0.14469657838344574 -0.18649807572364807 0.8492885828018188
-0.13000257313251495 0.08492397516965866 1.1820785999298096
-0.13162237405776978 -0.17532457411289215 1.6870797872543335
-0.1253146529197693 -0.0685453712940216 1.5660725831985474
-0.1137748435139656 0.020158853381872177 1.5127453804016113
-0.10040485858917236 -0.005897089838981628 1.579831600189209
-0.1226842924952507 -0.015837840735912323 1.5548200607299805
-0.1208978071808815 -0.011175692081451416 1.4629448652267456
-0.06835703551769257 0.06432556360960007 1.5393586158752441
-0.10677722841501236 -0.11563368141651154 1.5213229656219482
-0.09245266020298004 0.041406940668821335 0.982290506362915
-0.12371805310249329 -0.004321210086345673 1.852942943572998
-0.13636142015457153 -0.018972866237163544 1.8503193855285645
-0.135048508644104 -0.029865697026252747 1.8380985260009766
-0.02611471526324749 -0.012708697468042374 1.4375431537628174
-0.10934290289878845 0.028626734390854836 1.411450743675232
-0.14016370475292206 0.33366015553474426 0.15956011414527893
-0.06815320998430252 0.07606898248195648 1.327582836151123
-0.09085274487733841 -0.1837974637746811 1.5944256782531738
-0.14041973650455475 0.0344538688659668 0.4081323444843292
-0.06355966627597809 -0.008222866803407669 1.513257622718811
-0.07479261606931686 -0.062449485063552856 1.5135927200317383
-0.0520884245634079 0.05680105835199356 1.451192855834961
-0.039963603019714355 0.055069196969270706 0.8585021495819092
-0.1407906860113144 0.117669016122818 0.4113078713417053
-0.08653448522090912 0.07859985530376434 0.9003340005874634
-0.04153821989893913 0.033404335379600525 1.0463850498199463
-0.07822088897228241 -0.21471035480499268 1.2422813177108765
-0.07679757475852966 -0.18786212801933289 1.1494810581207275
-0.13071653246879578 0.11067582666873932 0.3722420930862427
-0.11419437825679779 0.13728846609592438 0.310056209564209
-0.1401648372411728 0.17795725166797638 0.3473256528377533
-0.06399112194776535 -0.025778602808713913 1.542122483253479
-0.06723923981189728 -0.11938594281673431 0.6677086353302002
-0.09485258907079697 -0.04285024479031563 0.6424028277397156
-0.06139332801103592 0.13526639342308044 1.0384737253189087
-0.07356707751750946 0.12242235243320465 0.9431160688400269
-0.024445626884698868 -0.22437143325805664 1.1690568923950195
-0.13050150871276855 0.26162564754486084 0.22015324234962463
-0.06814625859260559 0.06296112388372421 0.9471659660339355
-0.06408124417066574 0.03856012970209122 0.9977750778198242
0.007605917751789093 -0.020318234339356422 1.5236997604370117
-0.060169510543346405 -0.18525096774101257 1.3971097469329834
-0.008808329701423645 0.09336751699447632 1.2969812154769897
0.02772090956568718 -0.014074690639972687 1.4241957664489746
0.00509972870349884 -0.029331248253583908 1.5329006910324097
-0.004647106863558292 0.07203816622495651 0.9530452489852905
0.006902698427438736 0.05799669027328491 0.9049728512763977
0.0029373541474342346 -0.20041552186012268 1.3887438774108887
0.007810287643224001 0.03740927204489708 1.0414090156555176
0.000390433007851243 -0.22074414789676666 1.1077855825424194
0.07618552446365356 0.0790514424443245 1.3246511220932007
0.030595606192946434 -0.06578081846237183 1.321668028831482
0.06341595947742462 0.050902094691991806 1.459673523902893
0.03282705321907997 -0.004075087606906891 1.4715628623962402
0.04502573981881142 -0.05453530699014664 1.229277491569519
0.04211023449897766 0.10106748342514038 0.9124094247817993
0.026142939925193787 -0.04986423999071121 1.7955082654953003
0.13394542038440704 -0.453217089176178 0.15452009439468384
0.14605556428432465 -0.46607500314712524 0.1140962615609169
0.12263375520706177 -0.37238627672195435 0.17310605943202972
0.0075691211968660355 -0.20017358660697937 1.6978245973587036
0.059913650155067444 -0.19259831309318542 0.7252021431922913
0.10204306244850159 -0.010059215128421783 1.4424242973327637
0.061703868210315704 -0.13315638899803162 1.5308568477630615
0.09897115081548691 -0.14608150720596313 1.4567137956619263
0.05218007415533066 -0.09654565155506134 1.4311836957931519
0.10491099953651428 -0.33193469047546387 0.4649907946586609
0.12203231453895569 -0.46213144063949585 0.3411927819252014
0.14592131972312927 -0.3624280095100403 0.2991498112678528
0.07337666302919388 0.07766951620578766 0.9579354524612427
0.05244845896959305 0.10365093499422073 0.9122936725616455
0.08094295859336853 -0.2320152074098587 0.8203492164611816
0.1001361608505249 -0.23831696808338165 0.6860039234161377
0.034102607518434525 -0.10022405534982681 1.79388427734375
0.07701927423477173 -0.1165124922990799 1.7476310729980469
0.09637671709060669 -0.37514832615852356 0.660473108291626
0.04778549075126648 -0.03587418794631958 1.8030102252960205
0.0724666565656662 -0.05974818766117096 1.7565515041351318
0.09048384428024292 -0.10250632464885712 1.1470921039581299
0.09190741926431656 -0.08530724048614502 1.1185222864151
0.08870522677898407 -0.1626560091972351 1.094425916671753
0.06429586559534073 -0.17395901679992676 1.6894199848175049
0.07260140776634216 -0.11749155074357986 1.5626323223114014
0.07199875265359879 -0.1629190444946289 1.5720586776733398
0.11820093542337418 0.06243103742599487 0.9144268035888672
0.10128756612539291 -0.16720980405807495 1.295539379119873
0.11529909074306488 -0.22479388117790222 1.2375364303588867
0.10492435842752457 -0.14005236327648163 1.2477662563323975
0.1983165740966797 -0.3640369772911072 0.24070407450199127
0.17571213841438293 -0.4606471061706543 0.25341933965682983
0.19559946656227112 -0.4536806046962738 0.23447924852371216
0.09071119874715805 -0.031047068536281586 1.773871898651123
0.11487428098917007 -0.18861037492752075 1.2902586460113525
0.17617657780647278 -0.3307020962238312 0.5102909803390503
0.14287103712558746 -0.3686387538909912 0.5861186385154724
0.18576887249946594 -0.3626059293746948 0.4608096182346344
0.1156899631023407 -0.1676265299320221 1.4450247287750244
0.09797165542840958 -0.15999527275562286 1.4410831928253174
0.12525515258312225 -0.13143205642700195 1.409165382385254
0.12236069142818451 0.07334589213132858 0.89705890417099
0.11784279346466064 -0.10546624660491943 0.8635808825492859
0.21391820907592773 -0.390254944562912 0.3357844352722168
0.2182130664587021 -0.4205179810523987 0.34932613372802734
0.13565030694007874 -0.11605970561504364 1.4065755605697632
0.16379256546497345 0.024045808240771294 1.2376028299331665
0.16369235515594482 0.054696522653102875 1.2032784223556519
0.13118097186088562 -0.2704324424266815 1.116219401359558
0.16081351041793823 -0.039980702102184296 0.9738324880599976
0.16244211792945862 -0.09286282956600189 0.9695913791656494
0.18904279172420502 -0.06151874363422394 1.241597056388855
0.27787187695503235 -0.12216347455978394 1.111962914466858
0.27481207251548767 -0.06792545318603516 1.1135618686676025
0.2953360974788666 -0.17770397663116455 1.1615256071090698
-0.34957337379455566 -0.027571244165301323 1.0416160821914673
-0.37536123394966125 -0.08909761905670166 1.0025591850280762
-0.28135034441947937 -0.12812913954257965 1.1143038272857666
-0.2919870615005493 -0.1539124995470047 1.1620042324066162
-0.2397618293762207 -0.09196439385414124 1.139418125152588
-0.22559872269630432 -0.04948073625564575 1.1757802963256836
-0.19668763875961304 -0.1532026082277298 0.8689060211181641
-0.2011195570230484 0.04384284466505051 0.9635260105133057
-0.18963494896888733 0.03801347687840462 1.0804492235183716
-0.15400725603103638 -0.270370751619339 1.0728716850280762
-0.13361302018165588 -0.1718451976776123 0.9595363140106201
-0.23209816217422485 0.13186287879943848 0.3302856981754303
-0.21562689542770386 0.08181756734848022 0.30538344383239746
-0.1600072681903839 0.02400152012705803 0.5433927774429321
-0.15565010905265808 -0.19374734163284302 0.8549363017082214
-0.15430821478366852 -0.07689084112644196 0.6180652379989624
-0.14528551697731018 -0.11288444697856903 0.6733112335205078
-0.1373278945684433 -0.04296215623617172 0.683212161064148
-0.11665309220552444 -0.030530527234077454 1.1137932538986206
-0.11060484498739243 -0.10161273181438446 1.134336233139038
-0.0948868840932846 0.11319990456104279 1.1376702785491943
-0.11915182322263718 -0.011408951133489609 0.8529471158981323
-0.1740974485874176 0.05975674092769623 0.30521053075790405
-0.1153096854686737 -0.06444837152957916 1.2235304117202759
-0.1031123474240303 -0.0593646764755249 1.1474463939666748
-0.1592244654893875 -0.01568216271698475 0.43602967262268066
-0.12870873510837555 -0.04514564201235771 1.7729731798171997
-0.1293584257364273 -0.08556320518255234 1.7716678380966187
-0.0797538012266159 -0.11793935298919678 1.789769172668457
-0.09429481625556946 -0.1668168157339096 1.7553510665893555
-0.11505453288555145 -0.18015924096107483 1.6481432914733887
-0.1458883285522461 0.07189814746379852 0.3617055118083954
-0.06876780837774277 -0.11737635731697083 0.7254570722579956
-0.12234139442443848 0.10879294574260712 0.2941521406173706
-0.1448432356119156 0.08413563668727875 0.27898260951042175
-0.14340026676654816 0.20251011848449707 0.3107420802116394
-0.05630289390683174 0.06561434268951416 0.9746409058570862
-0.0767744705080986 -0.02049202099442482 1.817368984222412
-0.09348741173744202 -0.034964922815561295 1.8045711517333984
0.01272072084248066 0.04533436894416809 1.1286014318466187
-0.08866777271032333 0.037793129682540894 1.1341006755828857
-0.0025022223126143217 0.029831066727638245 1.1970582008361816
0.014490853995084763 -0.07360130548477173 1.267629861831665
-0.0028242990374565125 0.12294723838567734 1.168386697769165
-0.013139854185283184 0.05055786296725273 0.997251570224762
0.05580310523509979 0.14028862118721008 1.0697838068008423
0.01737876608967781 0.0731191337108612 1.6614651679992676
0.028546195477247238 0.04604513198137283 1.0051618814468384
0.0464472696185112 -0.20853012800216675 0.9142739176750183
0.09256824851036072 -0.41942667961120605 0.3461799621582031
0.11763253062963486 -0.4308118522167206 0.2923649251461029
0.043993234634399414 -0.25482332706451416 0.7706743478775024
0.03245563805103302 0.01018869411200285 1.0767598152160645
0.07522126287221909 -0.2928527891635895 0.6321002244949341
0.08887483179569244 0.023071009665727615 1.2748785018920898
0.07647597789764404 -0.18306487798690796 1.4167866706848145
0.05234435573220253 0.05262347310781479 1.6270947456359863
0.05353434383869171 -0.02542654424905777 1.6202588081359863
0.05917740613222122 -0.013699464499950409 1.585636854171753
0.046494029462337494 -0.02025623992085457 1.8519998788833618
0.08122584223747253 -0.18677160143852234 1.338068962097168
0.14454330503940582 -0.29311996698379517 0.5644727349281311
0.1121152937412262 -0.2786814570426941 0.5531693696975708
0.1502562314271927 -0.32905614376068115 0.4129672646522522
0.17435145378112793 -0.34288454055786133 0.38943445682525635
0.0991671085357666 -0.1115710437297821 1.5518600940704346
0.08955197036266327 -0.12136578559875488 1.5648266077041626
0.10041151195764542 -0.11853665113449097 1.5453917980194092
0.12893792986869812 -0.15025588870048523 0.7608509063720703
0.1291234791278839 -0.2920069992542267 0.7074819803237915
0.12299837917089462 0.04001544415950775 0.9420440196990967
0.12124568969011307 -0.07258182018995285 1.0905715227127075
0.12060810625553131 -0.12764111161231995 1.0787972211837769
0.1253976970911026 -0.13825452327728271 1.0209203958511353
0.09899084270000458 -0.050764672458171844 1.6687359809875488
0.11110584437847137 -0.07309949398040771 1.5809649229049683
0.10855616629123688 -0.20809240639209747 1.2217843532562256
0.11871615797281265 -0.00461665540933609 1.5552343130111694
0.10959208011627197 -0.0231999009847641 1.5972626209259033
0.22768467664718628 -0.36543118953704834 0.15559197962284088
0.24041156470775604 -0.42583146691322327 0.14233596622943878
0.134004607796669 -0.025571774691343307 1.5190509557724
0.14018210768699646 -0.01481917779892683 1.4856815338134766
0.1510247439146042 -0.018421079963445663 1.436638593673706
0.15298278629779816 -0.003124721348285675 1.416872501373291
0.1240825280547142 -0.27936941385269165 1.1334030628204346
0.1691046953201294 -0.13518717885017395 0.8767334222793579
0.14517125487327576 -0.2534695565700531 1.1531779766082764
0.13923361897468567 -0.2782091200351715 1.1342992782592773
0.20077933371067047 -0.09144097566604614 0.8781057000160217
0.20213373005390167 -0.08215650916099548 0.8541297316551208
0.21442505717277527 -0.048454977571964264 0.8484780788421631
-0.24800026416778564 -0.14995664358139038 1.1773074865341187
-0.16906104981899261 -0.17327997088432312 1.2526633739471436
-0.18151995539665222 -0.16797420382499695 1.2364506721496582
-0.16963869333267212 -0.159188374876976 1.2465598583221436
-0.1635601818561554 -0.16232645511627197 1.2631173133850098
-0.20229926705360413 0.00663396343588829 0.8646612167358398
-0.13158710300922394 -0.12624533474445343 1.2946075201034546
-0.15153077244758606 -0.08077801018953323 1.0850017070770264
-0.14971734583377838 0.012418225407600403 1.5566339492797852
-0.1347193717956543 -0.12938107550144196 1.1995044946670532
-0.1415625959634781 -0.11052550375461578 1.1520973443984985
-0.12861737608909607 0.0021513905376195908 1.447048544883728
-0.12276596575975418 -0.004372499883174896 1.391066312789917
-0.1250721514225006 -0.15888355672359467 1.0455527305603027
-0.0889819785952568 -0.18140634894371033 1.0027410984039307
-0.13810452818870544 -0.023672526702284813 0.7743633985519409
-0.08188245445489883 0.09401118010282516 1.219773530960083
-0.09228450059890747 0.06927347183227539 1.6371135711669922
-0.12620918452739716 0.33926862478256226 0.21878747642040253
-0.13791728019714355 0.3548014461994171 0.2278035283088684
-0.08865082263946533 0.0292986873537302 0.8704801201820374
-0.009234506636857986 0.0996379479765892 0.8497174978256226
-0.07109465450048447 -0.012551196850836277 0.844951868057251
0.009399360045790672 0.006188257597386837 1.3097003698349
-0.04241558164358139 -0.07349461317062378 0.7558388710021973
-0.036013320088386536 -0.19794708490371704 1.672362208366394
-0.011420506983995438 0.021198328584432602 0.8674831390380859
-0.006874382495880127 -0.018182307481765747 0.8481148481369019
0.01298911776393652 -0.10758502036333084 0.8601148724555969
-0.07948021590709686 -0.16665369272232056 0.8586283326148987
-0.00010601617395877838 -0.21974550187587738 0.8566799163818359
0.02090124972164631 -0.11180776357650757 0.8444852828979492
-0.0011245108908042312 -0.15686748921871185 0.8661537170410156
0.0010801702737808228 -0.055807944387197495 1.5129040479660034
0.02540717087686062 -0.03572642430663109 0.8367307782173157
0.027127914130687714 -0.06827812641859055 0.806771457195282
0.012305717915296555 -0.030452243983745575 1.5895962715148926
0.015594203025102615 -0.027663908898830414 1.5605159997940063
0.031305138021707535 -0.11691753566265106 0.8561965227127075
0.132895365357399 0.05244959145784378 0.8184520602226257
0.10061417520046234 -0.38980209827423096 0.3378638029098511
0.05224601551890373 -0.07358764111995697 0.7822911143302917
0.06511825323104858 0.05118526145815849 1.1599886417388916
0.11702604591846466 -0.38897109031677246 0.4728213846683502
0.1203310489654541 -0.38515505194664 0.4038088321685791
0.13086798787117004 -0.4032151699066162 0.42819082736968994
0.12838760018348694 -0.46040844917297363 0.38742876052856445
0.10381758213043213 7.675960659980774e-05 1.524679183959961
0.07885637879371643 -0.022030672058463097 0.8248968720436096
0.1076476126909256 -0.0688222125172615 0.7973717451095581
0.10367365926504135 -0.10978614538908005 1.2556346654891968
0.14119499921798706 -0.38755303621292114 0.529550313949585
0.09431878477334976 0.001552727073431015 1.6309168338775635
0.08856366574764252 -0.08534952998161316 1.3192168474197388
0.16118527948856354 -0.40565478801727295 0.43248414993286133
0.08143212646245956 0.12048977613449097 1.140674352645874
0.1052497923374176 -0.07605651021003723 1.2350730895996094
0.18746055662631989 -0.3660261631011963 0.30274343490600586
0.11762431263923645 0.11929377913475037 1.0455505847930908
0.17127369344234467 -0.3574348986148834 0.32530438899993896
0.17239530384540558 -0.4758619964122772 0.3595619797706604
0.14318017661571503 0.013705126941204071 1.2984193563461304
0.10597991943359375 -0.15751734375953674 1.489101767539978
0.1207333356142044 -0.14183121919631958 1.4573129415512085
0.1040327250957489 -0.15512844920158386 1.4889154434204102
0.1346317082643509 -0.12836140394210815 1.446376085281372
0.13228164613246918 -0.23239365220069885 1.2042652368545532
0.11675278097391129 -0.24113254249095917 1.1928813457489014
0.15592747926712036 0.03728773444890976 1.1852102279663086
0.1675267517566681 0.07122009992599487 1.1070746183395386
0.15745657682418823 0.06348034739494324 1.070605754852295
0.1608552634716034 -0.10663329809904099 1.2789433002471924
0.1463378369808197 -0.15318049490451813 1.272240400314331
0.15486614406108856 -0.1538650095462799 0.8911930322647095
0.15739819407463074 -0.1748242974281311 1.275298833847046
0.21234185993671417 -0.16701360046863556 1.1747153997421265
0.1954895406961441 -0.08498584479093552 1.186528205871582
0.2129242718219757 -0.13168549537658691 1.1552931070327759
0.28987494111061096 -0.1638105809688568 1.202439546585083
0.32281041145324707 -0.08300548791885376 1.0957986116409302
0.3207797110080719 -0.16011841595172882 1.1216734647750854
-0.1548404097557068 -0.2672051191329956 1.1164830923080444
-0.15483909845352173 -0.208751380443573 1.184149980545044
-0.16145524382591248 -0.20105679333209991 1.2071627378463745
-0.14324629306793213 -0.2535529136657715 1.120685338973999
-0.14472368359565735 0.002896605059504509 1.4798637628555298
-0.15329422056674957 -0.011622212827205658 1.4623429775238037
-0.15995492041110992 0.007404141128063202 1.4140293598175049
-0.15619856119155884 -0.05700254440307617 1.7327890396118164
-0.1554277241230011 -0.10803481191396713 1.6541680097579956
-0.20193958282470703 0.07792598754167557 0.36500462889671326
-0.13831356167793274 -0.06195554882287979 0.8500343561172485
-0.13866446912288666 -0.08649131655693054 0.8285350799560547
-0.19145061075687408 0.06039097532629967 0.9342623949050903
-0.09331168234348297 -0.18140792846679688 1.243227481842041
-0.12587031722068787 -0.022151771932840347 0.82417893409729
-0.09724268317222595 -0.05701656639575958 1.7881461381912231
-0.08867108821868896 -0.14678525924682617 1.1327497959136963
-0.04871797934174538 -0.2094365358352661 1.12200129032135
-0.10392113029956818 0.05072767660021782 1.0479140281677246
-0.015119969844818115 0.05317962169647217 1.0403599739074707
-0.08088895678520203 -0.04291908070445061 1.1661598682403564
-0.05904693156480789 -0.10743401944637299 0.8492566347122192
-0.041872747242450714 -0.20579829812049866 1.060546636581421
-0.06063755601644516 0.009694494307041168 1.0676847696304321
-0.02710101753473282 -0.16670072078704834 1.7704918384552002
0.018603390082716942 -0.1649835854768753 0.7947386503219604
-0.056167393922805786 0.010966538451611996 1.2750682830810547
0.1426420509815216 -0.40929335355758667 0.0940304771065712
0.08925112336874008 0.12812146544456482 0.9768394827842712
0.06783823668956757 0.06361772119998932 1.0591670274734497
0.02537873573601246 0.13924670219421387 0.9878117442131042
0.10061465203762054 0.08531749248504639 0.8333279490470886
0.20397694408893585 -0.32079342007637024 0.1477004736661911
0.11993730068206787 -0.045523907989263535 0.8242663741111755
0.14875847101211548 -0.392390638589859 0.4828481376171112
0.11927352845668793 -0.17185378074645996 1.4015018939971924
0.12449249625205994 -0.1733284890651703 1.3111833333969116
0.20323073863983154 -0.004569467157125473 0.8258984684944153
0.2042776644229889 -0.021930329501628876 0.8989957571029663
0.3280573785305023 -0.12362615019083023 1.0984888076782227
-0.3114762306213379 -0.15266653895378113 1.1227120161056519
-0.19454985857009888 -0.09042369574308395 0.9275785088539124
-0.21888378262519836 -0.07084989547729492 0.8693053722381592
-0.16056674718856812 -0.012485947459936142 1.4120962619781494
-0.16402465105056763 0.009686736389994621 1.2304737567901611
-0.14574334025382996 -0.07439695298671722 1.5557935237884521
-0.1422126591205597 -0.07258257269859314 1.0523946285247803
-0.14584453403949738 -0.10273909568786621 1.0905739068984985
-0.14422358572483063 -0.06908781826496124 1.556514024734497
-0.14302273094654083 -0.08640021085739136 1.5444438457489014
-0.141010120511055 -0.08029557764530182 1.551381230354309
-0.14379854500293732 -0.08032695949077606 1.556976556777954
-0.14653697609901428 -0.09662321954965591 1.547146201133728
-0.1960265338420868 0.17508122324943542 0.20005163550376892
-0.1464003622531891 -0.1342577338218689 1.7192661762237549
-0.041655004024505615 -0.04929283261299133 1.2230207920074463
-0.14117331802845 0.28487396240234375 0.12974320352077484
-0.04936002939939499 -0.06890343129634857 1.2637065649032593
-0.014422173611819744 -0.04466674104332924 1.1770930290222168
-0.04239758849143982 0.09433649480342865 0.9355576038360596
-0.028099803254008293 -0.05995158851146698 1.809662103652954
-0.05624248459935188 -0.0730610191822052 0.6903051137924194
-0.0340505875647068 0.01530438382178545 1.2333694696426392
0.01842174306511879 -0.19904634356498718 1.0090984106063843
-0.023121686652302742 -0.23224744200706482 1.2082371711730957
0.0027447333559393883 0.04165111482143402 1.093625545501709
0.12238778918981552 -0.38583654165267944 0.28362178802490234
0.07669880241155624 -0.17180944979190826 0.9910690784454346
0.11807563155889511 -0.15265187621116638 0.969386100769043
0.07350930571556091 -0.016469217836856842 1.549431562423706
0.07995079457759857 -0.18800786137580872 1.1681771278381348
0.03618796914815903 -0.04859496280550957 1.174397587776184
0.09379999339580536 -0.02767595835030079 1.086464524269104
0.07730766385793686 0.06862437725067139 0.9481610655784607
0.2180994749069214 -0.4667453169822693 0.06118748337030411
0.19371555745601654 -0.4510210454463959 0.05423558130860329
0.24563200771808624 -0.44342806935310364 0.07396824657917023
0.19687236845493317 -0.46645963191986084 0.3300520181655884
0.10409846901893616 -0.15471085906028748 1.4857721328735352
0.1046164259314537 -0.15496818721294403 1.485222339630127
0.0987042561173439 -0.131158709526062 1.3308873176574707
0.12439759075641632 -0.1577543318271637 1.304578423500061
0.15854796767234802 0.09117580950260162 0.9877915978431702
0.15248051285743713 0.06120084971189499 0.9406471252441406
0.16363774240016937 0.0721973329782486 0.9370436072349548
0.3271690309047699 -0.06575515121221542 1.1039553880691528
0.3465488851070404 -0.13342081010341644 1.0733715295791626
0.3740587532520294 -0.15437032282352448 1.0593831539154053
-0.29777219891548157 -0.06512469053268433 1.0590994358062744
-0.1640186905860901 -0.2399522364139557 1.1641724109649658
-0.17440877854824066 0.051615629345178604 0.38382673263549805
-0.14722904562950134 0.04642201215028763 0.9056333899497986
-0.09834721684455872 -0.16054978966712952 1.0818986892700195
-0.04092840477824211 -0.03520786762237549 0.844997227191925
-0.06219281256198883 -0.021381966769695282 0.8072634339332581
-0.05368494614958763 -0.07497024536132812 0.8062083721160889
-0.01267600804567337 0.0035690106451511383 1.1136765480041504
0.029863789677619934 -0.20109157264232635 0.8513569235801697
0.09960117936134338 0.01710008643567562 0.837909460067749
0.08219269663095474 0.06642816215753555 1.019474744796753
0.1008988618850708 -0.05095437541604042 1.5771921873092651
0.11125780642032623 -0.032926976680755615 1.5487622022628784
0.18716312944889069 -0.0808248296380043 0.9205946326255798
-0.1698317527770996 -0.24198856949806213 1.1283971071243286
-0.15429337322711945 -0.016357101500034332 1.5794012546539307
-0.10827438533306122 0.06425631791353226 0.9544138312339783
-0.13217681646347046 0.021573245525360107 1.6043574810028076
-0.10085677355527878 -0.019069846719503403 1.6010032892227173
-0.06608718633651733 -0.026464007794857025 1.5810497999191284
0.04671663045883179 -0.20320439338684082 1.0632609128952026
0.0648350715637207 -0.1927414834499359 1.2533862590789795
0.14134223759174347 -0.45642030239105225 0.24457089602947235
0.10759080946445465 -0.16026675701141357 1.218982219696045
0.1158532202243805 -0.13154643774032593 1.1694644689559937
0.1345871090888977 -0.002149958163499832 1.4395945072174072
0.1140637919306755 0.02948778122663498 1.4329828023910522
0.11813534796237946 -0.08413650095462799 1.184227705001831
0.119204580783844 -0.09104906022548676 0.8344680070877075
0.09703835099935532 -0.22868815064430237 1.2201769351959229
0.14542195200920105 0.03197283297777176 1.3177727460861206
-0.1457243114709854 0.015264712274074554 1.3274673223495483
-0.1574241816997528 0.10708699375391006 0.44109848141670227
0.03584960103034973 -0.20673412084579468 0.7671611905097961
0.0308346189558506 -0.16963648796081543 1.7513856887817383
-0.19697143137454987 0.060062214732170105 1.0123755931854248
-0.15420903265476227 -0.16217085719108582 1.2656008005142212
-0.11995763331651688 0.050967682152986526 0.4392721951007843
0.005788855254650116 0.06243431568145752 1.4515665769577026
0.16733098030090332 -0.4543471038341522 0.06468139588832855
0.10508367419242859 -0.11783808469772339 1.547771692276001
0.10208992660045624 -0.11685141921043396 1.543710470199585
0.10624094307422638 -0.14436867833137512 1.440084457397461
0.19397833943367004 -0.45048606395721436 0.2938178777694702
0.20730261504650116 -0.41159895062446594 0.280950665473938
0.19721660017967224 -0.18431125581264496 1.220059871673584
-0.1705213338136673 -0.16577187180519104 0.9305967688560486
-0.15070299804210663 0.0016606003046035767 1.367713451385498
-0.1504323035478592 -0.0008579716086387634 1.3681012392044067
-0.1543111801147461 -0.0034294314682483673 1.3691110610961914
-0.1310603767633438 0.17739354074001312 0.26586902141571045
-0.03994358330965042 -0.08924998342990875 0.8459693193435669
0.11875792592763901 -0.4190247356891632 0.2385430634021759
0.25081726908683777 -0.18674245476722717 1.182277798652649
0.09047353267669678 -0.1207459345459938 1.694148302078247
0.13274537026882172 -0.15439373254776 0.8198779821395874
0.15074801445007324 -0.006523154675960541 1.391926646232605
0.1509987711906433 0.01171701867133379 1.3426367044448853
0.14000138640403748 -0.340925395488739 0.12072809785604477
0.3679329752922058 -0.5388509631156921 0.9694509506225586
0.35627639293670654 -0.5006083846092224 0.9541061520576477
0.3610645830631256 -0.5108245015144348 0.9529092311859131
0.3491225838661194 -0.5108486413955688 0.9574870467185974
0.3645269572734833 -0.5353163480758667 0.953013002872467
0.36727815866470337 -0.5298816561698914 0.9718942046165466
0.3619442582130432 -0.36353716254234314 0.9999445676803589
0.3501906096935272 -0.3690725564956665 0.9881818294525146
0.3641134202480316 -0.3903689384460449 0.9929399490356445
0.35571324825286865 -0.40148624777793884 0.9915686845779419
0.3427269458770752 -0.17460626363754272 0.9849564433097839
0.34211841225624084 -0.1973634660243988 0.9945042133331299
