0.710791826248169 -0.1720322221517563 1.0711497068405151
0.6644509434700012 -0.20720483362674713 1.0334594249725342
0.6864191293716431 -0.18862637877464294 1.0260965824127197
0.7026010751724243 -0.2283116579055786 0.894883930683136
0.704675555229187 -0.2070331871509552 0.9022864103317261
-0.4838716983795166 0.1362597942352295 1.017345666885376
-0.22678662836551666 -0.05356123298406601 0.5183715224266052
-0.35332250595092773 -0.00010965391993522644 0.8387728929519653
-0.3321160674095154 -0.02375728264451027 0.8131448030471802
-0.37494227290153503 0.03383123502135277 0.8790852427482605
-0.505074679851532 0.1458319127559662 1.3344662189483643
-0.35632947087287903 0.0686231404542923 0.9139797687530518
-0.34173935651779175 0.04565693065524101 0.8870582580566406
-0.1755036860704422 -0.06836776435375214 0.5629416704177856
-0.16062825918197632 -0.042744677513837814 0.5593546628952026
-0.3086075782775879 -0.009895198047161102 0.8623043298721313
-0.2917870879173279 -0.0343855619430542 0.8110058903694153
-0.3052253723144531 -0.028009559959173203 0.8547709584236145
-0.48445582389831543 0.12250392138957977 1.289172649383545
-0.4311147928237915 0.12823987007141113 1.185180425643921
-0.22298550605773926 0.09040266275405884 1.190109372138977
0.1581556499004364 0.0008965134620666504 1.2436926364898682
0.14381903409957886 -0.012075481936335564 1.2522631883621216
0.25173816084861755 -0.03992300480604172 1.200158715248108
0.2606727182865143 -0.027224015444517136 1.1255735158920288
0.3241576850414276 -0.026804450899362564 1.2456846237182617
0.3895722031593323 -0.05697692185640335 1.1293331384658813
0.3816070258617401 -0.07193095982074738 1.1142520904541016
0.4312744736671448 -0.08719410002231598 1.269376277923584
0.4463431239128113 -0.09554223716259003 1.3515619039535522
0.474673867225647 -0.11904153972864151 1.1656951904296875
0.5201226472854614 -0.23908859491348267 0.8967535495758057
0.556814968585968 -0.23344112932682037 0.8465015888214111
0.5473905801773071 -0.26515671610832214 0.8046342134475708
0.5701906085014343 -0.24709828197956085 0.7490174770355225
0.5534605979919434 -0.166553795337677 1.0899018049240112
0.6024075150489807 -0.2946760654449463 0.6803784966468811
-0.42388054728507996 0.05865126848220825 0.8659460544586182
-0.21826565265655518 -0.025211669504642487 0.7171728014945984
-0.1907290518283844 -0.039999209344387054 0.6634981632232666
-0.5186508893966675 0.15306352078914642 1.4420626163482666
-0.25702762603759766 0.07127933204174042 1.0525892972946167
-0.24233153462409973 0.06784150004386902 1.0227582454681396
-0.23155003786087036 0.060594264417886734 1.056349515914917
-0.19215913116931915 0.06870138645172119 1.0979670286178589
-0.14854592084884644 0.05062290281057358 1.2537789344787598
-0.15746226906776428 0.03349149972200394 1.2556891441345215
0.36718714237213135 -0.05964941531419754 1.3999890089035034
0.389640212059021 -0.06633755564689636 1.4521244764328003
0.551608681678772 -0.13845138251781464 1.0550081729888916
0.551548182964325 -0.13785488903522491 0.9780470132827759
0.5013177394866943 -0.14048287272453308 1.1632919311523438
0.5389825105667114 -0.2040335088968277 0.8721071481704712
0.567336916923523 -0.1544191986322403 1.1339672803878784
0.5544334053993225 -0.13460130989551544 1.2207634449005127
0.6417977809906006 -0.1822005659341812 1.0566245317459106
0.6416085958480835 -0.19887427985668182 0.9926702380180359
0.6564608216285706 -0.24762453138828278 0.8252289891242981
0.6145568490028381 -0.26638665795326233 0.7394953966140747
0.67446368932724 -0.22797158360481262 0.8152850866317749
-0.2262539565563202 -0.07183251529932022 0.5480762124061584
-0.18399599194526672 -0.04995899647474289 0.5469776391983032
-0.29163259267807007 -0.04290436953306198 0.7614449262619019
-0.22666046023368835 -0.07155948877334595 0.6110458374023438
-0.18526305258274078 -0.07049316167831421 0.6078331470489502
-0.29807788133621216 0.02614377811551094 0.9195476174354553
-0.24317896366119385 0.06596839427947998 1.2019484043121338
-0.2284056842327118 0.06337986886501312 1.1469100713729858
-0.22631588578224182 0.07395331561565399 1.1200227737426758
-0.20922517776489258 0.053506433963775635 1.1968200206756592
-0.18078608810901642 0.0390133261680603 1.1310144662857056
-0.17529389262199402 0.053808510303497314 1.1190673112869263
0.2652781009674072 -0.012139569967985153 1.1307059526443481
0.4839007258415222 -0.13777081668376923 1.090170979499817
0.5149324536323547 -0.17131668329238892 1.0884296894073486
0.5269775986671448 -0.18784606456756592 1.0449905395507812
0.6254364252090454 -0.24117888510227203 0.875414252281189
-0.29073530435562134 -0.027142612263560295 0.6119151711463928
-0.2802034914493561 -0.05583330988883972 0.5825067758560181
-0.2736561894416809 -0.044533636420965195 0.5773347020149231
-0.3214639127254486 0.036914777010679245 0.8016644716262817
-0.2735064625740051 -0.02566346526145935 0.7803489565849304
-0.28886452317237854 -0.024799205362796783 0.8330190777778625
-0.17611008882522583 0.04667859524488449 1.2166486978530884
-0.14814436435699463 0.04252875596284866 1.324721097946167
-0.13569636642932892 0.04674002528190613 1.3133316040039062
0.14426840841770172 -0.020839449018239975 1.2651917934417725
0.18857699632644653 0.015253208577632904 1.652037262916565
0.35434508323669434 -0.0016009621322154999 1.5958257913589478
0.3753927946090698 -0.021487565711140633 1.6144477128982544
0.4304584264755249 -0.04081406071782112 1.5456485748291016
0.5909861326217651 -0.10320208221673965 1.294533371925354
0.6160288453102112 -0.10410154610872269 1.3305062055587769
0.6176275014877319 -0.08946303278207779 1.2684032917022705
0.6202921867370605 -0.11640819162130356 1.2534692287445068
0.6468076705932617 -0.10214325785636902 1.2692772150039673
-0.4742717742919922 0.11742281913757324 0.9492899775505066
-0.45704060792922974 0.12676440179347992 0.9306427240371704
-0.5372833609580994 0.1743817776441574 1.196622371673584
-0.5148293375968933 0.17489773035049438 1.185337781906128
-0.22457070648670197 -0.017693184316158295 0.5640486478805542
-0.20497508347034454 -0.035020861774683 0.5227388143539429
-0.2599088251590729 -0.06677801162004471 0.6493016481399536
-0.2961658239364624 0.021631255745887756 0.7543790340423584
-0.3681880831718445 0.08214452862739563 0.9651821851730347
-0.513616681098938 0.15819257497787476 1.4932249784469604
0.2596757709980011 -0.014667337760329247 1.1963107585906982
0.2746337652206421 -0.0014496278017759323 1.4249788522720337
0.40684816241264343 -0.06273476034402847 1.1474566459655762
0.38918158411979675 -0.03560836985707283 1.2733561992645264
0.44749653339385986 -0.08852891623973846 1.0805222988128662
0.46545273065567017 -0.10434360057115555 1.030478835105896
0.4489838182926178 -0.11879400908946991 1.1124310493469238
0.5566668510437012 -0.1790979653596878 0.8271323442459106
0.5629669427871704 -0.19754528999328613 0.8162114024162292
0.5621102452278137 -0.24011336266994476 0.8863217234611511
0.627012312412262 -0.16572654247283936 1.0540204048156738
0.663912832736969 -0.19209882616996765 0.8337743878364563
-0.2463003396987915 -0.05841432139277458 0.5522156953811646
-0.19851505756378174 -0.06088120490312576 0.5155993103981018
-0.230350524187088 0.08003221452236176 1.0255000591278076
-0.2020222544670105 0.0811111181974411 1.1174031496047974
-0.18001241981983185 0.050503209233284 1.172311782836914
0.6355651021003723 -0.18669219315052032 0.8682795166969299
0.6652977466583252 -0.24353575706481934 0.6348279118537903
0.6712904572486877 -0.2468728870153427 0.6501817107200623
-0.31765216588974 -0.02837846800684929 0.796682596206665
-0.2413192093372345 -0.026249345391988754 0.7308052778244019
-0.22406142950057983 -0.05056879669427872 0.6879138350486755
0.4684326648712158 -0.06302829086780548 1.4680596590042114
0.6799822449684143 -0.22472132742404938 0.6418747305870056
0.6777650713920593 -0.2140619307756424 0.9573903679847717
-0.2444254755973816 0.09943322092294693 1.2653595209121704
0.6567081212997437 -0.17801563441753387 1.0475411415100098
-0.2541270852088928 -0.0005615651607513428 0.8047292232513428
0.5757148861885071 -0.2741248607635498 0.6957526206970215
0.6452503800392151 -0.17775504291057587 1.0341328382492065
-0.3089023232460022 -0.053996603935956955 0.7612437009811401
-0.36567389965057373 -0.1379411369562149 0.9726018309593201
-0.37069380283355713 -0.13429011404514313 0.9836025238037109
-0.3535652756690979 -0.15549398958683014 0.9824106097221375
-0.3617193102836609 -0.15365837514400482 0.9929021596908569
-0.34067341685295105 -0.10519827157258987 1.0400524139404297
-0.34638893604278564 -0.12087090313434601 1.0192558765411377
-0.3373005986213684 -0.10983668267726898 0.9898396730422974
-0.335668683052063 -0.08203819394111633 1.0219398736953735
-0.3351980149745941 -0.135470911860466 1.0261430740356445
-0.3377015292644501 -0.1640658676624298 1.015655517578125
-0.3226379454135895 -0.0698370411992073 1.1002459526062012
-0.3174879848957062 -0.16216424107551575 1.0174098014831543
-0.33244070410728455 -0.12859123945236206 1.015518307685852
-0.3181478977203369 -0.14383719861507416 1.0546505451202393
-0.32011842727661133 -0.12009226530790329 1.0453555583953857
-0.3128303587436676 -0.058623697608709335 1.0694431066513062
-0.3139805495738983 -0.11102469265460968 1.0448381900787354
-0.31382086873054504 -0.11712682992219925 1.069061517715454
-0.3186720609664917 -0.09440906345844269 1.096798300743103
-0.3351684808731079 -0.05398177355527878 1.1310827732086182
-0.32482704520225525 -0.1042340025305748 1.1279057264328003
-0.301949679851532 -0.004215010907500982 1.1565526723861694
-0.3104747533798218 -0.015615887939929962 1.1125272512435913
-0.32466110587120056 -0.05434047803282738 1.1655080318450928
-0.27796298265457153 -0.013695629313588142 1.1014041900634766
-0.28017765283584595 -0.036455657333135605 1.215822696685791
-0.2930974066257477 -0.09722723066806793 1.175227165222168
-0.27806663513183594 0.006591477431356907 1.1441181898117065
-0.24700413644313812 1.8405728042125702e-05 1.1546032428741455
-0.2504928708076477 0.00907057709991932 1.2113876342773438
-0.22748304903507233 0.00923304632306099 1.2101248502731323
-0.2206781506538391 -0.040932439267635345 1.2834770679473877
-0.25821802020072937 -0.07267653942108154 1.2202602624893188
-0.21734784543514252 0.016311269253492355 1.2545064687728882
-0.24325509369373322 -0.011828547343611717 1.2634119987487793
-0.20462991297245026 0.014097563922405243 1.2929288148880005
-0.18944811820983887 0.012291256338357925 1.3276722431182861
-0.18285731971263885 -0.03539728373289108 1.3366010189056396
-0.21228797733783722 -0.08010657131671906 1.2420694828033447
-0.19070780277252197 0.06025181710720062 1.7230284214019775
-0.13366341590881348 0.10878105461597443 1.3933895826339722
-0.12961527705192566 0.06644782423973083 0.8709412813186646
-0.17614510655403137 0.01705796644091606 0.8797098994255066
-0.1531011462211609 -0.07546074688434601 0.8836537599563599
-0.19646261632442474 -0.1033220887184143 0.8753246068954468
-0.17326214909553528 0.07212848961353302 1.630995512008667
-0.19846409559249878 0.048195768147706985 1.7449393272399902
-0.1661006063222885 0.053924135863780975 1.6951583623886108
-0.14683374762535095 0.08334404230117798 1.6464178562164307
-0.15614522993564606 0.06487484276294708 1.5955770015716553
-0.11526042222976685 -0.00034322403371334076 1.0376324653625488
-0.1526741087436676 -0.050192248076200485 1.0024020671844482
-0.15933984518051147 -0.11890864372253418 0.9902019500732422
-0.15289239585399628 0.0457150861620903 1.5270419120788574
-0.294687420129776 -0.06471045315265656 0.06869877874851227
-0.3106030225753784 -0.12394168972969055 0.0321916826069355
-0.3143054246902466 -0.1492568701505661 0.048745110630989075
-0.1549452543258667 -0.022173237055540085 1.384284257888794
-0.14578399062156677 0.01826890930533409 1.3298511505126953
-0.13948480784893036 -0.008258465677499771 1.3111324310302734
-0.16294486820697784 -0.034003064036369324 1.3727158308029175
-0.14609068632125854 -0.07769360393285751 1.3292937278747559
-0.2318144589662552 -0.030201014131307602 0.48487183451652527
-0.23316138982772827 -0.05802041292190552 0.4007819592952728
-0.2454889416694641 -0.00589404720813036 0.338184654712677
-0.2508303225040436 -0.031900838017463684 0.36752328276634216
-0.16008253395557404 0.06271770596504211 1.6641780138015747
-0.14135853946208954 -0.04921194165945053 1.2804335355758667
-0.14380738139152527 -0.05995960161089897 1.2379770278930664
-0.146446093916893 -0.08496569097042084 1.2695178985595703
-0.17082269489765167 -0.0988975539803505 1.2709753513336182
-0.2415027767419815 0.004710896871984005 0.26473522186279297
-0.15537197887897491 -0.019386686384677887 1.5234308242797852
-0.14124861359596252 0.05074166879057884 1.5280306339263916
-0.1493568867444992 0.022039741277694702 1.5207200050354004
-0.19944973289966583 -0.06597945094108582 0.5830252766609192
-0.11301805078983307 0.04456973075866699 1.7582601308822632
-0.13001962006092072 -0.1063460260629654 1.2073791027069092
-0.11782923340797424 -0.03377385064959526 1.1538397073745728
-0.13878218829631805 -0.12403927743434906 0.7516698837280273
-0.1153315082192421 0.09530539810657501 1.7071917057037354
-0.13440921902656555 -0.05382390320301056 1.3975269794464111
-0.10523198544979095 -0.1180395781993866 0.8550618886947632
-0.13983966410160065 -0.1307065188884735 0.8768926858901978
-0.1233646348118782 -0.198633074760437 0.9156109094619751
-0.10712483525276184 -0.2141261100769043 0.8521444797515869
-0.28791123628616333 -0.18826283514499664 0.0660514384508133
-0.07691415399312973 0.11533324420452118 1.7062633037567139
-0.10624967515468597 0.05501331388950348 1.7435359954833984
-0.1537894308567047 0.00349324569106102 1.435113549232483
-0.13655033707618713 -0.022313300520181656 1.481798529624939
-0.2090250700712204 0.01670893281698227 0.333374559879303
-0.2382752150297165 -0.008555815555155277 0.21606563031673431
-0.27697569131851196 -0.18659986555576324 0.10929708927869797
-0.24447894096374512 -0.0044809430837631226 0.07572373002767563
-0.11432668566703796 -0.005348023027181625 1.3151124715805054
-0.18043480813503265 -0.09294354170560837 0.555786669254303
-0.24318669736385345 -0.14562170207500458 0.009906034916639328
-0.2847503423690796 -0.1460745632648468 0.00537212984636426
-0.10675523430109024 0.042777884751558304 1.5438488721847534
-0.11060775071382523 0.013324230909347534 1.5011518001556396
-0.032546013593673706 -0.21644172072410583 0.9067838191986084
-0.07882392406463623 0.08915789425373077 0.8658354878425598
-0.23767270147800446 -0.11085618287324905 0.27667272090911865
-0.21507804095745087 -0.10892440378665924 0.2008003443479538
-0.22306247055530548 -0.01390111818909645 0.11779090017080307
-0.09847232699394226 -0.004636403173208237 1.2804110050201416
-0.10609718412160873 -0.025233741849660873 1.2397162914276123
-0.07902416586875916 -0.12416163086891174 1.3117609024047852
-0.14451752603054047 -0.026239939033985138 0.675230860710144
-0.12164624035358429 -0.12591150403022766 0.7424060702323914
-0.07635287195444107 -0.11729991436004639 0.8149904012680054
-0.20670287311077118 -0.1174752488732338 0.16712410748004913
-0.23131433129310608 -0.17999659478664398 0.07495944201946259
-0.1305558979511261 -0.07372260838747025 1.4753873348236084
-0.09860490262508392 0.005707889795303345 1.3501676321029663
-0.06812683492898941 -0.0008730031549930573 1.2856667041778564
-0.1497999131679535 -0.09549060463905334 0.5778052806854248
-0.12649542093276978 -0.07596884667873383 0.5778930187225342
-0.16672086715698242 0.020558645948767662 0.5201306343078613
-0.1015113890171051 -0.06161031499505043 1.4465118646621704
-0.07601243257522583 -0.02242238074541092 1.4294203519821167
-0.10522541403770447 0.018872838467359543 1.3897309303283691
-0.1384616494178772 -0.016694404184818268 0.5249196290969849
-0.06399901211261749 0.06776867061853409 1.7474607229232788
-0.12438236176967621 -0.11423210054636002 1.6085927486419678
-0.03711242228746414 -0.1882789433002472 0.9882887601852417
-0.08050312101840973 -0.03307417407631874 1.4429786205291748
-0.05957017093896866 -0.06194598227739334 1.4282259941101074
-0.07979103922843933 -0.0461440235376358 1.4223283529281616
-0.07188227772712708 -0.1134011298418045 1.540989637374878
-0.11013910174369812 -0.10539377480745316 1.4880659580230713
-0.05566296726465225 -0.0026527419686317444 1.452953815460205
-0.10834664851427078 -0.04131182283163071 0.6442471742630005
-0.02264980599284172 0.021189279854297638 1.7692145109176636
-0.034091126173734665 0.1231195256114006 1.6766974925994873
-0.06031358614563942 -0.12998738884925842 1.4920201301574707
-0.07376841455698013 -0.10656093060970306 1.4464576244354248
-0.03881993889808655 -0.012377031147480011 1.4287033081054688
-0.04782464727759361 -0.10969183593988419 1.447023630142212
-0.009337354451417923 0.006578434258699417 1.4051344394683838
-0.028997840359807014 -0.01483609527349472 1.279297113418579
-0.017593786120414734 0.07515775412321091 1.7456852197647095
-0.01911013014614582 -0.014380473643541336 1.4570469856262207
-0.02395913004875183 -0.056705206632614136 1.4432514905929565
0.011446513235569 0.08971172571182251 1.7065857648849487
-0.009045165032148361 0.03178827464580536 1.7514419555664062
-0.018713422119617462 -0.04819890111684799 1.4310202598571777
0.009544536471366882 -0.07894156873226166 1.4678740501403809
-0.01327005960047245 -0.02813444659113884 1.4365456104278564
0.08020991832017899 -0.09165841341018677 0.598515510559082
0.012008139863610268 0.010449368506669998 1.4874002933502197
0.1161947175860405 -0.11137840896844864 0.5156629085540771
-0.002446988597512245 -0.16301009058952332 1.2700926065444946
0.04557459428906441 -0.0438358299434185 1.2598453760147095
0.04833164066076279 -0.07126784324645996 1.1480309963226318
0.15141661465168 -0.12692078948020935 0.07861156761646271
0.16700607538223267 -0.11844723671674728 0.05961620807647705
0.1378190666437149 0.001003354787826538 0.08975392580032349
0.012400506064295769 -0.14713215827941895 1.2557114362716675
0.001919139176607132 -0.18790361285209656 1.1809937953948975
0.07425759732723236 -0.14119163155555725 0.7389141917228699
0.13363172113895416 -0.049062419682741165 0.06351880729198456
0.03988116234540939 0.022007592022418976 1.7116031646728516
-0.003707233816385269 -0.12448574602603912 1.61725652217865
-0.00805962085723877 -0.10794492065906525 1.531973123550415
-0.005068771541118622 -0.10892954468727112 1.4879639148712158
0.09915138781070709 -0.16132661700248718 0.8839727640151978
0.08769850432872772 0.012850329279899597 1.7397181987762451
0.017689021304249763 0.008654411882162094 1.540726900100708
0.016289323568344116 -0.010385561734437943 1.5113627910614014
0.13965341448783875 -0.020523900166153908 0.33635202050209045
0.13183479011058807 -0.010915536433458328 0.27466729283332825
0.1498810052871704 0.011097200214862823 0.07251021265983582
0.03188684955239296 0.007655356079339981 1.7960832118988037
0.050814077258110046 -0.01243581622838974 1.4089949131011963
0.0995531678199768 -0.21954330801963806 0.87055504322052
0.09062378108501434 -0.1321674883365631 0.871269702911377
0.13027964532375336 -0.19565178453922272 0.8728300333023071
0.09896156936883926 -0.04088020324707031 0.759296178817749
0.1941256821155548 -0.11809484660625458 0.07144080847501755
0.0488339439034462 0.0105823315680027 1.722688913345337
0.03617345914244652 -0.15928351879119873 1.1479566097259521
0.04083472862839699 -0.13329710066318512 1.2734088897705078
0.04203527420759201 -0.14938461780548096 1.2710072994232178
0.12536445260047913 -0.18982619047164917 0.9402434825897217
0.03727620467543602 -0.06441342085599899 1.55354905128479
0.04705183580517769 0.008803330361843109 1.5512311458587646
0.042143311351537704 -0.016540952026844025 1.53863525390625
0.04860766977071762 -0.032674796879291534 1.5336589813232422
0.057446375489234924 -0.044634103775024414 1.5104637145996094
0.13980281352996826 -0.06600174307823181 0.6578096151351929
0.1378115713596344 -0.1319207102060318 0.6773335337638855
0.06456490606069565 -0.04751507565379143 1.390612006187439
0.06902603805065155 -0.0010791495442390442 1.330075979232788
0.03643738105893135 -0.004284799098968506 1.3466827869415283
0.04645506292581558 -0.02540314942598343 1.322826862335205
0.12694162130355835 -0.11917160451412201 0.8397619128227234
0.19433952867984772 -0.005403205752372742 0.07557892054319382
0.20793309807777405 -0.02938556671142578 0.07011286914348602
0.05932970717549324 0.002094283699989319 1.6763848066329956
0.07564356178045273 -0.026044677942991257 1.3831422328948975
0.2029646635055542 -0.06593137979507446 0.3214709162712097
0.08336882293224335 0.018853720277547836 1.6515896320343018
0.06165676563978195 0.04592812433838844 1.655827522277832
0.06975159049034119 0.01567346230149269 1.6200051307678223
0.2105676680803299 -0.038098372519016266 0.14619478583335876
0.2177799940109253 -0.08663590252399445 0.07263083755970001
0.2062806487083435 -0.11707569658756256 0.09887219220399857
0.15187959372997284 -0.01521447952836752 0.980548620223999
0.15208564698696136 -0.016032088547945023 0.881583034992218
0.08487820625305176 -0.005955737084150314 1.7365801334381104
0.16921435296535492 0.03733963146805763 0.8886234164237976
0.18027350306510925 0.0007660607807338238 0.9522703289985657
0.09354773163795471 -0.010728269815444946 1.3249117136001587
0.10612788796424866 -0.030863743275403976 1.3120824098587036
0.07607296109199524 -0.05026806890964508 1.3584944009780884
0.10588936507701874 -0.019236549735069275 1.2709161043167114
0.0962173193693161 -0.023012671619653702 1.250533938407898
0.1120210736989975 -0.09710759669542313 1.2374088764190674
0.12410306185483932 -0.05314534902572632 1.2726249694824219
0.14574909210205078 -0.03046213462948799 1.2071681022644043
0.16265718638896942 -0.038465820252895355 1.1314352750778198
0.18745344877243042 -0.05360499024391174 1.1475101709365845
0.17165535688400269 -0.0679030567407608 1.197141408920288
0.1440771073102951 -0.10291136801242828 1.2172393798828125
0.19212834537029266 -0.07529614120721817 1.0959984064102173
0.20560500025749207 -0.14057661592960358 1.1500709056854248
0.2161150723695755 -0.11872562021017075 1.1301225423812866
0.20857182145118713 -0.0931241512298584 1.1019245386123657
0.16375109553337097 -0.1749471127986908 1.1334184408187866
0.1878291517496109 -0.1463102549314499 1.0999407768249512
0.19004005193710327 -0.12695863842964172 1.0863374471664429
0.22429022192955017 -0.21015602350234985 0.9866414070129395
0.16693119704723358 -0.1621122658252716 1.100297212600708
0.16639026999473572 -0.17977191507816315 1.072052001953125
0.20702338218688965 -0.1632367968559265 1.0174249410629272
0.17209024727344513 -0.17021840810775757 1.0465691089630127
0.1652587652206421 -0.19704361259937286 1.0505127906799316
0.18941250443458557 -0.19383174180984497 1.0200831890106201
0.2085874080657959 -0.20070436596870422 1.0149894952774048
0.16169415414333344 -0.2201259732246399 1.0240743160247803
0.1862986534833908 -0.21358713507652283 1.0147591829299927
0.17312143743038177 -0.2148490846157074 1.0237548351287842
0.21664242446422577 -0.21656084060668945 0.9667457938194275
0.18040677905082703 -0.22951805591583252 1.011614441871643
0.20099762082099915 -0.19978316128253937 0.9803750514984131
0.20062565803527832 -0.23277561366558075 0.9800600409507751
0.21745222806930542 -0.2269742488861084 0.9827775955200195
-0.3149159252643585 -0.04855893924832344 1.0934141874313354
-0.30329251289367676 -0.1047184094786644 1.0836225748062134
-0.29131096601486206 -0.08820177614688873 1.0797057151794434
-0.30637872219085693 -0.1217183843255043 1.1202534437179565
-0.2607962489128113 -0.04646994173526764 1.0877741575241089
-0.281001478433609 -0.1220269575715065 1.1035659313201904
-0.20554278790950775 -0.008619718253612518 1.231590986251831
-0.20193171501159668 -0.06196729093790054 1.2104920148849487
-0.1719924360513687 -0.09710995852947235 0.9690186977386475
-0.17576536536216736 -0.015136992558836937 0.9505846500396729
-0.12592574954032898 0.05125480145215988 0.9341877102851868
-0.09708081185817719 0.15008148550987244 1.2554267644882202
-0.08931097388267517 0.1470540165901184 1.1971697807312012
-0.08845805376768112 0.17023839056491852 1.1690782308578491
-0.1504700928926468 -0.011147386394441128 0.970543384552002
-0.2038770616054535 0.04147161543369293 1.7143522500991821
-0.1548563688993454 0.008739575743675232 1.350154995918274
-0.17537684738636017 0.007842078804969788 1.2840086221694946
-0.022258074954152107 0.1597830355167389 1.0729403495788574
-0.04569029435515404 0.16424037516117096 0.9930856227874756
-0.2967061698436737 -0.08266152441501617 0.12761802971363068
-0.31488335132598877 -0.13388952612876892 0.07847168296575546
-0.1805828958749771 0.031826168298721313 1.6970840692520142
-0.16480280458927155 0.042989712208509445 1.6427748203277588
-0.15720875561237335 -0.12166009843349457 1.2474355697631836
-0.15690092742443085 -0.1381911188364029 1.221197247505188
-0.1610805243253708 -0.158250093460083 1.2174500226974487
-0.10466629266738892 0.11230836063623428 1.3693158626556396
-0.09638124704360962 0.1038106232881546 1.3650187253952026
-0.13774551451206207 -0.12366225570440292 1.262475609779358
-0.14831212162971497 -0.05339077115058899 1.203466773033142
-0.26790010929107666 -0.09951644390821457 0.19288870692253113
-0.27467820048332214 -0.0543069913983345 0.2001422643661499
-0.04854539409279823 0.126417875289917 1.2501715421676636
-0.1603974997997284 -0.008190281689167023 1.4475579261779785
-0.1594732254743576 -0.002631083130836487 1.4265549182891846
-0.1456274539232254 -0.006614856421947479 1.409117579460144
-0.1598062664270401 -0.000997193157672882 1.4058033227920532
-0.15904757380485535 -0.019932061433792114 1.3969244956970215
-0.150610089302063 -0.10821142792701721 0.7975066304206848
-0.16255570948123932 -0.06968521326780319 0.7933063507080078
-0.013837534934282303 0.21784907579421997 1.0824540853500366
-0.016622861847281456 0.2156536877155304 1.1328885555267334
-0.1287800818681717 -0.1167883351445198 1.2582848072052002
-0.12874871492385864 -0.10883544385433197 0.8692431449890137
-0.26957234740257263 -0.020119231194257736 0.12548689544200897
-0.27483174204826355 -0.019836999475955963 0.08819454908370972
-0.1395234763622284 -0.18577343225479126 0.8546408414840698
-0.04693328216671944 0.18637408316135406 1.2323046922683716
-0.16229845583438873 -0.08258432894945145 1.6060805320739746
-0.1313842236995697 0.027946695685386658 1.5251072645187378
-0.09687542915344238 0.11121389269828796 1.494978904724121
-0.09849807620048523 0.07573863118886948 1.552724838256836
-0.11823732405900955 0.07551874220371246 1.5262579917907715
-0.10291556268930435 0.09247566759586334 1.4420069456100464
-0.05175808444619179 0.13160249590873718 1.5385310649871826
-0.12302936613559723 -0.007623065263032913 1.4773560762405396
-0.08395089954137802 0.043838147073984146 0.9770271182060242
-0.14067837595939636 0.037920333445072174 1.7974576950073242
-0.15069958567619324 0.03152097016572952 1.791569709777832
-0.15433716773986816 0.020588204264640808 1.7776427268981934
-0.02087055705487728 0.0730174332857132 1.4357961416244507
-0.07437586784362793 0.12452404946088791 1.412615418434143
-0.21409699320793152 -0.08235341310501099 0.0493570938706398
-0.022815106436610222 0.16031238436698914 1.3601906299591064
-0.12628431618213654 -0.08398580551147461 1.5197012424468994
-0.1836456060409546 -0.06024079769849777 0.40282541513442993
-0.06183626875281334 0.07282538712024689 1.4954631328582764
-0.08635780215263367 0.03397214412689209 1.4780869483947754
-0.02960953488945961 0.13547150790691376 1.460683822631836
-0.032295048236846924 0.05128292739391327 0.859695315361023
-0.19232851266860962 0.0025314439553767443 0.3533228039741516
0.031452618539333344 0.1761862188577652 0.9941428899765015
-0.03152415528893471 0.03649630397558212 1.0346574783325195
-0.11023491621017456 -0.14867965877056122 1.2577357292175293
-0.10293809324502945 -0.1516028344631195 1.1572011709213257
-0.18091890215873718 -0.025228966027498245 0.3310602009296417
-0.16630026698112488 -0.03991992399096489 0.26857316493988037
-0.19697339832782745 0.009396357461810112 0.26391690969467163
-0.06911258399486542 0.0558735616505146 1.5136734247207642
-0.0936114639043808 -0.1019512265920639 0.692069947719574
-0.11928801983594894 -0.02774704620242119 0.6655493378639221
0.03726834058761597 0.21884077787399292 1.1243035793304443
0.04324784129858017 0.20941981673240662 1.0406116247177124
-0.05742926523089409 -0.18447467684745789 1.1837208271026611
-0.195256307721138 -0.06824304908514023 0.1330971121788025
0.032273534685373306 0.15992772579193115 1.0328657627105713
0.022720718756318092 0.139277845621109 1.0693519115447998
-0.0012439154088497162 0.05210946500301361 1.5059807300567627
-0.0919390544295311 -0.0801602154970169 1.3911902904510498
0.02978384867310524 0.16488073766231537 1.341501235961914
0.02399105578660965 0.06243882328271866 1.4265294075012207
-0.010384824126958847 0.04465682432055473 1.5063635110855103
0.08096224814653397 0.15096697211265564 1.0424509048461914
0.09893728792667389 0.13768243789672852 0.9992164969444275
-0.02845163829624653 -0.09769675880670547 1.3873701095581055
0.013534041121602058 0.03510194644331932 1.0331346988677979
-0.030240550637245178 -0.1994815468788147 1.11226224899292
0.09037938714027405 0.1340765357017517 1.3667376041412354
0.008598674088716507 -0.013882989063858986 1.2964460849761963
0.05939251184463501 0.10965481400489807 1.4677033424377441
0.02525073103606701 0.06412594020366669 1.468995213508606
0.023340625688433647 -0.03236955404281616 1.208115577697754
0.04554923623800278 0.09339134395122528 0.9241466522216797
-0.012750353664159775 -0.014032665640115738 1.7340805530548096
0.13312746584415436 -0.09890137612819672 0.09058225154876709
0.12342488765716553 -0.10669778287410736 0.06601154804229736
0.12627999484539032 -0.04419587925076485 0.10367396473884583
-0.04843956604599953 -0.12875880300998688 1.6100128889083862
0.07023082673549652 -0.06242584437131882 0.7229730486869812
0.08111245185136795 0.04947541654109955 1.438576102256775
0.021100228652358055 -0.04545700177550316 1.4778499603271484
0.05906619131565094 -0.030994310975074768 1.426904559135437
0.01875072345137596 1.154094934463501e-05 1.402733564376831
0.11884811520576477 -0.03415285795927048 0.4039354920387268
0.14221051335334778 -0.11820970475673676 0.2463170289993286
0.1365615725517273 -0.03139476478099823 0.2099606692790985
0.14453841745853424 0.136985182762146 1.0515930652618408
0.13972778618335724 0.1636117398738861 1.0193090438842773
0.10772155225276947 -0.14594660699367523 0.7506799697875977
0.11347350478172302 -0.052501462399959564 0.6669224500656128
-0.014575488865375519 -0.0613224059343338 1.7198402881622314
0.02586851827800274 -0.07349420338869095 1.6769862174987793
0.13098673522472382 -0.13026708364486694 0.559579610824585
0.007862813770771027 -0.008133608847856522 1.7476898431777954
0.030911017209291458 -0.02562568709254265 1.6978660821914673
0.05990467965602875 -0.09859625995159149 1.143958568572998
0.06481032073497772 -0.08689916878938675 1.1175066232681274
0.05534171685576439 -0.15904568135738373 1.100574016571045
0.009806040674448013 -0.11192074418067932 1.6093597412109375
0.033896900713443756 -0.04518105462193489 1.5074092149734497
0.0227774977684021 -0.08434172719717026 1.505529522895813
0.18235939741134644 0.11419890820980072 1.0137650966644287
0.05647370219230652 -0.08907189965248108 1.2983953952789307
0.066739022731781 -0.15280692279338837 1.2614399194717407
0.06579794734716415 -0.10165084153413773 1.244178056716919
0.1788436323404312 -0.015089176595211029 0.1626024693250656
0.1937408298254013 -0.09600203484296799 0.18322497606277466
0.20816132426261902 -0.08312828093767166 0.1685481071472168
0.0479450449347496 -0.004058953374624252 1.7216269969940186
0.06544587016105652 -0.09768162667751312 1.3000216484069824
0.19219273328781128 -0.0381779745221138 0.4444853961467743
0.17141100764274597 -0.09369005262851715 0.49701765179634094
0.20086348056793213 -0.051916416734457016 0.3879208564758301
0.07191316783428192 -0.04708101600408554 1.420474886894226
0.05873249098658562 -0.043557971715927124 1.4169374704360962
0.0783623605966568 -0.035350263118743896 1.375514030456543
0.11840343475341797 0.06354774534702301 0.9342737793922424
0.13143664598464966 -0.1170242577791214 0.874751091003418
0.20702402293682098 -0.035300396382808685 0.2620925009250641
0.22319793701171875 -0.06609174609184265 0.2692975103855133
0.08174075931310654 -0.015202511101961136 1.3688424825668335
0.15798096358776093 0.06989573687314987 1.285017728805542
0.16938264667987823 0.09464926272630692 1.2621251344680786
0.07539589703083038 -0.22605034708976746 1.160434365272522
0.14747975766658783 -0.06623424589633942 1.0058778524398804
0.14950896799564362 -0.12370900064706802 1.0006451606750488
0.10960718989372253 -0.01593407243490219 1.195742130279541
0.12466830760240555 -0.12836915254592896 1.0951687097549438
0.1452668011188507 -0.09252949059009552 1.0761470794677734
0.12661825120449066 -0.15808360278606415 1.1618601083755493
-0.29849356412887573 -0.06374475359916687 1.0691003799438477
-0.30682238936424255 -0.12076681852340698 1.0537770986557007
-0.23905423283576965 -0.1001373901963234 1.1463334560394287
-0.24984228610992432 -0.09933175146579742 1.1935009956359863
-0.21759027242660522 -0.06644092500209808 1.153713345527649
-0.21689411997795105 -0.027256237342953682 1.1724077463150024
-0.19102171063423157 -0.15156641602516174 0.8825154900550842
-0.07581141591072083 0.1725422590970993 1.0313844680786133
-0.0865781381726265 0.16315634548664093 1.1311020851135254
-0.1695401519536972 -0.2239692211151123 1.127800464630127
-0.13867850601673126 -0.1598464846611023 0.9609674215316772
-0.28069671988487244 -0.04124999791383743 0.2887430787086487
-0.25814974308013916 -0.09143884479999542 0.3030756413936615
-0.20516948401927948 0.01232457347214222 0.5073854923248291
-0.15058287978172302 -0.19176426529884338 0.8607300519943237
-0.18163873255252838 -0.04761490970849991 0.6502211093902588
-0.16971154510974884 -0.09085215628147125 0.7019690275192261
-0.15211504697799683 -0.03333967924118042 0.7085448503494263
-0.10243630409240723 -0.018290717154741287 1.0966641902923584
-0.11502178013324738 -0.07643736153841019 1.121565580368042
-0.006137892138212919 0.20583896338939667 1.2034391164779663
-0.11351488530635834 -0.018685905262827873 0.864711582660675
-0.21490496397018433 -0.10415860265493393 0.31499481201171875
-0.11872856318950653 -0.02122792974114418 1.2007452249526978
-0.09522859752178192 -0.03875705972313881 1.1296522617340088
-0.1973436176776886 -0.081728495657444 0.4551323354244232
-0.1446865350008011 0.016273904591798782 1.7153011560440063
-0.15150421857833862 -0.01917419210076332 1.7033190727233887
-0.11476656794548035 -0.05620087683200836 1.7123963832855225
-0.1337565928697586 -0.09192842245101929 1.6705756187438965
-0.14722734689712524 -0.08438517898321152 1.5709209442138672
-0.19029033184051514 -0.060788072645664215 0.34781673550605774
-0.08604176342487335 -0.11514133960008621 0.7417611479759216
-0.16951322555541992 -0.06994543224573135 0.2765520513057709
-0.18766753375530243 -0.09848669916391373 0.28222060203552246
-0.20513759553432465 -0.01899033971130848 0.21155133843421936
-0.0457913912832737 0.06464655697345734 0.9661999344825745
-0.09935341030359268 0.024867895990610123 1.7604091167449951
-0.11723806709051132 0.014209289103746414 1.7467222213745117
0.0639340952038765 0.12537351250648499 1.1878058910369873
-0.017734970897436142 0.1438143402338028 1.1852067708969116
0.03882874920964241 0.11583773046731949 1.24263334274292
-0.007861997932195663 -0.03246697038412094 1.246023178100586
0.05904649943113327 0.19158576428890228 1.2369933128356934
0.06571889668703079 0.13845114409923553 1.0751200914382935
0.12153902649879456 0.19577156007289886 1.1608515977859497
0.010181361809372902 0.11036847531795502 1.6503472328186035
0.09553263336420059 0.123455710709095 1.0846834182739258
0.03970988839864731 -0.21849599480628967 0.910466730594635
0.1072394996881485 -0.08234967291355133 0.2651557922363281
0.13857080042362213 -0.09144720435142517 0.20566125214099884
0.06943173706531525 -0.13009968400001526 0.705655574798584
0.03195781260728836 0.00725865364074707 1.07025146484375
0.09576273709535599 -0.048946358263492584 0.5762097239494324
0.09478531777858734 0.08636128902435303 1.3099780082702637
0.04297446832060814 -0.05531858652830124 1.4098758697509766
0.04073217511177063 0.09455975145101547 1.614439606666565
0.0299398023635149 0.028472982347011566 1.5828323364257812
0.036289237439632416 0.04419972747564316 1.5587191581726074
0.003017868846654892 -0.0015647001564502716 1.7947629690170288
0.044921088963747025 -0.07673481106758118 1.3462117910385132
0.16078418493270874 -0.017605891451239586 0.5101286172866821
0.12734255194664001 -0.005373876541852951 0.5058025121688843
0.15699800848960876 -0.010632097721099854 0.35588669776916504
0.17911899089813232 -0.013468880206346512 0.3274925947189331
0.057502344250679016 -0.042258020490407944 1.4986443519592285
0.04447891190648079 -0.05089925229549408 1.5084867477416992
0.058073945343494415 -0.04748194292187691 1.4922910928726196
0.13346120715141296 -0.05234721302986145 0.7742468118667603
0.15304966270923615 -0.09567321836948395 0.6443036198616028
0.11666005849838257 0.023724129423499107 0.9745975732803345
0.09592659771442413 -0.0784049928188324 1.095608115196228
0.08853962272405624 -0.13223481178283691 1.0855977535247803
0.09838803857564926 -0.1570257544517517 1.0352368354797363
0.0605781115591526 -0.0071129947900772095 1.6205101013183594
0.07264252752065659 -0.013072621077299118 1.5381629467010498
0.061697863042354584 -0.14522185921669006 1.2427914142608643
0.09427586942911148 0.057100795209407806 1.5267096757888794
0.08060220628976822 0.03036309778690338 1.5665425062179565
0.20798057317733765 -0.011061131954193115 0.09831169247627258
0.2220512181520462 -0.0532710999250412 0.08507934212684631
0.10343513637781143 0.035461049526929855 1.492955207824707
0.11142217367887497 0.04790252074599266 1.4603972434997559
0.12092313170433044 0.03537417948246002 1.4266557693481445
0.12380054593086243 0.048198401927948 1.4126135110855103
0.07149120420217514 -0.22725343704223633 1.1798069477081299
0.17775464057922363 -0.15768486261367798 0.890324592590332
0.08617614209651947 -0.20242561399936676 1.1908562183380127
0.08286039531230927 -0.22869065403938293 1.1799514293670654
0.20491857826709747 -0.11298131942749023 0.9110864996910095
0.20774787664413452 -0.0901569128036499 0.8914655447006226
0.2159716784954071 -0.05522686243057251 0.9019634127616882
-0.22180640697479248 -0.09029892832040787 1.1990324258804321
-0.18194769322872162 -0.08859169483184814 1.2635421752929688
-0.1899878829717636 -0.08806054294109344 1.2475709915161133
-0.18128399550914764 -0.07973404228687286 1.2533963918685913
-0.1770973801612854 -0.07846850156784058 1.2702784538269043
-0.19602754712104797 0.0024921130388975143 0.890852153301239
-0.1517449915409088 -0.04454301297664642 1.2871958017349243
-0.14585086703300476 -0.06374482810497284 1.0712008476257324
-0.1367858350276947 0.10483589768409729 1.5309537649154663
-0.1492185741662979 -0.08030492812395096 1.1939014196395874
-0.14713148772716522 -0.07644505053758621 1.1397833824157715
-0.10456319898366928 0.10568871349096298 1.426367998123169
-0.08894041180610657 0.09886772185564041 1.38837468624115
-0.13467441499233246 -0.1396157145500183 1.0371577739715576
-0.10059881955385208 -0.16557300090789795 0.9981039762496948
-0.13887548446655273 -0.026805076748132706 0.7940100431442261
-0.015478955581784248 0.18379773199558258 1.2708330154418945
-0.08031149208545685 0.12876059114933014 1.6247016191482544
-0.2016068547964096 -0.03454133868217468 0.07844245433807373
-0.2150331288576126 -0.020684970542788506 0.06993039697408676
-0.08207197487354279 0.02536137029528618 0.8706789612770081
0.0013935305178165436 0.0946957916021347 0.8557189702987671
-0.06735777109861374 -0.020369000732898712 0.8493564128875732
0.02640325203537941 0.08789632469415665 1.3327620029449463
-0.05411013215780258 -0.07932297885417938 0.7670232057571411
-0.08276940137147903 -0.11572442948818207 1.5861867666244507
-0.0069141685962677 0.014326056465506554 0.8750216960906982
-0.005806950852274895 -0.026527030393481255 0.8539931178092957
0.01800057664513588 -0.11900851130485535 0.8594509959220886
-0.0789375901222229 -0.16361156105995178 0.8591076731681824
-0.008129855617880821 -0.22486437857151031 0.8517562747001648
0.038134604692459106 -0.1109345406293869 0.8401051163673401
-0.008501086384057999 -0.16072668135166168 0.8633606433868408
-0.019141200929880142 0.028213288635015488 1.4768413305282593
0.029948832467198372 -0.03739012032747269 0.8517544269561768
0.03491207957267761 -0.050471559166908264 0.8360572457313538
-0.00674370676279068 0.035832516849040985 1.5551624298095703
-0.0018967241048812866 0.041437938809394836 1.5301885604858398
0.046486541628837585 -0.12491898238658905 0.8558292388916016
0.13237732648849487 0.05680987238883972 0.8680205345153809
0.10848215967416763 -0.0536225400865078 0.2648501992225647
0.056921448558568954 -0.03590045124292374 0.8256047964096069
0.09954319149255753 0.1174602210521698 1.2188018560409546
0.1369895190000534 -0.08523416519165039 0.39042261242866516
0.1337655782699585 -0.06451055407524109 0.3287968635559082
0.14999715983867645 -0.08669046312570572 0.3442641496658325
0.14878608286380768 -0.12506955862045288 0.28804445266723633
0.0814695656299591 0.07141894102096558 1.494073510169983
0.08313348889350891 -0.0171920545399189 0.860441267490387
0.11122210323810577 -0.03633737564086914 0.8416299819946289
0.06569697707891464 -0.07432899624109268 1.2458293437957764
0.1673589050769806 -0.09892773628234863 0.4388594329357147
0.06555138528347015 0.04691217467188835 1.601898431777954
0.05147036537528038 -0.029188405722379684 1.2942619323730469
0.18044796586036682 -0.08612720668315887 0.3458923399448395
0.12801533937454224 0.17398230731487274 1.218902349472046
0.07323117554187775 -0.05775884538888931 1.2186591625213623
0.1671421378850937 -0.02214668318629265 0.22025905549526215
0.1721610724925995 0.1623346209526062 1.1397212743759155
0.16471520066261292 -0.011718325316905975 0.25706756114959717
0.1926460862159729 -0.12545067071914673 0.26328620314598083
0.13178835809230804 0.06508128345012665 1.3313618898391724
0.06746737658977509 -0.029588665813207626 1.4562692642211914
0.07563284784555435 -0.027637477964162827 1.4235020875930786
0.06522626429796219 -0.027880098670721054 1.4560980796813965
0.08987769484519958 -0.027610301971435547 1.4030998945236206
0.07891693711280823 -0.1692027598619461 1.2303690910339355
0.06526920944452286 -0.17876416444778442 1.2247188091278076
0.16291296482086182 0.0829722061753273 1.2423362731933594
0.19136527180671692 0.11326577514410019 1.1836392879486084
0.18688225746154785 0.10714871436357498 1.149994134902954
0.08473283797502518 -0.03782476857304573 1.250970721244812
0.07697650790214539 -0.06861618906259537 1.2658599615097046
0.16038070619106293 -0.18269860744476318 0.8992370963096619
0.08362074196338654 -0.0783412754535675 1.2765123844146729
0.08179157972335815 -0.10460499674081802 1.175046443939209
0.10418759286403656 -0.04522283747792244 1.1545851230621338
0.09035352617502213 -0.0871269702911377 1.143221378326416
0.13820302486419678 -0.13631705939769745 1.1937485933303833
0.16669659316539764 -0.12829715013504028 1.0656538009643555
0.1374277025461197 -0.16830486059188843 1.118716835975647
-0.17247503995895386 -0.2092474102973938 1.1660761833190918
-0.1685301810503006 -0.1408524066209793 1.2114841938018799
-0.17523375153541565 -0.1267261505126953 1.2311737537384033
-0.16185495257377625 -0.19621704518795013 1.1669018268585205
-0.12233027070760727 0.11090375483036041 1.4553362131118774
-0.127884179353714 0.09922433644533157 1.4393062591552734
-0.12344363331794739 0.11510620266199112 1.3964893817901611
-0.16759996116161346 0.016778670251369476 1.6777677536010742
-0.1716923713684082 -0.01731182262301445 1.593927264213562
-0.24777641892433167 -0.0585501454770565 0.34645697474479675
-0.13363862037658691 -0.06703715026378632 0.8626970052719116
-0.13731151819229126 -0.09135255217552185 0.8427597284317017
-0.06086316332221031 0.18473485112190247 1.0107884407043457
-0.11803941428661346 -0.11521099507808685 1.2501578330993652
-0.12076210230588913 -0.028845956549048424 0.8385796546936035
-0.12235233932733536 -0.0010648742318153381 1.7261509895324707
-0.10823581367731094 -0.11947466433048248 1.129319667816162
-0.07661188393831253 -0.1816694438457489 1.1270002126693726
-0.013824214227497578 0.15923771262168884 1.114198923110962
0.05686880648136139 0.14048297703266144 1.1141211986541748
-0.07296280562877655 -0.024037623777985573 1.1448829174041748
-0.055790361016988754 -0.1143794059753418 0.8524656891822815
-0.06377346068620682 -0.1874089241027832 1.0592169761657715
-0.05166859179735184 0.01672697812318802 1.0550094842910767
-0.07391086220741272 -0.10389023274183273 1.684452772140503
0.037942804396152496 -0.10257475078105927 0.776395320892334
-0.01882883533835411 0.10751764476299286 1.3018290996551514
0.12052711844444275 -0.06845955550670624 0.061031825840473175
0.1632937639951706 0.1770351529121399 1.0784351825714111
0.11961808800697327 0.13103732466697693 1.1362783908843994
0.1146019995212555 0.20300695300102234 1.0867656469345093
0.1010470911860466 0.08602063357830048 0.8683867454528809
0.17942072451114655 0.014418140053749084 0.08804967999458313
0.12518438696861267 -0.038302138447761536 0.8689001798629761
0.17042605578899384 -0.08929353952407837 0.39722150564193726
0.07275977730751038 -0.04911879822611809 1.390228271484375
0.06885295361280441 -0.07203918695449829 1.314319372177124
0.20097599923610687 -0.0011708028614521027 0.892081081867218
0.19685040414333344 -0.051764972507953644 0.9566928148269653
0.1549626886844635 -0.15566135942935944 1.0834816694259644
-0.2591727077960968 -0.1140371561050415 1.16318678855896
-0.19426649808883667 -0.08314493298530579 0.9450105428695679
-0.21313589811325073 -0.07218295335769653 0.8937160968780518
-0.1267682909965515 0.09926930069923401 1.3916550874710083
-0.09834350645542145 0.1283523589372635 1.2570288181304932
-0.15004992485046387 0.028723131865262985 1.5144813060760498
-0.13871540129184723 -0.05554192513227463 1.0391422510147095
-0.14596764743328094 -0.08434845507144928 1.0778251886367798
-0.1492992341518402 0.032356951385736465 1.5152513980865479
-0.14987435936927795 0.019163496792316437 1.502004861831665
-0.14992442727088928 0.025128360837697983 1.5100620985031128
-0.15143123269081116 0.02286488562822342 1.5131464004516602
-0.15685942769050598 0.01219218224287033 1.5025755167007446
-0.24314650893211365 -0.11891178041696548 0.19608531892299652
-0.17168229818344116 -0.05290742591023445 1.6441760063171387
-0.046942733228206635 -0.015048909932374954 1.199637532234192
-0.20732751488685608 -0.1352485865354538 0.06896542757749557
-0.0648740604519844 -0.019080277532339096 1.2417572736740112
-0.0190591923892498 -0.02959461882710457 1.157092571258545
-0.03491251915693283 0.09282699972391129 0.929196834564209
-0.06341475993394852 -0.015224553644657135 1.743577003479004
-0.0768280103802681 -0.06674723327159882 0.7071309089660645
0.00640970841050148 0.1080176904797554 1.268998622894287
-0.004279386252164841 -0.19206920266151428 1.0087110996246338
-0.05788430571556091 -0.17857882380485535 1.2281208038330078
0.06027379631996155 0.12752124667167664 1.1563475131988525
0.12823975086212158 -0.056188177317380905 0.19466163218021393
0.052657246589660645 -0.1803865134716034 0.9972316026687622
0.10385968536138535 -0.17445650696754456 0.9862138628959656
0.05363033339381218 0.045056283473968506 1.5263328552246094
0.04090022295713425 -0.16531026363372803 1.1775321960449219
0.020608853548765182 -0.039583493024110794 1.1574957370758057
0.07911773025989532 -0.03284003585577011 1.0880060195922852
0.0774153620004654 0.05703526362776756 0.9642696380615234
0.16858449578285217 -0.09228096902370453 0.0312652662396431
0.14461880922317505 -0.08675709366798401 0.03103705868124962
0.1983228176832199 -0.06925172358751297 0.04070023074746132
0.21088628470897675 -0.10040226578712463 0.24937821924686432
