0.17653363943099976 -0.33070701360702515 0.9372398257255554
-0.2722803056240082 -0.020647283643484116 1.0552235841751099
-0.28004878759384155 -0.0760742798447609 1.0301491022109985
-0.2589045464992523 -0.059305883944034576 1.0330997705459595
-0.2928580045700073 -0.10466550290584564 1.0566432476043701
-0.2165389508008957 -0.026138899847865105 1.0598331689834595
-0.26681089401245117 -0.10755951702594757 1.0449316501617432
-0.16121791303157806 -0.05014298856258392 1.2165043354034424
-0.1758384257555008 -0.1014377698302269 1.177843451499939
-0.181106299161911 -0.09542069584131241 0.942021369934082
-0.18506932258605957 -0.014226604253053665 0.9152826070785522
-0.13375860452651978 0.0514228492975235 0.9126300811767578
-0.06954383105039597 0.07739784568548203 1.2992277145385742
-0.06931601464748383 0.08297006040811539 1.2455921173095703
-0.0653715580701828 0.10938557982444763 1.2277923822402954
-0.16106417775154114 -0.009760932996869087 0.9451013803482056
-0.1459999978542328 -0.07547420263290405 1.6837844848632812
-0.12353488802909851 -0.07011407613754272 1.3386043310165405
-0.14086438715457916 -0.05333302170038223 1.2731786966323853
-0.00979711301624775 0.11883698403835297 1.14023756980896
-0.03457512706518173 0.12948156893253326 1.0705738067626953
-0.201619490981102 -0.08170036226511002 0.07466565817594528
-0.21335266530513763 -0.15304243564605713 0.04556345194578171
-0.1242724135518074 -0.08646619319915771 1.6670589447021484
-0.1128074899315834 -0.06931418925523758 1.6171092987060547
-0.14001087844371796 -0.17029157280921936 1.20884108543396
-0.14011017978191376 -0.17970220744609833 1.1814336776733398
-0.14689630270004272 -0.19918391108512878 1.1715859174728394
-0.07137445360422134 0.029686128720641136 1.3913832902908325
-0.06130820885300636 0.024835985153913498 1.3880702257156372
-0.12225954979658127 -0.1765316128730774 1.2254363298416138
-0.134093776345253 -0.09666147828102112 1.1940569877624512
-0.17670872807502747 -0.11169552057981491 0.13966800272464752
-0.1842072606086731 -0.06645596772432327 0.1554848998785019
-0.024631863459944725 0.06275789439678192 1.2903136014938354
-0.12243180721998215 -0.10343945026397705 1.4266704320907593
-0.12255154550075531 -0.09610859304666519 1.406815528869629
-0.11137024313211441 -0.09554530680179596 1.3874719142913818
-0.12565529346466064 -0.09091245383024216 1.386603593826294
-0.128536656498909 -0.10485025495290756 1.3712916374206543
-0.12691399455070496 -0.12382365763187408 0.7667421102523804
-0.1406862884759903 -0.08590983599424362 0.7564393281936646
0.0027183126658201218 0.1667909026145935 1.159069299697876
0.002105134539306164 0.15802137553691864 1.2029472589492798
-0.11350862681865692 -0.16968898475170135 1.2236851453781128
-0.1186087355017662 -0.11560351401567459 0.8443554639816284
-0.17544278502464294 -0.01416970044374466 0.06627979874610901
-0.17944540083408356 -0.020292073488235474 0.021572206169366837
-0.13367770612239838 -0.1876203715801239 0.8391807079315186
-0.024550242349505424 0.11958184838294983 1.2857232093811035
-0.11728566884994507 -0.1829010397195816 1.5659550428390503
-0.08902188390493393 -0.0717017874121666 1.506191611289978
-0.05304626375436783 0.011287912726402283 1.5017552375793457
-0.052735816687345505 -0.027181588113307953 1.5421698093414307
-0.07465049624443054 -0.026544401422142982 1.518786907196045
-0.06492406874895096 0.0031118299812078476 1.4527671337127686
-0.009020138531923294 0.02946561947464943 1.5462725162506104
-0.08485504984855652 -0.10114867985248566 1.456059455871582
-0.09188682585954666 0.044856585562229156 0.9679596424102783
-0.08431324362754822 -0.0874771848320961 1.7579553127288818
-0.09187410026788712 -0.09295488893985748 1.750549077987671
-0.10045010596513748 -0.10091213881969452 1.7371209859848022
0.013293039053678513 -0.008622556924819946 1.447941780090332
-0.0368422195315361 0.039296165108680725 1.4338620901107788
-0.1128009557723999 -0.10288383811712265 0.0012580221518874168
0.009684285148978233 0.08257046341896057 1.3907252550125122
-0.08919122070074081 -0.1763737052679062 1.482723355293274
-0.10615945607423782 -0.0849250853061676 0.36030295491218567
-0.02391773834824562 -0.02049003355205059 1.493340015411377
-0.048952363431453705 -0.06306465715169907 1.4636344909667969
0.007370419800281525 0.0461619608104229 1.4775550365447998
-0.03325691446661949 0.04991739243268967 0.8530434370040894
-0.11262670904397964 -0.02214837446808815 0.3122326135635376
0.04288528114557266 0.14710715413093567 1.0759234428405762
-0.02950070984661579 0.02618236094713211 1.0405247211456299
-0.09712842851877213 -0.19530868530273438 1.216842770576477
-0.10235866159200668 -0.17805597186088562 1.1272168159484863
-0.09834665805101395 -0.05087835341691971 0.2898646593093872
-0.08066127449274063 -0.0642937496304512 0.22854065895080566
-0.11230291426181793 -0.01743338443338871 0.224406898021698
-0.02802879363298416 -0.040766023099422455 1.5022319555282593
-0.04790996387600899 -0.1229647547006607 0.6704990863800049
-0.07416027039289474 -0.05031520873308182 0.6334131360054016
0.05225977301597595 0.16542896628379822 1.1954973936080933
0.05267353355884552 0.17176613211631775 1.1223045587539673
-0.057046595960855484 -0.2146347165107727 1.1430474519729614
-0.09901891648769379 -0.06970761716365814 0.08753500133752823
0.04110076278448105 0.12731878459453583 1.104085922241211
0.032023414969444275 0.10021571815013885 1.133704423904419
0.03489941358566284 -0.039783820509910583 1.498647689819336
-0.06888119876384735 -0.16071972250938416 1.3557435274124146
0.0597502738237381 0.08878272771835327 1.3766988515853882
0.05593152716755867 -0.012155840173363686 1.4369020462036133
0.02574276179075241 -0.04880746081471443 1.492174744606018
0.08728956431150436 0.12078976631164551 1.1119029521942139
0.10148632526397705 0.1163148507475853 1.069063663482666
-0.014378195628523827 -0.17878761887550354 1.3492517471313477
0.01915328949689865 0.023783421143889427 1.0378509759902954
-0.034337401390075684 -0.2183866798877716 1.081008791923523
0.11795701086521149 0.0646183118224144 1.3919081687927246
0.02475557290017605 -0.07693377882242203 1.286667823791504
0.09116053581237793 0.023193035274744034 1.4775934219360352
0.056858982890844345 -0.01740298420190811 1.4724420309066772
0.030748264864087105 -0.07568153738975525 1.203491449356079
0.047712091356515884 0.09190338850021362 0.917758584022522
0.03294916823506355 -0.12548911571502686 1.688169002532959
0.0719187781214714 -0.1854100525379181 0.047480080276727676
0.07427319884300232 -0.2122049331665039 0.0172368586063385
0.06785324215888977 -0.10537669062614441 0.042683955281972885
-0.009316876530647278 -0.2222619354724884 1.5613402128219604
0.04203187674283981 -0.06312238425016403 0.6888051629066467
0.10874845087528229 -0.025261402130126953 1.4425125122070312
0.04905584454536438 -0.1350919008255005 1.4468727111816406
0.08151891082525253 -0.13172462582588196 1.3905906677246094
0.04270721599459648 -0.10189426690340042 1.3820315599441528
0.07476219534873962 -0.05644043907523155 0.3557438254356384
0.08336379379034042 -0.15622779726982117 0.20689043402671814
0.0964808538556099 -0.06511341780424118 0.15662480890750885
0.14474906027317047 0.11184503138065338 1.1146409511566162
0.14142678678035736 0.1377783566713333 1.091713786125183
0.07842817902565002 -0.14694344997406006 0.7136820554733276
0.08138087391853333 -0.05291686952114105 0.6300231218338013
0.02912749908864498 -0.16910745203495026 1.6669678688049316
0.06737000495195389 -0.17543356120586395 1.624985694885254
0.09029433876276016 -0.135234534740448 0.5243175625801086
0.05520127713680267 -0.11941783130168915 1.7003573179244995
0.07731340825557709 -0.12869785726070404 1.6514313220977783
0.05796373635530472 -0.1257333755493164 1.1274315118789673
0.06537216156721115 -0.10984194278717041 1.105818271636963
0.05466844141483307 -0.17813163995742798 1.078554630279541
0.04599654674530029 -0.2047567367553711 1.5586885213851929
0.06461097300052643 -0.13406658172607422 1.476603627204895
0.05485066398978233 -0.17448650300502777 1.46759831905365
0.18027672171592712 0.10051079839468002 1.0789216756820679
0.051949694752693176 -0.18679571151733398 1.266519546508789
0.04858579859137535 -0.2408861517906189 1.221852421760559
0.06375257670879364 -0.16252563893795013 1.2111647129058838
0.13750572502613068 -0.07032527774572372 0.09978026151657104
0.13151030242443085 -0.16551396250724792 0.13497653603553772
0.14635595679283142 -0.1589122712612152 0.11722114682197571
0.09214353561401367 -0.11361628770828247 1.677457571029663
0.057323794811964035 -0.20561769604682922 1.2687212228775024
0.1510232537984848 -0.05887066572904587 0.3946174383163452
0.1293450891971588 -0.10657870024442673 0.45404407382011414
0.15552017092704773 -0.08055280148983002 0.3376254141330719
0.09090521931648254 -0.15076598525047302 1.3784033060073853
0.07697661221027374 -0.14798733592033386 1.3784141540527344
0.09331556409597397 -0.13023370504379272 1.3409650325775146
0.12312968820333481 0.06047287583351135 0.9054118990898132
0.11294485628604889 -0.11737366020679474 0.8322705626487732
0.16369584202766418 -0.07801078259944916 0.20598144829273224
0.1743713617324829 -0.10826962441205978 0.21735170483589172
0.0999242514371872 -0.12770748138427734 1.3355984687805176
0.17362834513187408 0.01897048018872738 1.3058453798294067
0.18310831487178802 0.04815339297056198 1.2911897897720337
0.038706742227077484 -0.2945267856121063 1.1124221086502075
0.1594846546649933 -0.07261940836906433 0.9734045267105103
0.1610196828842163 -0.12887825071811676 0.9595061540603638
0.09051363915205002 -0.15718893706798553 1.1609892845153809
0.08449702709913254 -0.2645514905452728 1.0541057586669922
0.09576226770877838 -0.22794987261295319 1.0303469896316528
0.10513432323932648 -0.2915245592594147 1.1183123588562012
-0.25848883390426636 -0.028988897800445557 1.0296381711959839
-0.28410160541534424 -0.08107185363769531 0.9989859461784363
-0.22230230271816254 -0.10833626985549927 1.0991441011428833
-0.23972094058990479 -0.12197351455688477 1.139902114868164
-0.18634051084518433 -0.08190654963254929 1.1226495504379272
-0.17075008153915405 -0.04395212233066559 1.1516616344451904
-0.18658368289470673 -0.1539246290922165 0.8550692796707153
-0.06070701405405998 0.13111434876918793 1.1073321104049683
-0.06962927430868149 0.1074674129486084 1.1942083835601807
-0.1607246845960617 -0.24114227294921875 1.0734562873840332
-0.14529216289520264 -0.1585431694984436 0.9397004842758179
-0.1959162950515747 -0.07052017748355865 0.24237526953220367
-0.1747022420167923 -0.1190827339887619 0.2569212317466736
-0.13786724209785461 -0.015032683499157429 0.4641020596027374
-0.1446731984615326 -0.1935141533613205 0.8446059226989746
-0.12971538305282593 -0.07325389236211777 0.6054157614707947
-0.12784335017204285 -0.11323811858892441 0.6632312536239624
-0.11407068371772766 -0.05455178767442703 0.6709374785423279
-0.10086292028427124 -0.038025058805942535 1.0986897945404053
-0.11402300745248795 -0.10010141134262085 1.1131281852722168
0.015698455274105072 0.1398589313030243 1.2603439092636108
-0.10877969861030579 -0.02354438602924347 0.8394768834114075
-0.1309364140033722 -0.1289631575345993 0.27248960733413696
-0.10577528178691864 -0.06600939482450485 1.200997233390808
-0.09015390276908875 -0.06516987830400467 1.1314550638198853
-0.12323964387178421 -0.10775898396968842 0.41368281841278076
-0.09147348254919052 -0.09873504936695099 1.6813209056854248
-0.09996277093887329 -0.1303979754447937 1.6613291501998901
-0.06591247022151947 -0.16524726152420044 1.6650710105895996
-0.08692458271980286 -0.19383573532104492 1.6223236322402954
-0.10509316623210907 -0.18239527940750122 1.5306077003479004
-0.11164746433496475 -0.08756358921527863 0.30585458874702454
-0.05050685629248619 -0.13051186501979828 0.7243614196777344
-0.08436153829097748 -0.09522318840026855 0.23425549268722534
-0.10283796489238739 -0.12546509504318237 0.2398718297481537
-0.1165093332529068 -0.03547048568725586 0.1750776320695877
-0.049521926790475845 0.06497489660978317 0.9650810956954956
-0.04598018527030945 -0.0934106782078743 1.7208802700042725
-0.06337705254554749 -0.10145066678524017 1.70692777633667
0.07437162101268768 0.07808198034763336 1.236238956451416
-0.0007491428405046463 0.08634144067764282 1.2346017360687256
0.054620448499917984 0.062269363552331924 1.281653881072998
0.00319485180079937 -0.08369288593530655 1.2382959127426147
0.07870733737945557 0.12877969443798065 1.2872984409332275
0.07361534237861633 0.1026291698217392 1.1378108263015747
0.13334810733795166 0.147146075963974 1.2208881378173828
0.05667126178741455 0.00069439597427845 1.638526439666748
0.10274967551231384 0.08935101330280304 1.1428196430206299
0.03840818256139755 -0.21807712316513062 0.8981505036354065
0.05297385901212692 -0.11393725126981735 0.22386430203914642
0.07598627358675003 -0.13275283575057983 0.16329945623874664
0.03698255866765976 -0.13080836832523346 0.6720507740974426
0.03920314460992813 -0.01119118370115757 1.0739516019821167
0.058710791170597076 -0.04842115938663483 0.5369158983230591
0.11853618919849396 0.02776254341006279 1.3310803174972534
0.05221136659383774 -0.17064549028873444 1.377077579498291
0.0844150185585022 -0.011691967025399208 1.6009724140167236
0.06840263307094574 -0.07121490687131882 1.5552480220794678
0.0730946958065033 -0.0521857850253582 1.5395104885101318
0.05226306617259979 -0.11852255463600159 1.7449259757995605
0.03972074016928673 -0.1919933408498764 1.3176164627075195
0.12263025343418121 -0.027909960597753525 0.46047472953796387
0.0912400633096695 -0.015044281259179115 0.4556935429573059
0.11512423306703568 -0.036567218601703644 0.30335181951522827
0.13681456446647644 -0.04426727443933487 0.2734718918800354
0.08678694069385529 -0.13265150785446167 1.4677786827087402
0.0774381011724472 -0.1405664086341858 1.4741300344467163
0.08657258749008179 -0.13222192227840424 1.4598357677459717
0.10747267305850983 -0.054932016879320145 0.7373644113540649
0.11832308024168015 -0.09791766107082367 0.6057725548744202
0.12878891825675964 0.019210893660783768 0.9456260800361633
0.10065978765487671 -0.09813754260540009 1.0869872570037842
0.09090472757816315 -0.14886346459388733 1.068993091583252
0.10472734272480011 -0.1666945517063141 1.0124105215072632
0.09729893505573273 -0.10664217174053192 1.5839223861694336
0.1048194169998169 -0.10197952389717102 1.5079795122146606
0.043069422245025635 -0.22974979877471924 1.2045645713806152
0.12835264205932617 -0.035922057926654816 1.508614182472229
0.11483997106552124 -0.06778709590435028 1.539900302886963
0.16381363570690155 -0.09407995641231537 0.02350551262497902
0.17325639724731445 -0.1563263237476349 0.02189559116959572
0.13355761766433716 -0.049359265714883804 1.4736114740371704
0.13779103755950928 -0.03400212898850441 1.4518955945968628
0.14518971741199493 -0.034149594604969025 1.4225715398788452
0.14736488461494446 -0.0211951844394207 1.4134758710861206
0.038350217044353485 -0.2988038659095764 1.1305304765701294
0.16547492146492004 -0.15898218750953674 0.8394578695297241
0.05303259193897247 -0.2799137532711029 1.1436980962753296
0.04629708454012871 -0.3018377721309662 1.1312823295593262
0.1947418749332428 -0.11570939421653748 0.8533716797828674
0.19379867613315582 -0.09273869544267654 0.83353590965271
0.20543569326400757 -0.058131143450737 0.8429379463195801
-0.20665976405143738 -0.12202918529510498 1.1548967361450195
-0.1612541228532791 -0.14257195591926575 1.2263686656951904
-0.1694551408290863 -0.13896039128303528 1.2102322578430176
-0.1598331779241562 -0.13165265321731567 1.2197904586791992
-0.15479117631912231 -0.13642536103725433 1.2381038665771484
-0.19602832198143005 -0.001214468851685524 0.8507533669471741
-0.1264403611421585 -0.1084672212600708 1.266481876373291
-0.14736533164978027 -0.07789057493209839 1.0643906593322754
-0.09058421850204468 -1.5195459127426147e-05 1.5279425382614136
-0.13911309838294983 -0.11974755674600601 1.1781737804412842
-0.1448996663093567 -0.10410834848880768 1.1293771266937256
-0.06616908311843872 0.017937758937478065 1.4389152526855469
-0.05399792641401291 0.016586333513259888 1.4071625471115112
-0.13911250233650208 -0.1466394066810608 1.0161328315734863
-0.10502178966999054 -0.16773636639118195 0.9781399965286255
-0.11920226365327835 -0.040916379541158676 0.7601200938224792
0.01192130520939827 0.11144489794969559 1.3180047273635864
-0.029573194682598114 0.014577224850654602 1.6201374530792236
-0.10355493426322937 -0.03433695808053017 0.02259788103401661
-0.11837878823280334 -0.01828930899500847 0.009012408554553986
-0.08048143237829208 0.02304563857614994 0.8541803956031799
-0.0018742792308330536 0.09377060830593109 0.853118896484375
-0.058557234704494476 -0.026135988533496857 0.8311946392059326
0.0533272884786129 0.02221255749464035 1.3557331562042236
-0.02667708322405815 -0.09250445663928986 0.753987193107605
-0.04273293912410736 -0.20994016528129578 1.5383660793304443
-0.007885091006755829 0.0146930618211627 0.8697046041488647
-0.0058302562683820724 -0.027405744418501854 0.8464831113815308
0.006320456508547068 -0.1175113245844841 0.8485501408576965
-0.07743862271308899 -0.16376559436321259 0.853877067565918
-0.007239805534482002 -0.224504753947258 0.8466268181800842
0.01653255522251129 -0.11014780402183533 0.8158566355705261
-0.010249270126223564 -0.15979412198066711 0.857948899269104
0.012678151950240135 -0.06529884785413742 1.45912766456604
0.014608514495193958 -0.03694797679781914 0.8371034264564514
0.016785772517323494 -0.04952118545770645 0.8122195601463318
0.032396070659160614 -0.06415793299674988 1.5338109731674194
0.03470283001661301 -0.05350131168961525 1.5127674341201782
0.02760963700711727 -0.1238645538687706 0.8337794542312622
0.12213075906038284 0.05505570024251938 0.836323082447052
0.056646645069122314 -0.08485709875822067 0.21893642842769623
0.03429549187421799 -0.03533321991562843 0.7962332963943481
0.11229705810546875 0.06964333355426788 1.2583857774734497
0.08826814591884613 -0.10883251577615738 0.3458675444126129
0.0857323557138443 -0.09644855558872223 0.28345489501953125
0.10110042989253998 -0.11642039567232132 0.30043500661849976
0.0936678946018219 -0.1597321629524231 0.2483326941728592
0.11478084325790405 -0.017857354134321213 1.484694242477417
0.06875830888748169 -0.017129050567746162 0.8319240212440491
0.08981773257255554 -0.03658784553408623 0.8042991161346436
0.06802703440189362 -0.13396142423152924 1.2215428352355957
0.11970102041959763 -0.11928090453147888 0.39616313576698303
0.10459953546524048 -0.05183642357587814 1.5759766101837158
0.061303816735744476 -0.11208172142505646 1.272555947303772
0.1323889046907425 -0.11866627633571625 0.2999178469181061
0.14052250981330872 0.12201903760433197 1.2680258750915527
0.07725730538368225 -0.10718363523483276 1.2013719081878662
0.13240468502044678 -0.06113465130329132 0.1628945767879486
0.17844629287719727 0.12220025062561035 1.1944069862365723
0.12162128835916519 -0.0482269786298275 0.20231837034225464
0.13566388189792633 -0.1657576858997345 0.22193309664726257
0.15407437086105347 0.00979702454060316 1.347853422164917
0.09370653331279755 -0.13500447571277618 1.4126543998718262
0.09856615960597992 -0.132328599691391 1.384819746017456
0.09443259239196777 -0.1314927637577057 1.4148468971252441
0.10971879959106445 -0.11341424286365509 1.3633091449737549
0.05610044300556183 -0.2524324357509613 1.18625807762146
0.039507243782281876 -0.2621554136276245 1.181476354598999
0.17424355447292328 0.03969303518533707 1.2706557512283325
0.19963482022285461 0.07350992411375046 1.2251379489898682
0.19216296076774597 0.07532306760549545 1.1949925422668457
0.07654766738414764 -0.16858787834644318 1.2197134494781494
0.06094237416982651 -0.19983451068401337 1.2359099388122559
0.15081699192523956 -0.18387749791145325 0.8538338541984558
0.07101595401763916 -0.21490637958049774 1.2451884746551514
0.06125861406326294 -0.24787436425685883 1.1452397108078003
0.07099150121212006 -0.19419780373573303 1.1196136474609375
0.06149722635746002 -0.23195967078208923 1.1122350692749023
0.12093523144721985 -0.2652384042739868 1.1478524208068848
0.12578752636909485 -0.2579387128353119 1.0152380466461182
0.10842691361904144 -0.29849961400032043 1.0734663009643555
-0.16202931106090546 -0.23439964652061462 1.111020803451538
-0.1492641717195511 -0.18119323253631592 1.1698476076126099
-0.1572936773300171 -0.1726771593093872 1.1912930011749268
-0.14982958137989044 -0.22416667640209198 1.1174712181091309
-0.08116359263658524 0.017453966662287712 1.4667484760284424
-0.08707977086305618 0.006666861474514008 1.44986891746521
-0.08598238229751587 0.029454976320266724 1.415741205215454
-0.11448022723197937 -0.09409153461456299 1.6468219757080078
-0.12315510213375092 -0.11852262914180756 1.563132882118225
-0.16962678730487823 -0.0849628895521164 0.29940739274024963
-0.12452363222837448 -0.07506752759218216 0.8323553800582886
-0.1230616420507431 -0.1016426533460617 0.814042329788208
-0.04578438401222229 0.14480537176132202 1.0888445377349854
-0.10316435992717743 -0.16332677006721497 1.2185981273651123
-0.10871259868144989 -0.03852880001068115 0.809184193611145
-0.06888333708047867 -0.11521518230438232 1.6857794523239136
-0.10928470641374588 -0.14274786412715912 1.11041259765625
-0.07787075638771057 -0.2007368803024292 1.094813346862793
0.0016037411987781525 0.10991880297660828 1.1758373975753784
0.06835202127695084 0.09853878617286682 1.1712088584899902
-0.06679108738899231 -0.05591309815645218 1.1494065523147583
-0.04694382846355438 -0.11790476739406586 0.8446784615516663
-0.06704146414995193 -0.1996648609638214 1.0347411632537842
-0.05073090270161629 0.002901170402765274 1.0601786375045776
-0.029364850372076035 -0.2055748552083969 1.6303815841674805
0.010194864124059677 -0.10146413743495941 0.7469863891601562
0.005344966426491737 0.04026065394282341 1.3300853967666626
0.07320446521043777 -0.16177719831466675 -0.006982259452342987
0.165299192070961 0.1443968266248703 1.1459949016571045
0.12776808440685272 0.09356170147657394 1.1868857145309448
0.12295166403055191 0.16139154136180878 1.16055428981781
0.09323891997337341 0.0849003940820694 0.8478519916534424
0.13672974705696106 -0.0564044825732708 0.006712321192026138
0.108831986784935 -0.038911014795303345 0.8265889883041382
0.12408298999071121 -0.1137789711356163 0.3528793454170227
0.08467980474233627 -0.16920965909957886 1.3566956520080566
0.06248103082180023 -0.1973041146993637 1.2851624488830566
0.19131338596343994 -0.004136533476412296 0.8370802998542786
0.19914154708385468 -0.05599565431475639 0.9030255079269409
0.11734849214553833 -0.283623069524765 1.0345587730407715
-0.2504213750362396 -0.12471278011798859 1.1058261394500732
-0.19975827634334564 -0.08250685036182404 0.9071753025054932
-0.21074721217155457 -0.07661910355091095 0.8526643514633179
-0.08856380730867386 0.017049327492713928 1.4080803394317627
-0.07179827988147736 0.0594499409198761 1.2971233129501343
-0.10824423283338547 -0.06941594183444977 1.4967963695526123
-0.142757385969162 -0.06325510144233704 1.0306305885314941
-0.14888834953308105 -0.09844806045293808 1.0668506622314453
-0.10612062364816666 -0.06736915558576584 1.4972420930862427
-0.10827824473381042 -0.07839564979076385 1.4844748973846436
-0.10995388776063919 -0.07120823860168457 1.4942278861999512
-0.11033540219068527 -0.0765327513217926 1.4951837062835693
-0.11563073843717575 -0.08753137290477753 1.4823909997940063
-0.15131345391273499 -0.13096362352371216 0.14219067990779877
-0.12341515719890594 -0.15542066097259521 1.605599045753479
-0.03606060892343521 -0.059215810149908066 1.2025315761566162
-0.1059366762638092 -0.14539793133735657 0.04141979292035103
-0.05063199624419212 -0.0700363740324974 1.239478588104248
-0.013261846266686916 -0.06354239583015442 1.159629464149475
-0.038683418184518814 0.09275868535041809 0.9235007762908936
-0.0158535186201334 -0.13035421073436737 1.696677803993225
-0.03712144121527672 -0.08270139992237091 0.6870087385177612
0.026729222387075424 0.04617911949753761 1.3029197454452515
-0.003253091126680374 -0.19659198820590973 0.9889589548110962
-0.05569100379943848 -0.21980103850364685 1.1872152090072632
0.07197567820549011 0.08218628168106079 1.206264615058899
0.07449071109294891 -0.09038566052913666 0.14796222746372223
0.055739875882864 -0.18416781723499298 0.9790393114089966
0.11383722722530365 -0.17793241143226624 0.9541761875152588
0.0898040235042572 -0.04658304527401924 1.5090196132659912
0.03632085770368576 -0.19968494772911072 1.140230655670166
0.022230613976716995 -0.07264794409275055 1.1571671962738037
0.08610541373491287 -0.05325157567858696 1.0859556198120117
0.08738119155168533 0.0541955940425396 0.9503619074821472
0.13352394104003906 -0.22533009946346283 -0.022235624492168427
0.11001951992511749 -0.21355490386486053 -0.0325935073196888
0.16035892069339752 -0.19758453965187073 -0.023979883641004562
0.15406587719917297 -0.15229997038841248 0.20224794745445251
0.09203533828258514 -0.13233229517936707 1.4108610153198242
0.09560472518205643 -0.13354262709617615 1.4126720428466797
0.05853430926799774 -0.15582232177257538 1.289502739906311
0.060507453978061676 -0.18809577822685242 1.2749457359313965
0.20628730952739716 0.10390676558017731 1.140613317489624
0.20125161111354828 0.08862331509590149 1.098408818244934
0.21127785742282867 0.09317797422409058 1.097735047340393
0.1331498920917511 -0.2485334277153015 1.0195866823196411
0.11869731545448303 -0.3031125068664551 1.0159913301467896
0.1262056827545166 -0.3257688283920288 1.0086424350738525
-0.22451487183570862 -0.06051897630095482 1.0512094497680664
-0.16575339436531067 -0.20608660578727722 1.1536587476730347
-0.13840746879577637 -0.09041865170001984 0.33353978395462036
-0.01314210332930088 0.1305769979953766 1.0655968189239502
-0.11848469078540802 -0.15332064032554626 1.05726158618927
-0.03012176603078842 -0.04671459645032883 0.8369911909103394
-0.04637086018919945 -0.038939788937568665 0.7952850461006165
-0.04059717804193497 -0.0914454534649849 0.8021267056465149
-0.006600040476769209 -0.01738768257200718 1.1071211099624634
0.0211331769824028 -0.20721717178821564 0.8336401581764221
0.08978962898254395 0.013035277836024761 0.8482922315597534
0.14017975330352783 0.09554681926965714 1.1592036485671997
0.10449275374412537 -0.08495604991912842 1.5142282247543335
0.11548271775245667 -0.06260883808135986 1.4989827871322632
0.1849694848060608 -0.12440979480743408 0.9034197330474854
-0.16959327459335327 -0.2109752893447876 1.1222437620162964
-0.09969690442085266 -0.02849380113184452 1.5374186038970947
0.014122837223112583 0.13308337330818176 1.1084657907485962
-0.07668019831180573 -0.010714929550886154 1.5708158016204834
-0.05892963334918022 -0.04131053015589714 1.5523394346237183
-0.03297208249568939 -0.04991999641060829 1.5308431386947632
0.014961514621973038 -0.20754671096801758 1.0428552627563477
0.024992410093545914 -0.19851884245872498 1.2266733646392822
0.0981268584728241 -0.16240867972373962 0.12461337447166443
0.06307491660118103 -0.1802276372909546 1.1876654624938965
0.0769314095377922 -0.15516602993011475 1.1416693925857544
0.13302350044250488 -0.019680624827742577 1.4248042106628418
0.1256004124879837 0.008989423513412476 1.4447532892227173
0.08455550670623779 -0.11771032214164734 1.1564137935638428
0.11073264479637146 -0.07662330567836761 0.8133647441864014
0.030636020004749298 -0.24463680386543274 1.210407018661499
0.15747308731079102 0.0183414276689291 1.3677265644073486
-0.06647010147571564 0.04532802850008011 1.3678025007247925
-0.13297812640666962 -0.015098316594958305 0.3411896228790283
0.022477351129055023 -0.10238853842020035 0.7041459679603577
0.01783139258623123 -0.21143442392349243 1.613996982574463
-0.05784253776073456 0.13721872866153717 1.1465263366699219
-0.14840437471866608 -0.1364637017250061 1.2421772480010986
-0.09090863913297653 -0.0523960217833519 0.3734627962112427
0.052137263119220734 0.0400514155626297 1.4807575941085815
0.08740872889757156 -0.21484684944152832 -0.01785937510430813
0.09115901589393616 -0.1342034637928009 1.4576454162597656
0.0874955952167511 -0.131993368268013 1.4574941396713257
0.08328084647655487 -0.13654166460037231 1.3753714561462402
0.1480778604745865 -0.14272916316986084 0.16653424501419067
0.1565261334180832 -0.10880666226148605 0.14679303765296936
0.07113607227802277 -0.24287733435630798 1.1923389434814453
-0.1741168200969696 -0.1552468240261078 0.9119564890861511
-0.07408541440963745 0.030537132173776627 1.3899931907653809
-0.07354730367660522 0.028103288263082504 1.3925002813339233
-0.0782894492149353 0.026802975684404373 1.3910205364227295
-0.09785827994346619 -0.0784347727894783 0.17107677459716797
-0.028726868331432343 -0.09983426332473755 0.8407107591629028
0.07168585807085037 -0.1330394595861435 0.11390996724367142
0.08054933696985245 -0.2672349512577057 1.152245283126831
0.07948620617389679 -0.16869953274726868 1.5777878761291504
0.12199738621711731 -0.09928597509860992 0.764750599861145
0.1494186669588089 -0.01867903396487236 1.3975026607513428
0.1521875262260437 0.0011740336194634438 1.3734638690948486
0.07565969973802567 -0.09005019813776016 -0.0053441934287548065
-0.024179693311452866 -0.5708572864532471 1.0717637538909912
-0.020180651918053627 -0.5499415993690491 1.0442078113555908
-0.023406870663166046 -0.5563796162605286 1.047310709953308
-0.02874040976166725 -0.5482726693153381 1.0558290481567383
-0.0295915175229311 -0.5686801671981812 1.0579055547714233
-0.023544002324342728 -0.5661554932594299 1.070156455039978
0.03700999915599823 -0.4561116099357605 1.0347111225128174
0.024304326623678207 -0.457546591758728 1.032381534576416
0.027498679235577583 -0.4760805666446686 1.0414013862609863
0.021110262721776962 -0.48268184065818787 1.0459848642349243
0.07677402347326279 -0.3422936797142029 0.9580376148223877
0.07380899786949158 -0.3473154604434967 0.9751802086830139
0.0765100046992302 -0.35186585783958435 0.953935980796814
0.014725247398018837 -0.46961161494255066 1.0018713474273682
0.012180459685623646 -0.4825053811073303 1.018080234527588
0.02331702411174774 -0.5004913806915283 1.0655462741851807
0.022602396085858345 -0.4931098222732544 1.0562208890914917
0.060490064322948456 -0.3759193420410156 0.9428902864456177
0.05519513785839081 -0.38341960310935974 0.9618453979492188
0.06613962352275848 -0.40720808506011963 1.0263590812683105
0.06415650248527527 -0.403267502784729 1.0195938348770142
-0.0042257169261574745 -0.5530593395233154 1.0799990892410278
-0.011005750857293606 -0.539507269859314 1.038167953491211
0.07893204689025879 -0.35119372606277466 0.9418731927871704
0.07157941162586212 -0.3561345934867859 0.9385122656822205
0.1718023419380188 -0.21653154492378235 0.9999004602432251
0.1688733845949173 -0.22330287098884583 0.9996408224105835
0.16886502504348755 -0.2149055302143097 0.9791345000267029
0.0054665375500917435 -0.519371509552002 1.0627610683441162
0.0004852320998907089 -0.5371928811073303 1.067795991897583
0.07851430028676987 -0.35388612747192383 0.9377241134643555
0.07480227202177048 -0.3554677963256836 0.9282540082931519
-0.03795725479722023 -0.591145396232605 1.0248852968215942
-0.03841286152601242 -0.5986042618751526 1.03432035446167
0.18432798981666565 -0.20361515879631042 0.9916961193084717
0.1798170655965805 -0.21250024437904358 1.003928780555725
0.17827634513378143 -0.2037646770477295 0.9858181476593018
0.17288091778755188 -0.2107643187046051 0.9772730469703674
-0.04345162957906723 -0.6220940947532654 1.0875327587127686
-0.046373747289180756 -0.6377588510513306 1.1005315780639648
-0.049539078027009964 -0.6377490162849426 1.0814313888549805
0.036256369203329086 -0.43160951137542725 0.9736849069595337
0.03529869392514229 -0.44560515880584717 0.9778276681900024
0.02193155139684677 -0.4601692855358124 0.9700911045074463
0.03095739334821701 -0.4556911587715149 0.9715737104415894
0.17968928813934326 -0.2204282134771347 1.0075418949127197
0.1811213195323944 -0.20520609617233276 0.9798473715782166
0.02049042098224163 -0.5160276889801025 1.0776594877243042
0.028122518211603165 -0.5173333883285522 1.0803015232086182
0.012193528935313225 -0.5283386707305908 1.0805730819702148
0.008256901986896992 -0.5428828001022339 1.0859638452529907
0.05368979647755623 -0.40398335456848145 0.9586983323097229
0.0482187457382679 -0.41519492864608765 0.9562243819236755
0.04480988159775734 -0.41586989164352417 0.9642689228057861
0.1850942075252533 -0.20760908722877502 0.9845432043075562
0.18070559203624725 -0.2203606367111206 1.0053620338439941
0.17739608883857727 -0.2193448394536972 0.980945348739624
0.07904349267482758 -0.33659639954566956 0.8971890807151794
0.0761299878358841 -0.33947935700416565 0.8918417692184448
0.0795709490776062 -0.3453642427921295 0.9148749709129333
0.07919586449861526 -0.34748250246047974 0.9056306481361389
0.07551762461662292 -0.3420204222202301 0.9008035659790039
0.02449643984436989 -0.479845255613327 0.9671565890312195
0.021153630688786507 -0.46741360425949097 0.9626901149749756
0.01939253881573677 -0.4726288914680481 0.951846718788147
0.014083627611398697 -0.4730091392993927 0.9545086622238159
0.17700789868831635 -0.21927019953727722 0.9911472797393799
-0.04023659974336624 -0.6426590085029602 1.1051383018493652
-0.04729940742254257 -0.640589714050293 1.0886207818984985
-0.04355194419622421 -0.6528570652008057 1.1024044752120972
-0.05061596632003784 -0.6515955328941345 1.1081620454788208
-0.0492827333509922 -0.6342817544937134 1.074065923690796
0.09852564334869385 -0.34908327460289 0.9534940719604492
0.08342845737934113 -0.356008917093277 0.9425932168960571
-0.02660008706152439 -0.5804493427276611 1.0175697803497314
-0.04054254665970802 -0.5997940301895142 1.0292682647705078
-0.0405302457511425 -0.6124662160873413 1.0438178777694702
0.08071860671043396 -0.40814244747161865 1.021761417388916
0.07365754246711731 -0.42069345712661743 1.0262150764465332
0.070794016122818 -0.42946362495422363 1.0229864120483398
0.028627760708332062 -0.5147428512573242 1.080459713935852
0.025222864001989365 -0.5219737887382507 1.0731313228607178
0.007274560630321503 -0.5588880181312561 1.0861406326293945
0.030292078852653503 -0.49519526958465576 1.0620979070663452
-0.0038897343911230564 -0.5613803863525391 1.0293517112731934
-0.02236243709921837 -0.5843877792358398 1.0332505702972412
0.08235703408718109 -0.4064381718635559 1.0183320045471191
0.03097323700785637 -0.5062977075576782 1.0469985008239746
0.043355152010917664 -0.4924813210964203 1.0405998229980469
0.028678908944129944 -0.5171328186988831 1.05465567111969
-0.0338900126516819 -0.6212933659553528 1.0753041505813599
-0.029907986521720886 -0.6111336946487427 1.0647425651550293
0.0212666355073452 -0.49316132068634033 1.000524640083313
0.026119377464056015 -0.49748697876930237 1.0109163522720337
0.01748858019709587 -0.5115354061126709 1.0190268754959106
0.024046640843153 -0.5145793557167053 1.0267255306243896
0.05672154203057289 -0.45485568046569824 1.0258729457855225
0.03547193855047226 -0.48087000846862793 1.0379806756973267
0.005044866353273392 -0.556340217590332 1.0691052675247192
-0.0020962050184607506 -0.5758181810379028 1.0653293132781982
-0.008878590539097786 -0.5748704671859741 1.0726444721221924
0.004179438576102257 -0.5519567131996155 1.0438380241394043
0.0014195279218256474 -0.5590015649795532 1.040184497833252
0.04364908114075661 -0.4713346064090729 0.9968432784080505
0.033542707562446594 -0.48403400182724 1.0010504722595215
0.039913859218358994 -0.46117985248565674 0.9817479252815247
0.03348691761493683 -0.48055386543273926 0.9920896887779236
0.02545604482293129 -0.48842310905456543 1.002592921257019
0.05179375410079956 -0.4556034803390503 1.0051358938217163
0.059273041784763336 -0.44784945249557495 1.005551815032959
0.05539657920598984 -0.4368618130683899 0.9792518615722656
0.05675814673304558 -0.44546476006507874 0.9937560558319092
-0.006099557504057884 -0.5660574436187744 1.0448485612869263
-0.008229605853557587 -0.5803679823875427 1.0531706809997559
-0.008668554946780205 -0.5717595219612122 1.0486804246902466
0.0007923189550638199 -0.576600968837738 1.0504229068756104
0.10385182499885559 -0.3632354438304901 0.9668747186660767
-0.013519810512661934 -0.5317179560661316 1.0602139234542847
-0.02169041521847248 -0.5422840714454651 1.054005742073059
0.011808373034000397 -0.48588985204696655 1.0403838157653809
0.009303825907409191 -0.4859377145767212 1.0351743698120117
0.0017845053225755692 -0.4962705969810486 1.0450259447097778
0.00399743253365159 -0.4903762638568878 1.0351862907409668
0.004606619942933321 -0.4992642104625702 1.045304775238037
0.027603009715676308 -0.46416425704956055 1.0153844356536865
0.017534218728542328 -0.4677543640136719 1.0178744792938232
0.030007556080818176 -0.44920599460601807 1.0099653005599976
0.006164674647152424 -0.5001534223556519 1.0478687286376953
-0.023622050881385803 -0.5588563084602356 1.0277752876281738
-0.02905610017478466 -0.5700092315673828 1.0521047115325928
0.008509690873324871 -0.49000856280326843 1.014451265335083
-0.03759297728538513 -0.5841670632362366 1.0678635835647583
-0.042061977088451385 -0.6027263402938843 1.0670093297958374
-0.03521421551704407 -0.5906174182891846 1.0575395822525024
-0.0466400608420372 -0.6146584153175354 1.0799236297607422
0.09168744087219238 -0.3383867144584656 0.9737119674682617
0.09338927268981934 -0.37336522340774536 1.041323184967041
0.08663351088762283 -0.37527763843536377 1.0376653671264648
0.09283553063869476 -0.37838515639305115 1.0428295135498047
0.05591505020856857 -0.3969811797142029 0.9633288383483887
0.16302275657653809 -0.22007368505001068 0.9715069532394409
0.17068204283714294 -0.22991010546684265 1.012442708015442
0.16333161294460297 -0.23997913300991058 1.0079290866851807
0.1600492298603058 -0.23685622215270996 0.9988987445831299
0.045231349766254425 -0.46335524320602417 1.0421528816223145
-0.008293237537145615 -0.5649219155311584 1.0933862924575806
-0.047384899109601974 -0.6171506643295288 1.059455156326294
0.13521215319633484 -0.2644955515861511 0.9716957807540894
0.1294657588005066 -0.2875133752822876 0.967303991317749
0.053190041333436966 -0.44692179560661316 1.0459868907928467
0.04371520131826401 -0.4512040615081787 1.0410553216934204
0.030065413564443588 -0.48029834032058716 1.0493437051773071
-0.04807735234498978 -0.6253876090049744 1.0596017837524414
-0.04769366607069969 -0.6443667411804199 1.1095802783966064
-0.04779515787959099 -0.6521165370941162 1.1131879091262817
-0.05448930338025093 -0.6467817425727844 1.096040964126587
0.10601873695850372 -0.3225660026073456 0.971003532409668
0.10207202285528183 -0.3363497257232666 0.9744684100151062
0.03816021606326103 -0.48251593112945557 1.0472077131271362
0.08816437423229218 -0.33987483382225037 0.9570578932762146
-0.04063917696475983 -0.6065163612365723 1.0368807315826416
0.1211080551147461 -0.3445199728012085 1.052244782447815
0.12201665341854095 -0.34443193674087524 1.0485244989395142
0.11333656311035156 -0.35204869508743286 1.0408024787902832
0.11330130696296692 -0.35708415508270264 1.0513497591018677
0.10988663136959076 -0.36744987964630127 1.0542981624603271
0.10009472817182541 -0.353930801153183 1.0175361633300781
0.11054547131061554 -0.3530966639518738 1.0232216119766235
-0.0507839098572731 -0.6528387069702148 1.1153641939163208
0.008855806663632393 -0.5017619729042053 1.004272222518921
0.007415590807795525 -0.5127232670783997 1.010781168937683
0.004181334748864174 -0.5139992237091064 1.0131915807724
0.016322968527674675 -0.48821890354156494 0.9876519441604614
0.11949317902326584 -0.35640180110931396 1.047545075416565
0.11226304620504379 -0.37048935890197754 1.0518407821655273
0.07800932228565216 -0.3595386743545532 0.9296385049819946
0.11870716512203217 -0.3519827127456665 1.0485868453979492
0.11458902806043625 -0.35419297218322754 1.040056824684143
0.02576543390750885 -0.5044076442718506 1.0682876110076904
0.07371625304222107 -0.3648452162742615 0.906238853931427
0.07267867028713226 -0.3626851439476013 0.8975704312324524
0.06086945906281471 -0.36989840865135193 0.8926382064819336
0.060151807963848114 -0.3778653144836426 0.8997147083282471
0.1101960763335228 -0.34824633598327637 0.9735043048858643
0.10450873523950577 -0.3774662911891937 1.0390387773513794
0.018294118344783783 -0.5248797535896301 1.0591785907745361
0.009796281345188618 -0.5412369966506958 1.068631649017334
0.07592424005270004 -0.3723341226577759 0.9305582046508789
0.07742571830749512 -0.37790796160697937 0.930546224117279
0.07060420513153076 -0.37346428632736206 0.9173930287361145
0.014451451599597931 -0.540971040725708 1.061291217803955
0.01916585862636566 -0.5254898071289062 1.0493303537368774
0.015599993057549 -0.531324028968811 1.0350055694580078
0.022283390164375305 -0.5204311013221741 1.030954122543335
-0.02976355329155922 -0.5963166952133179 1.0484092235565186
-0.023838084191083908 -0.5982715487480164 1.0508791208267212
0.08725602924823761 -0.37182509899139404 0.9453653693199158
0.0967160016298294 -0.3772706389427185 0.9907451868057251
0.09099739789962769 -0.39490509033203125 0.9892484545707703
0.09109004586935043 -0.3868033289909363 0.9798247218132019
0.08053411543369293 -0.4047626852989197 0.9942908883094788
0.07362880557775497 -0.40941765904426575 0.9886234402656555
0.012453490868210793 -0.5472670793533325 1.0459160804748535
0.019551698118448257 -0.5372719764709473 1.0434918403625488
0.0064261071383953094 -0.5699277520179749 1.0595122575759888
0.04829108342528343 -0.4945240914821625 1.0290040969848633
0.03425082936882973 -0.5156465768814087 1.041426181793213
0.040510393679142 -0.497132271528244 1.0314726829528809
0.028921455144882202 -0.5051469802856445 1.027611494064331
0.03205044940114021 -0.5143532156944275 1.0342445373535156
0.03029172122478485 -0.5012490749359131 1.0357855558395386
0.030657421797513962 -0.5165117383003235 1.035544991493225
0.0048528811894357204 -0.5798676609992981 1.0587899684906006
0.0020129308104515076 -0.5731996297836304 1.0489104986190796
-0.017426174134016037 -0.5459603071212769 1.0645520687103271
-0.03073761984705925 -0.5607781410217285 1.0693323612213135
-0.022989816963672638 -0.5447322130203247 1.0497632026672363
-0.02497602440416813 -0.558268129825592 1.0594111680984497
0.08296491205692291 -0.36523282527923584 1.0247316360473633
0.0700855404138565 -0.3568718433380127 0.9645304679870605
0.06268924474716187 -0.3652822971343994 0.9610422253608704
0.08867701143026352 -0.34607499837875366 0.9988598823547363
-0.005118818953633308 -0.538874089717865 1.065246343612671
-0.006154822185635567 -0.5279203653335571 1.0415178537368774
0.05823485553264618 -0.39401113986968994 0.9885376691818237
0.052589792758226395 -0.397675096988678 0.9769760966300964
0.0749514102935791 -0.37948077917099 1.019866943359375
0.0719597265124321 -0.3911643624305725 1.0224535465240479
-0.0010523460805416107 -0.5203868746757507 1.0390690565109253
-0.008127260021865368 -0.5500347018241882 1.0703699588775635
0.050098732113838196 -0.41731026768684387 0.9897744059562683
0.03395836800336838 -0.43984413146972656 1.003039002418518
0.03571217879652977 -0.4353209137916565 0.9841808080673218
0.0022174508776515722 -0.5024315118789673 1.028037428855896
-0.03526517376303673 -0.6053569316864014 1.0803085565567017
-0.04564172774553299 -0.6273568868637085 1.08755362033844
-0.045142970979213715 -0.6284509897232056 1.072582721710205
0.0997018814086914 -0.3628025949001312 1.0520572662353516
0.08540154248476028 -0.38860034942626953 1.04659104347229
0.059785857796669006 -0.4220487177371979 1.0310513973236084
0.052385859191417694 -0.4393119812011719 1.039050579071045
0.03198353946208954 -0.4463856816291809 0.9811604022979736
0.08301053196191788 -0.4005076289176941 1.056891918182373
0.07762038707733154 -0.38505399227142334 1.0254048109054565
0.07631794363260269 -0.40073829889297485 1.0238769054412842
-0.015100805088877678 -0.5780946016311646 1.0940780639648438
-0.025420136749744415 -0.5980915427207947 1.0876916646957397
0.0011090426705777645 -0.5135045051574707 1.0149846076965332
0.12563961744308472 -0.2983021140098572 0.9939876794815063
0.12932761013507843 -0.28598999977111816 0.992203414440155
0.01595000922679901 -0.46416985988616943 0.9638088941574097
0.061101749539375305 -0.43814730644226074 1.0339715480804443
0.0600149929523468 -0.44916781783103943 1.046544075012207
-0.009845275431871414 -0.5750747919082642 1.0939289331436157
-0.008987445384263992 -0.5819212198257446 1.0922725200653076
-0.019635949283838272 -0.5898928046226501 1.0922166109085083
0.0642765536904335 -0.3818194270133972 0.9296573400497437
0.06030519679188728 -0.39287590980529785 0.9274531602859497
0.055131878703832626 -0.3914257884025574 0.9283567667007446
0.06034626066684723 -0.37554195523262024 0.9219416975975037
0.06379352509975433 -0.37619543075561523 0.9164322018623352
0.06021265313029289 -0.3759145140647888 0.9036621451377869
0.053157951682806015 -0.3974612057209015 0.9488551616668701
0.05816764757037163 -0.3740815818309784 0.8981008529663086
0.052422426640987396 -0.38038769364356995 0.8918925523757935
0.10799645632505417 -0.34412118792533875 0.996964693069458
0.10798560082912445 -0.34842580556869507 0.9976133108139038
0.0949430987238884 -0.34294402599334717 0.9690779447555542
0.09978523850440979 -0.3726150691509247 1.0438685417175293
0.09820487350225449 -0.3786013722419739 1.0407545566558838
0.028657499700784683 -0.516437828540802 1.0916972160339355
0.02730163000524044 -0.5115633606910706 1.0918211936950684
0.028527365997433662 -0.5056789517402649 1.0778647661209106
0.06201844662427902 -0.3822433352470398 0.8901017904281616
0.05704960227012634 -0.3682793080806732 0.8899103403091431
0.05715353786945343 -0.3965253531932831 0.9463694095611572
-0.010870980098843575 -0.5497781038284302 1.0228708982467651
-0.020522341132164 -0.5623884201049805 1.021578311920166
0.11533491313457489 -0.3589881956577301 1.0240232944488525
0.11412602663040161 -0.3323042392730713 0.9955159425735474
-0.0027116164565086365 -0.5736809968948364 1.0765146017074585
0.023843012750148773 -0.46593326330184937 0.966827929019928
0.16255642473697662 -0.2462620735168457 0.9724774360656738
0.15804387629032135 -0.2563377022743225 0.9736601114273071
0.030425917357206345 -0.47147709131240845 0.9749070405960083
0.11964193731546402 -0.32800182700157166 0.9831100702285767
0.1131884902715683 -0.3419516086578369 0.9880368709564209
0.11006063222885132 -0.33984917402267456 0.9765584468841553
0.01095733605325222 -0.5420875549316406 1.0425211191177368
0.09526611864566803 -0.35690999031066895 0.9493979215621948
0.04402821883559227 -0.45724162459373474 0.9866815209388733
0.11224929988384247 -0.3562335669994354 0.9901318550109863
0.10485696792602539 -0.3669580817222595 0.9914439916610718
0.10662305355072021 -0.366824746131897 1.0146247148513794
0.09918451309204102 -0.37811118364334106 1.0028724670410156
0.11224882304668427 -0.3490331768989563 0.977006733417511
0.10386304557323456 -0.34920191764831543 0.96546870470047
0.015555509366095066 -0.543431282043457 1.0496506690979004
0.019784439355134964 -0.469275563955307 1.0360805988311768
0.012998927384614944 -0.4675189256668091 1.0321025848388672
0.015498694963753223 -0.4772496223449707 1.0423462390899658
0.017032017931342125 -0.46577179431915283 1.0246970653533936
0.0057586124166846275 -0.4772147536277771 1.034002423286438
-0.0035116542130708694 -0.5201016664505005 1.0584940910339355
-0.007853603921830654 -0.5280327200889587 1.063889980316162
0.012678918428719044 -0.48493191599845886 1.0316550731658936
0.004133074078708887 -0.49364325404167175 1.0243457555770874
-0.0008687861263751984 -0.5109027624130249 1.0433135032653809
0.0020493706688284874 -0.5103649497032166 1.0525330305099487
0.061447691172361374 -0.38098064064979553 0.9844785928726196
0.08956275880336761 -0.365886926651001 1.037721037864685
0.10015162825584412 -0.35296621918678284 1.0236001014709473
0.10494142770767212 -0.3202259838581085 0.9908369779586792
0.10372993350028992 -0.3175176978111267 0.9818921685218811
0.013930212706327438 -0.48762619495391846 0.9949302077293396
0.024780282750725746 -0.4557238221168518 0.986534059047699
0.011904070153832436 -0.47285017371177673 0.9628548622131348
0.019448699429631233 -0.46668684482574463 0.9896827340126038
