0.305164098739624 -0.06343974173069 1.2447199821472168
0.296113520860672 -0.08726555109024048 1.1634726524353027
0.33167359232902527 -0.060559485107660294 1.020574688911438
0.36662086844444275 -0.06849788129329681 1.3781485557556152
0.35890331864356995 -0.10866012424230576 1.1153295040130615
0.4430292248725891 -0.0921713188290596 1.3119086027145386
0.4556038975715637 -0.128312349319458 0.7996734976768494
0.47058752179145813 -0.11827302724123001 0.7817966938018799
0.46362394094467163 -0.12507043778896332 0.6737232208251953
0.465196430683136 -0.12302803993225098 0.6043546199798584
0.45652228593826294 -0.14126312732696533 0.6170840859413147
0.4809074103832245 -0.10914003103971481 1.0641547441482544
0.4835750162601471 -0.11692789942026138 0.6811859607696533
0.4772782027721405 -0.11573774367570877 0.6081265807151794
0.4541756212711334 -0.1740051805973053 0.8474127054214478
0.45467135310173035 -0.18882374465465546 0.8964865207672119
0.43832093477249146 -0.20315366983413696 0.8655648827552795
0.4587065279483795 -0.1849212497472763 0.7998495101928711
0.5129829049110413 -0.12437810748815536 0.7032212018966675
0.5096886157989502 -0.13160042464733124 0.6240067481994629
0.5139443874359131 -0.13669389486312866 0.8619554042816162
0.47267985343933105 -0.1792096048593521 0.841529130935669
0.49315494298934937 -0.19311143457889557 0.7883260846138
0.46789950132369995 -0.19811291992664337 0.8459982872009277
0.4747846722602844 -0.22168263792991638 0.7754339575767517
0.4857364296913147 -0.16635696589946747 0.9142841696739197
0.5207926630973816 -0.1731765866279602 0.8616150617599487
0.5086425542831421 -0.1944873332977295 0.6301866173744202
0.48543888330459595 -0.2175687700510025 0.5747479200363159
0.5303787589073181 -0.1513054519891739 0.5868931412696838
0.5308262705802917 -0.1389559507369995 0.9339343309402466
0.5216025114059448 -0.1492069810628891 0.7287013530731201
0.4950445294380188 -0.2145351767539978 0.6944719552993774
0.5194111466407776 -0.20722705125808716 0.6890337467193604
0.5406494736671448 -0.1937098652124405 0.6113935708999634
0.5733379125595093 -0.14673231542110443 0.8667340874671936
0.5893857479095459 -0.14606869220733643 0.8317136168479919
0.5788838267326355 -0.16628938913345337 0.6651180982589722
0.5764819979667664 -0.18255461752414703 0.685512900352478
0.5385035276412964 -0.12419240921735764 1.0297974348068237
0.621392011642456 -0.11976933479309082 0.9823194146156311
0.5846163630485535 -0.13668878376483917 0.9746739268302917
0.606818675994873 -0.12040592730045319 1.1606820821762085
0.5974080562591553 -0.11661214381456375 1.1188044548034668
0.5921327471733093 -0.11269243061542511 1.1148767471313477
0.5931525826454163 -0.12938988208770752 1.1008615493774414
0.6190565824508667 -0.12045013904571533 1.0374841690063477
0.6098803281784058 -0.12768232822418213 1.0555548667907715
-0.482354998588562 0.07572995126247406 0.9175510406494141
-0.47880005836486816 0.05397532135248184 0.9307392835617065
-0.47931230068206787 0.03007999062538147 0.9006984829902649
-0.32702767848968506 -0.04829000309109688 0.6217287182807922
-0.32279470562934875 -0.0935126543045044 0.587167501449585
-0.3603041172027588 -0.04789552465081215 0.7992745637893677
-0.37068209052085876 -0.0531228743493557 0.7468849420547485
-0.37274134159088135 -0.0809699296951294 0.783331036567688
-0.3606678247451782 -0.0811745896935463 0.6785139441490173
-0.330269992351532 -0.06929431110620499 0.6872366070747375
-0.3232901096343994 -0.09377317130565643 0.6555373668670654
-0.39141330122947693 -0.01722250133752823 0.9349987506866455
-0.3764793276786804 -0.04527730494737625 0.8887411952018738
-0.3859083950519562 -0.028374899178743362 0.8893054723739624
-0.3407999873161316 -0.08668724447488785 0.7193321585655212
-0.33469581604003906 -0.06403584778308868 0.7232110500335693
-0.3589931130409241 -0.06878549605607986 0.8133492469787598
-0.3564951419830322 -0.05159826949238777 0.7716430425643921
-0.40793848037719727 0.05704518035054207 1.0771594047546387
-0.32875174283981323 0.021565761417150497 0.925402820110321
-0.2956388592720032 0.007499679923057556 0.9627219438552856
-0.29574599862098694 0.027522891759872437 0.9600658416748047
-0.3646872639656067 0.016364704817533493 1.1012861728668213
-0.31209254264831543 0.019987773150205612 1.04781973361969
-0.2994716763496399 0.031649257987737656 0.9919750690460205
-0.29753705859184265 0.012899015098810196 0.9830502271652222
-0.3182488977909088 0.03466524928808212 1.329872965812683
-0.281724214553833 0.036021213978528976 1.0783848762512207
-0.2702113687992096 0.011067308485507965 1.118761658668518
-0.25550979375839233 0.04030683636665344 1.0826385021209717
-0.2105652242898941 0.015844933688640594 1.1243788003921509
-0.22494834661483765 0.03378548473119736 1.0974771976470947
-0.17353469133377075 0.021084561944007874 1.183494210243225
0.3925337791442871 -0.0851600170135498 1.001725196838379
0.44623228907585144 -0.0979672521352768 1.4644824266433716
0.4612825810909271 -0.11267701536417007 0.9575222134590149
0.4109346270561218 -0.0832679271697998 0.9451414942741394
0.4295988976955414 -0.12041264772415161 0.9362022876739502
0.43604451417922974 -0.10791059583425522 0.9307063817977905
0.4390103816986084 -0.10190002620220184 1.1272268295288086
0.43896180391311646 -0.15444812178611755 0.9518383145332336
0.44850584864616394 -0.1622243970632553 0.8975425958633423
0.4359709918498993 -0.18576689064502716 0.9181349873542786
0.4386483132839203 -0.18117864429950714 0.8908624649047852
0.44920796155929565 -0.16566413640975952 0.8410728573799133
0.4647027552127838 -0.165041983127594 0.6506602764129639
0.4715510308742523 -0.1666381061077118 0.6023610830307007
0.4990958571434021 -0.1574202924966812 0.5892971754074097
0.4865046441555023 -0.13475385308265686 0.9345489144325256
0.4930698275566101 -0.13218729197978973 0.90088951587677
0.474348783493042 -0.18090258538722992 0.8693294525146484
0.4609258472919464 -0.18671011924743652 0.8322083950042725
0.4479314684867859 -0.20917358994483948 0.7984477877616882
0.48747992515563965 -0.13612000644207 1.229158639907837
0.5367668867111206 -0.1465293914079666 0.8647856712341309
0.556961178779602 -0.15828563272953033 0.818652868270874
0.5423794984817505 -0.15186332166194916 0.9854288697242737
0.5637155175209045 -0.20319056510925293 0.6460055708885193
0.5651606321334839 -0.1665598750114441 0.6174033880233765
0.5559547543525696 -0.17378203570842743 0.8444392681121826
0.5574264526367188 -0.18236485123634338 0.7942918539047241
0.6518111824989319 -0.14425109326839447 0.966666579246521
0.6031213998794556 -0.1775926798582077 0.9262998104095459
0.6187814474105835 -0.1583712249994278 0.9236097931861877
0.618398904800415 -0.17620135843753815 0.7952607870101929
0.6227836608886719 -0.16482944786548615 0.8095622658729553
-0.5021645426750183 0.10380897670984268 1.0791425704956055
-0.34506386518478394 -0.03381757810711861 0.5745679140090942
-0.4079356789588928 -0.015674810856580734 0.8765478730201721
-0.39207547903060913 -0.036496423184871674 0.8483757972717285
-0.4210156798362732 0.012317296117544174 0.9220337867736816
-0.4727225601673126 0.07642734795808792 1.360689640045166
-0.39901983737945557 0.04363840073347092 0.9589818716049194
-0.39206743240356445 0.026961464434862137 0.9298689365386963
-0.28939467668533325 -0.05308845639228821 0.6034855842590332
-0.2788378596305847 -0.027291662991046906 0.6013669371604919
-0.36287248134613037 -0.031125806272029877 0.8908841609954834
-0.3545016050338745 -0.047977786511182785 0.8380888104438782
-0.36155569553375244 -0.04860513657331467 0.8771287798881531
-0.4598352015018463 0.05712471902370453 1.3145558834075928
-0.42568522691726685 0.0723857656121254 1.2161133289337158
-0.22472786903381348 0.0449972003698349 1.1951422691345215
0.13155438005924225 -0.04055127501487732 1.219604253768921
0.11855500191450119 -0.05226466804742813 1.225856065750122
0.20660673081874847 -0.0700109601020813 1.1501576900482178
0.20162352919578552 -0.04890089109539986 1.0868903398513794
0.2864994704723358 -0.056778859347105026 1.183329701423645
0.3295723795890808 -0.07069956511259079 1.0629209280014038
0.31871962547302246 -0.08201642334461212 1.0483717918395996
0.4004162549972534 -0.11285194754600525 1.1757798194885254
0.4340631067752838 -0.12575754523277283 1.2482078075408936
0.4289647042751312 -0.1302964985370636 1.0704587697982788
0.44054239988327026 -0.20323015749454498 0.8047614097595215
0.471564382314682 -0.19310787320137024 0.7580366134643555
0.45712897181510925 -0.212532177567482 0.7137304544448853
0.4729400873184204 -0.19319923222064972 0.666923463344574
0.4963613450527191 -0.15252414345741272 0.9928823709487915
0.4952273964881897 -0.2270621657371521 0.5942303538322449
-0.4677366018295288 0.038884855806827545 0.9233182072639465
-0.3038679361343384 -0.0302312932908535 0.7514994144439697
-0.28679072856903076 -0.04043198376893997 0.7016851902008057
-0.4698036015033722 0.07243399322032928 1.4617952108383179
-0.28052300214767456 0.033532820641994476 1.066457986831665
-0.27090105414390564 0.03284421190619469 1.0376179218292236
-0.2530021071434021 0.02678053453564644 1.0627766847610474
-0.2091524600982666 0.03436198830604553 1.1039339303970337
-0.14090660214424133 0.010380053892731667 1.2506890296936035
-0.14566364884376526 -0.008336730301380157 1.2494640350341797
0.3616763949394226 -0.10438454151153564 1.3087066411972046
0.3972877562046051 -0.1123470738530159 1.3495649099349976
0.48619168996810913 -0.12652772665023804 0.9638959169387817
0.4749510884284973 -0.11809659749269485 0.894541323184967
0.4570296108722687 -0.1441447138786316 1.064470887184143
0.4504880905151367 -0.1675543487071991 0.7884659171104431
0.5184440612792969 -0.1466437727212906 1.0300477743148804
0.5179635286331177 -0.13762910664081573 1.1164542436599731
0.5820094347000122 -0.15803156793117523 0.9551671147346497
0.5758585929870605 -0.16608662903308868 0.8944647908210754
0.5673688054084778 -0.19560809433460236 0.7318757176399231
0.5125507116317749 -0.20554479956626892 0.6534062623977661
0.5779503583908081 -0.17351067066192627 0.7236928939819336
-0.3387150764465332 -0.055226605385541916 0.5931513905525208
-0.3019310235977173 -0.03358745202422142 0.5932764410972595
-0.3620365262031555 -0.047726646065711975 0.7937275171279907
-0.3284429907798767 -0.06176704913377762 0.6505234241485596
-0.2930203676223755 -0.05765225738286972 0.6442411541938782
-0.34192511439323425 -0.001046154648065567 0.9453937411308289
-0.23938101530075073 0.019306931644678116 1.2024167776107788
-0.23337936401367188 0.02365874871611595 1.1504385471343994
-0.23668938875198364 0.03288140892982483 1.12427818775177
-0.206943541765213 0.009380154311656952 1.1948896646499634
-0.18734049797058105 0.0022004693746566772 1.129228949546814
-0.18640679121017456 0.019647004082798958 1.1193897724151611
0.20491744577884674 -0.03261306509375572 1.0934836864471436
0.4270610809326172 -0.13431791961193085 1.001841425895691
0.4617499113082886 -0.16312627494335175 0.9909859895706177
0.4675440192222595 -0.17327862977981567 0.9479036927223206
0.5428183674812317 -0.19687683880329132 0.7815651297569275
-0.38826650381088257 -0.02001265063881874 0.6704371571540833
-0.3817266523838043 -0.04091447591781616 0.6360694169998169
-0.37743625044822693 -0.030804935842752457 0.6307526230812073
-0.3845923840999603 0.026232291013002396 0.8461613655090332
-0.3431810736656189 -0.033746425062417984 0.8116570711135864
-0.35090649127960205 -0.03967180475592613 0.8588705062866211
-0.1726016104221344 0.0039584338665008545 1.2119839191436768
-0.12806543707847595 -0.002866029739379883 1.3228540420532227
-0.11826252937316895 0.0021991748362779617 1.3125085830688477
0.12259554862976074 -0.06235891580581665 1.2353966236114502
0.243610680103302 -0.06821874529123306 1.5661835670471191
0.38992732763290405 -0.07108525931835175 1.493909478187561
0.4156609773635864 -0.0920187383890152 1.5045605897903442
0.45372623205184937 -0.09716330468654633 1.4315444231033325
0.5662757158279419 -0.11830846965312958 1.1857318878173828
0.5952060222625732 -0.1145687997341156 1.2172009944915771
0.5836008787155151 -0.09646405279636383 1.1645636558532715
0.5872646570205688 -0.1202692911028862 1.1451305150985718
0.6163269281387329 -0.10701677948236465 1.1627731323242188
-0.50492924451828 0.08936379849910736 1.0111746788024902
-0.4876854121685028 0.10078924894332886 0.9995359778404236
-0.5219927430152893 0.11730290949344635 1.2501332759857178
-0.5050933957099915 0.11961106210947037 1.2322616577148438
-0.335954487323761 -0.0022394880652427673 0.6194908618927002
-0.3245871365070343 -0.01457885280251503 0.5806233286857605
-0.35361939668655396 -0.063431516289711 0.6885043978691101
-0.3738807439804077 0.013486672192811966 0.8015275597572327
-0.40452754497528076 0.05179278925061226 1.0062122344970703
-0.46167442202568054 0.07646679878234863 1.5072962045669556
0.21271976828575134 -0.046979546546936035 1.1553459167480469
0.2751670777797699 -0.05460317060351372 1.3607354164123535
0.3485051095485687 -0.07593218982219696 1.0740234851837158
0.353056401014328 -0.06778934597969055 1.1989390850067139
0.3817940354347229 -0.0916300117969513 1.0023062229156494
0.3955601155757904 -0.10173013806343079 0.9516046643257141
0.3957822322845459 -0.12395207583904266 1.0260803699493408
0.46251267194747925 -0.14215482771396637 0.7491739988327026
0.46759676933288574 -0.152607724070549 0.7391185164451599
0.4828357994556427 -0.19949300587177277 0.7923634648323059
0.5649555921554565 -0.14425137639045715 0.9566555023193359
0.5663853287696838 -0.14304643869400024 0.7480370402336121
-0.35705888271331787 -0.04416007548570633 0.6025305986404419
-0.31960830092430115 -0.04043687880039215 0.5675660967826843
-0.25738227367401123 0.04717894271016121 1.0411796569824219
-0.21500521898269653 0.043426647782325745 1.123719573020935
-0.18209302425384521 0.011275798082351685 1.171025276184082
0.5451325178146362 -0.14077876508235931 0.7837166786193848
0.547028660774231 -0.1699073612689972 0.5614062547683716
0.5539098978042603 -0.17477403581142426 0.5741411447525024
-0.3840530514717102 -0.03998506814241409 0.8293629288673401
-0.32457125186920166 -0.029442250728607178 0.7622662782669067
-0.3140474557876587 -0.05009620264172554 0.7199492454528809
0.47425180673599243 -0.10382871329784393 1.356029748916626
0.5594307780265808 -0.1505071073770523 0.5690378546714783
0.6006262302398682 -0.1758834719657898 0.8583329916000366
-0.23211464285850525 0.04861573129892349 1.2699007987976074
0.5956373810768127 -0.15465067327022552 0.9457793235778809
-0.3202744722366333 -0.01019342616200447 0.8353655338287354
0.47122499346733093 -0.211970716714859 0.611819863319397
0.5816013813018799 -0.14852185547351837 0.936203122138977
-0.37851643562316895 -0.0637655258178711 0.7964226007461548
-0.34371525049209595 -0.07404395937919617 0.928665041923523
-0.35097992420196533 -0.07124561816453934 0.9390646815299988
-0.3356108069419861 -0.09803364425897598 0.9348318576812744
-0.34787142276763916 -0.09464217722415924 0.9431160092353821
-0.31867358088493347 -0.06258758157491684 1.000201940536499
-0.32634788751602173 -0.07196705043315887 0.9773494005203247
-0.3123319745063782 -0.05817722529172897 0.9502624273300171
-0.3068920969963074 -0.0365767739713192 0.9869605898857117
-0.32001444697380066 -0.09246722608804703 0.9778885841369629
-0.32608649134635925 -0.11668924242258072 0.9628404974937439
-0.2991181015968323 -0.046193841844797134 1.0618473291397095
-0.30714917182922363 -0.11883504688739777 0.9664775729179382
-0.3151995539665222 -0.082942895591259 0.9727025628089905
-0.3105614483356476 -0.11034170538187027 1.0031397342681885
-0.304823100566864 -0.08420966565608978 1.0030947923660278
-0.28441059589385986 -0.030638262629508972 1.038549780845642
-0.29812273383140564 -0.07463641464710236 1.0024948120117188
-0.2988022565841675 -0.08814600110054016 1.0258266925811768
-0.29974910616874695 -0.06985588371753693 1.0569196939468384
-0.30953747034072876 -0.038347721099853516 1.0955517292022705
-0.3130255937576294 -0.08855567127466202 1.080784559249878
-0.2668556571006775 0.004631772171705961 1.1304230690002441
-0.2726312577724457 -0.00016777403652668 1.0889499187469482
-0.3009181618690491 -0.04687895625829697 1.1277730464935303
-0.24168062210083008 0.0024859667755663395 1.0811022520065308
-0.2580919563770294 -0.04487539827823639 1.1812509298324585
-0.2848705053329468 -0.09711382538080215 1.130337119102478
-0.23922917246818542 0.013555602170526981 1.1251552104949951
-0.21157604455947876 -0.0005335621535778046 1.1371784210205078
-0.21548214554786682 -0.004988735541701317 1.1922271251678467
-0.19176942110061646 -0.005614325404167175 1.1945439577102661
-0.20033016800880432 -0.07507945597171783 1.253105640411377
-0.24639981985092163 -0.09182973206043243 1.1801174879074097
-0.185324028134346 -0.012388091534376144 1.2373006343841553
-0.21757815778255463 -0.0380830243229866 1.235026478767395
-0.17867989838123322 -0.02305379882454872 1.2739157676696777
-0.16671860218048096 -0.031766314059495926 1.3097012042999268
-0.1660887449979782 -0.07944690436124802 1.3082962036132812
-0.2000865936279297 -0.10971114784479141 1.2070424556732178
-0.1539563238620758 -0.019649304449558258 1.690205693244934
-0.10453949868679047 0.05298572778701782 1.3954951763153076
-0.12870769202709198 0.06471946835517883 0.8505510091781616
-0.1739269495010376 0.014134646393358707 0.8518798351287842
-0.14795339107513428 -0.07997408509254456 0.8576147556304932
-0.1907082200050354 -0.1075328141450882 0.8469241857528687
-0.13834214210510254 0.001720469444990158 1.6057078838348389
-0.1612655222415924 -0.030917447060346603 1.7104445695877075
-0.12999217212200165 -0.02232211083173752 1.6643496751785278
-0.11177831143140793 0.011189557611942291 1.6237237453460693
-0.12273474782705307 -0.005180928856134415 1.5707074403762817
-0.11668021976947784 -0.007874950766563416 1.0298266410827637
-0.1572040617465973 -0.05110864341259003 0.9878783822059631
-0.164926677942276 -0.11742202937602997 0.9715309739112854
-0.12567138671875 -0.019476905465126038 1.5065200328826904
-0.23121149837970734 -0.07835565507411957 0.029380397871136665
-0.24211527407169342 -0.14842858910560608 0.010430376045405865
-0.24764983355998993 -0.16780291497707367 0.03431525081396103
-0.1367107480764389 -0.07451821863651276 1.3592652082443237
-0.12564125657081604 -0.02932264283299446 1.3165209293365479
-0.1222306489944458 -0.052220892161130905 1.2936806678771973
-0.1463513970375061 -0.08550728112459183 1.3452534675598145
-0.1314680278301239 -0.12169355899095535 1.2960517406463623
-0.18275578320026398 -0.04730020835995674 0.4522436261177063
-0.18063023686408997 -0.07450889050960541 0.3663415014743805
-0.1925671100616455 -0.021674776449799538 0.30778899788856506
-0.19913576543331146 -0.05017664656043053 0.33331772685050964
-0.1243012323975563 -0.011460553854703903 1.6348774433135986
-0.12585042417049408 -0.08838321268558502 1.2577370405197144
-0.1324652135372162 -0.09109283983707428 1.218625545501709
-0.1343274861574173 -0.118415966629982 1.2431859970092773
-0.15831705927848816 -0.1320124864578247 1.238619327545166
-0.18470895290374756 -0.01209514494985342 0.23353402316570282
-0.127853125333786 -0.08096945285797119 1.4946250915527344
-0.11149997264146805 -0.013611506670713425 1.5070805549621582
-0.12090210616588593 -0.04379221051931381 1.496968388557434
-0.15708984434604645 -0.0845828428864479 0.5513004660606384
-0.07791784405708313 -0.03435882180929184 1.7204824686050415
-0.12312681972980499 -0.13072776794433594 1.1828190088272095
-0.11402739584445953 -0.0545266754925251 1.1460950374603271
-0.11462679505348206 -0.1367451399564743 0.7277440428733826
-0.07734514772891998 0.01593458652496338 1.6818921566009521
-0.11559563130140305 -0.10395295917987823 1.3656895160675049
-0.09590381383895874 -0.12320834398269653 0.8384796380996704
-0.1346694827079773 -0.13295337557792664 0.8580693602561951
-0.12303972244262695 -0.1962292492389679 0.9025498628616333
-0.10302218794822693 -0.2133673131465912 0.8430789709091187
-0.22041365504264832 -0.2002936154603958 0.059847377240657806
-0.043358057737350464 0.0311192125082016 1.682308316230774
-0.07177156955003738 -0.023874498903751373 1.7059534788131714
-0.12895794212818146 -0.05610354617238045 1.4132250547409058
-0.11137328296899796 -0.08141832053661346 1.453389048576355
-0.1593484729528427 -0.0017482880502939224 0.3028586208820343
-0.18093881011009216 -0.02127828076481819 0.18867585062980652
-0.21289406716823578 -0.18971410393714905 0.09904692322015762
-0.18166549503803253 -0.002135191112756729 0.030910834670066833
-0.09736962616443634 -0.04912935197353363 1.3005677461624146
-0.1369388848543167 -0.11053750663995743 0.5254384279251099
-0.17423005402088165 -0.1714266985654831 -0.004938998259603977
-0.2142907977104187 -0.1749344766139984 -0.008615391328930855
-0.07765847444534302 -0.023758213967084885 1.5203471183776855
-0.08671660721302032 -0.049618035554885864 1.4766807556152344
-0.032733794301748276 -0.21457087993621826 0.9006061553955078
-0.07884921878576279 0.08787238597869873 0.85499107837677
-0.18206296861171722 -0.1278628557920456 0.24293965101242065
-0.15733486413955688 -0.11812923848628998 0.1655876189470291
-0.16061998903751373 -0.007830087095499039 0.07940281182527542
-0.08534280955791473 -0.044741712510585785 1.2693878412246704
-0.09593618661165237 -0.05937099829316139 1.2288670539855957
-0.06954360008239746 -0.16406002640724182 1.2740192413330078
-0.11443540453910828 -0.03944020718336105 0.6469309329986572
-0.09675532579421997 -0.13896086812019348 0.7225658893585205
-0.062129296362400055 -0.12475953996181488 0.8032642602920532
-0.1463194638490677 -0.12231671065092087 0.1313437819480896
-0.1637418121099472 -0.18686479330062866 0.06335987150669098
-0.10679459571838379 -0.12981535494327545 1.44332754611969
-0.08027467876672745 -0.0439026914536953 1.3342679738998413
-0.05488162115216255 -0.04236970841884613 1.277466893196106
-0.10662782192230225 -0.11145000904798508 0.5486879348754883
-0.08733653277158737 -0.09239593148231506 0.5487412810325623
-0.12223818153142929 0.003891964443027973 0.49127665162086487
-0.08403331786394119 -0.11649280786514282 1.4152281284332275
-0.05702444165945053 -0.08032822608947754 1.4022129774093628
-0.08519072830677032 -0.03283533826470375 1.3753595352172852
-0.09704694151878357 -0.03355247899889946 0.498169481754303
-0.0299941785633564 -0.013833880424499512 1.7137095928192139
-0.10108330845832825 -0.17648930847644806 1.5644099712371826
-0.040314558893442154 -0.1888672411441803 0.9705756902694702
-0.06144404783844948 -0.09015022218227386 1.4152500629425049
-0.04410547763109207 -0.1184086874127388 1.398005723953247
-0.06372563540935516 -0.10216594487428665 1.3908774852752686
-0.05226904898881912 -0.17269372940063477 1.5010554790496826
-0.08772031962871552 -0.15925520658493042 1.45283842086792
-0.035111941397190094 -0.06323584169149399 1.4289214611053467
-0.07410206645727158 -0.05468403175473213 0.621322512626648
0.008150245994329453 -0.05845848470926285 1.725392460823059
0.0003069452941417694 0.04353449493646622 1.6574804782867432
-0.044684987515211105 -0.18640680611133575 1.450399398803711
-0.057505786418914795 -0.1599203646183014 1.409350037574768
-0.0216177050024271 -0.0708480179309845 1.4034265279769897
-0.03316715732216835 -0.16726775467395782 1.4113270044326782
0.006955176591873169 -0.05318427085876465 1.3846118450164795
-0.017401432618498802 -0.05550709739327431 1.2682867050170898
0.013156097382307053 -0.006462298333644867 1.7107770442962646
-0.0024168584495782852 -0.07364349067211151 1.429940104484558
-0.010767035186290741 -0.11566755920648575 1.4127315282821655
0.04293612018227577 0.006731899455189705 1.6778721809387207
0.018937386572360992 -0.04847594350576401 1.7104203701019287
-0.010120730847120285 -0.10859543830156326 1.402714729309082
0.02555227279663086 -0.13715830445289612 1.4339640140533447
-0.0003987811505794525 -0.09014035761356354 1.4087550640106201
0.05532285198569298 -0.09198456257581711 0.5719254016876221
0.03097286820411682 -0.05250953137874603 1.4648653268814087
0.08918467909097672 -0.11571639776229858 0.4876300096511841
-0.007723533548414707 -0.20038321614265442 1.2328412532806396
0.04820244759321213 -0.08736973255872726 1.2409396171569824
0.04473661631345749 -0.0922812670469284 1.1356971263885498
0.11603383719921112 -0.20269417762756348 0.058994755148887634
0.13610245287418365 -0.20335674285888672 0.03298419713973999
0.10561815649271011 -0.041642822325229645 0.03660345450043678
0.005452435463666916 -0.18410202860832214 1.2228217124938965
-0.0030370261520147324 -0.20795869827270508 1.1456242799758911
0.05343181639909744 -0.14090757071971893 0.710364580154419
0.10077249258756638 -0.11119861900806427 0.009132873266935349
0.06326885521411896 -0.05460772663354874 1.6707298755645752
0.012299895286560059 -0.18786495923995972 1.5686066150665283
0.01016094908118248 -0.16719897091388702 1.491434097290039
0.007681343704462051 -0.16584932804107666 1.4487344026565552
0.08950012922286987 -0.16123512387275696 0.859271228313446
0.11152003705501556 -0.06703727692365646 1.6972107887268066
0.037720318883657455 -0.05508562549948692 1.5099238157272339
0.03398671746253967 -0.07497157156467438 1.4810643196105957
0.11021461337804794 -0.039904311299324036 0.29899898171424866
0.1034911647439003 -0.03362562879920006 0.23613321781158447
0.12044959515333176 -0.03776306286454201 0.014050941914319992
0.05820015072822571 -0.07316215336322784 1.749145269393921
0.06244248151779175 -0.07840365171432495 1.3775345087051392
0.09169416129589081 -0.21923089027404785 0.8486765623092651
0.07682894915342331 -0.13211488723754883 0.8434057235717773
0.12100332230329514 -0.19550096988677979 0.8444397449493408
0.08132082223892212 -0.03964126482605934 0.7324458956718445
0.1589844822883606 -0.20415227115154266 0.047870535403490067
0.07637932151556015 -0.06441225111484528 1.6811825037002563
0.03038633242249489 -0.1785016506910324 1.1190240383148193
0.030693016946315765 -0.18210989236831665 1.2381348609924316
0.029600217938423157 -0.19982141256332397 1.2349450588226318
0.12603260576725006 -0.1918279081583023 0.9122692942619324
0.05542004108428955 -0.12623120844364166 1.5143485069274902
0.06636836379766464 -0.05403495207428932 1.5235291719436646
0.062228139489889145 -0.07813168317079544 1.5053207874298096
0.06612654030323029 -0.092599056661129 1.5006988048553467
0.06932009756565094 -0.10593054443597794 1.4769845008850098
0.11688246577978134 -0.06670926511287689 0.6288355588912964
0.11398206651210785 -0.13262300193309784 0.6471909284591675
0.06704595685005188 -0.12644274532794952 1.3578261137008667
0.07542695105075836 -0.08449317514896393 1.3026773929595947
0.046008821576833725 -0.08209444582462311 1.3246092796325684
0.050650689750909805 -0.09633657336235046 1.2980756759643555
0.11032053828239441 -0.11954993009567261 0.8095569610595703
0.1652841567993164 -0.06917564570903778 0.016318731009960175
0.1767452210187912 -0.09864914417266846 0.015443991869688034
0.07952244579792023 -0.06998208910226822 1.6370049715042114
0.08441989123821259 -0.08929824084043503 1.352070927619934
0.17207098007202148 -0.08972203731536865 0.2839086651802063
0.10556846112012863 -0.053161296993494034 1.616246223449707
0.08436334133148193 -0.027686189860105515 1.6240290403366089
0.09203656017780304 -0.05319194123148918 1.5859005451202393
0.17935021221637726 -0.09375692903995514 0.0979914665222168
0.1849844753742218 -0.16908755898475647 0.03830988332629204
0.16892406344413757 -0.1917913854122162 0.07646922022104263
0.15810787677764893 -0.019777581095695496 0.9495052099227905
0.1423332691192627 -0.018153581768274307 0.8471394777297974
0.10805238783359528 -0.08091510832309723 1.6905525922775269
0.16278725862503052 0.034634627401828766 0.8535711169242859
0.180800199508667 -0.0028642695397138596 0.9135295748710632
0.09623865783214569 -0.09936659783124924 1.2943778038024902
0.10042330622673035 -0.1255570948123932 1.2784037590026855
0.07475973665714264 -0.13099569082260132 1.3294562101364136
0.09999173879623413 -0.11435944586992264 1.2390488386154175
0.08886688947677612 -0.11462660133838654 1.219596266746521
0.08892449736595154 -0.19269339740276337 1.2078908681869507
0.10803112387657166 -0.15168976783752441 1.2378911972045898
0.1195799857378006 -0.13289999961853027 1.1700092554092407
0.12129470705986023 -0.13972094655036926 1.0927520990371704
0.1465429961681366 -0.15115508437156677 1.1028075218200684
0.14337065815925598 -0.1634691059589386 1.1559460163116455
0.1182822734117508 -0.19523094594478607 1.178480625152588
0.144830122590065 -0.17694948613643646 1.052046298980713
0.16998472809791565 -0.2294587343931198 1.1036900281906128
0.17345301806926727 -0.2112952172756195 1.083483099937439
0.16135641932487488 -0.18836256861686707 1.0584990978240967
0.12714558839797974 -0.2663879990577698 1.0939007997512817
0.14594127237796783 -0.23773562908172607 1.0610730648040771
0.1441098153591156 -0.22019468247890472 1.0454858541488647
0.175749272108078 -0.29394349455833435 0.9527156352996826
0.12665563821792603 -0.2527608275413513 1.0618847608566284
0.12861624360084534 -0.271833598613739 1.0347657203674316
0.1625312864780426 -0.24845516681671143 0.9789479970932007
0.12919700145721436 -0.25890910625457764 1.0101677179336548
0.12485203891992569 -0.2847590744495392 1.012717366218567
0.14514517784118652 -0.28033220767974854 0.9853421449661255
0.15963312983512878 -0.2826075851917267 0.981843113899231
0.12234479188919067 -0.3013845384120941 0.9905952215194702
0.1406526416540146 -0.29681944847106934 0.9821333289146423
0.13120971620082855 -0.2972705364227295 0.9900771379470825
0.17007873952388763 -0.29777342081069946 0.9340276122093201
0.1362401694059372 -0.3114023804664612 0.9776021242141724
0.15475457906723022 -0.28290069103240967 0.948992908000946
0.15825843811035156 -0.3134133815765381 0.946793258190155
0.17089390754699707 -0.30757302045822144 0.9496957659721375
-0.2829495668411255 -0.02690693736076355 1.061767578125
-0.2859332859516144 -0.08044082671403885 1.0415817499160767
-0.2669961750507355 -0.0644349455833435 1.0424150228500366
-0.2951376736164093 -0.10369841754436493 1.0715864896774292
-0.22979538142681122 -0.030747294425964355 1.0629549026489258
-0.2705310583114624 -0.10746274888515472 1.0573999881744385
-0.17543837428092957 -0.033761896193027496 1.2144805192947388
-0.18529222905635834 -0.08470675349235535 1.1815736293792725
-0.17739152908325195 -0.09489090740680695 0.946274995803833
-0.1811947077512741 -0.014035514555871487 0.9229313135147095
-0.13045349717140198 0.051315173506736755 0.9156048893928528
-0.0713881254196167 0.09925868362188339 1.2778407335281372
-0.06898114085197449 0.10195209085941315 1.222427248954773
-0.06370089203119278 0.1274467408657074 1.2032291889190674
-0.15666449069976807 -0.00977128092199564 0.9485164880752563
-0.16492779552936554 -0.033326104283332825 1.6795710325241089
-0.1339181810617447 -0.04231853038072586 1.3337651491165161
-0.15190190076828003 -0.03154996037483215 1.268988013267517
-0.006133764982223511 0.12887780368328094 1.114290714263916
-0.028359830379486084 0.13648061454296112 1.041714072227478
-0.2352343201637268 -0.08183345943689346 0.09139987826347351
-0.25034791231155396 -0.14602752029895782 0.0547410249710083
-0.14357320964336395 -0.046413540840148926 1.6637095212936401
-0.13058888912200928 -0.030084755271673203 1.6126232147216797
-0.14754632115364075 -0.15064787864685059 1.212646245956421
-0.14762157201766968 -0.16181033849716187 1.1865962743759155
-0.1537734568119049 -0.18138861656188965 1.178246259689331
-0.07805240154266357 0.05557514727115631 1.3750030994415283
-0.06838004291057587 0.04999345541000366 1.3721424341201782
-0.12958768010139465 -0.1563747525215149 1.228964924812317
-0.13847070932388306 -0.08086022734642029 1.1893482208251953
-0.20846979320049286 -0.10712552070617676 0.1555531769990921
-0.2166108638048172 -0.061697956174612045 0.16931363940238953
-0.02670375257730484 0.08175335079431534 1.2705762386322021
-0.13588017225265503 -0.06983865797519684 1.4231737852096558
-0.13496804237365723 -0.06309682875871658 1.4033353328704834
-0.12296988815069199 -0.0635068416595459 1.3849477767944336
-0.13769935071468353 -0.05910763889551163 1.3834015130996704
-0.1398167908191681 -0.0736374706029892 1.3697454929351807
-0.13425424695014954 -0.11896328628063202 0.7734867334365845
-0.1477121114730835 -0.08062407374382019 0.7651712894439697
0.006938735023140907 0.1783829629421234 1.130984902381897
0.00504679698497057 0.1720404475927353 1.1761951446533203
-0.12060807645320892 -0.1499975025653839 1.225462794303894
-0.12052355706691742 -0.11391747742891312 0.8489313125610352
-0.20850661396980286 -0.01652788743376732 0.08406969904899597
-0.2130635380744934 -0.02062450721859932 0.042138438671827316
-0.13458986580371857 -0.18611961603164673 0.8405522108078003
-0.025087276473641396 0.13926908373832703 1.2620327472686768
-0.1348542869091034 -0.1465120166540146 1.5648900270462036
-0.10339684784412384 -0.03751195967197418 1.5011428594589233
-0.06546705961227417 0.0436183325946331 1.4905531406402588
-0.06689464300870895 0.007269218564033508 1.53515625
-0.08858843892812729 0.008125506341457367 1.5110104084014893
-0.07585857063531876 0.03292118012905121 1.4405616521835327
-0.022040676325559616 0.06149248033761978 1.5354743003845215
-0.09862484782934189 -0.06791523098945618 1.4522355794906616
-0.08841706812381744 0.04461288824677467 0.9665430188179016
-0.10598942637443542 -0.04461296647787094 1.7561930418014526
-0.11293215304613113 -0.04985126107931137 1.748810052871704
-0.12209455668926239 -0.05835507810115814 1.7356743812561035
0.002947269007563591 0.016764577478170395 1.4370492696762085
-0.045350946485996246 0.06633742898702621 1.4184269905090332
-0.1485903561115265 -0.0962732583284378 0.01608392782509327
0.003527688328176737 0.10621177405118942 1.3730970621109009
-0.10531552881002426 -0.14306433498859406 1.4813268184661865
-0.13267473876476288 -0.07455481588840485 0.3714737892150879
-0.03676566109061241 0.010275866836309433 1.4848159551620483
-0.06219645217061043 -0.0307120680809021 1.4585670232772827
-0.0027589863166213036 0.07425772398710251 1.4644134044647217
-0.03253783658146858 0.049622468650341034 0.8514810800552368
-0.14026939868927002 -0.012371320277452469 0.32346999645233154
0.04918321222066879 0.15065881609916687 1.0481852293014526
-0.029184557497501373 0.028973987326025963 1.0343012809753418
-0.10370039939880371 -0.17731603980064392 1.2212188243865967
-0.10461310297250748 -0.1674346774816513 1.1296627521514893
-0.12700778245925903 -0.04110601544380188 0.3007970452308655
-0.11087203025817871 -0.054814986884593964 0.23918162286281586
-0.1421975940465927 -0.00758335692808032 0.2349448949098587
-0.04165273904800415 -0.008920814841985703 1.495862603187561
-0.06365898251533508 -0.11536064743995667 0.6742110848426819
-0.08997778594493866 -0.04224911332130432 0.6408854126930237
0.05521314591169357 0.17649304866790771 1.1694087982177734
0.058055222034454346 0.17840474843978882 1.094517707824707
-0.06011427566409111 -0.20333920419216156 1.1486444473266602
-0.13329149782657623 -0.07019015401601791 0.10047228634357452
0.04612673446536064 0.13304075598716736 1.077905535697937
0.035730354487895966 0.10755082964897156 1.1095318794250488
0.021743834018707275 -0.011226678267121315 1.4921263456344604
-0.08011528104543686 -0.13248589634895325 1.3579119443893433
0.053901128470897675 0.10938383638858795 1.359489917755127
0.046123869717121124 0.01073804497718811 1.4268803596496582
0.011911943554878235 -0.018673162907361984 1.4874581098556519
0.09133314341306686 0.12376418709754944 1.08774995803833
0.10700078308582306 0.11671043187379837 1.0441685914993286
-0.023566944524645805 -0.15012826025485992 1.352207899093628
0.017411276698112488 0.026118995621800423 1.0319784879684448
-0.03584013879299164 -0.2118566632270813 1.0844181776046753
0.11044248938560486 0.08286304026842117 1.3786793947219849
0.017911626026034355 -0.05691367760300636 1.282393455505371
0.08029824495315552 0.047717902809381485 1.4674431085586548
0.0457521490752697 0.007708825170993805 1.4638882875442505
0.0265057310461998 -0.06333918124437332 1.198729395866394
0.04743903875350952 0.09135831892490387 0.9162329435348511
0.011810041964054108 -0.08903311938047409 1.689305067062378
0.09293371438980103 -0.1601458340883255 0.057012200355529785
0.09173335134983063 -0.1811905801296234 0.027785178273916245
0.08832734823226929 -0.08807007968425751 0.05867721512913704
-0.028024058789014816 -0.18881183862686157 1.5637712478637695
0.05161696672439575 -0.06284697353839874 0.6960145235061646
0.0981978252530098 -0.004663221538066864 1.434721827507019
0.034652307629585266 -0.10493160039186478 1.445669412612915
0.06956195086240768 -0.09806739538908005 1.3929651975631714
0.03142082691192627 -0.06938345730304718 1.3799667358398438
0.08997303247451782 -0.04995426908135414 0.3673502802848816
0.10339325666427612 -0.14573201537132263 0.21653717756271362
0.1105022206902504 -0.05667230859398842 0.16940011084079742
0.14863888919353485 0.11239422857761383 1.092311143875122
0.1459958255290985 0.1374247968196869 1.0672032833099365
0.08792278170585632 -0.14619624614715576 0.7216607332229614
0.09237491339445114 -0.05236002057790756 0.638806939125061
0.007861007004976273 -0.13319295644760132 1.6696152687072754
0.04748457297682762 -0.14243559539318085 1.6281890869140625
0.10455965250730515 -0.13297563791275024 0.5325762033462524
0.034587569534778595 -0.08273915946483612 1.7021561861038208
0.05769069492816925 -0.09471827745437622 1.652966022491455
0.05619078502058983 -0.11784744262695312 1.1268720626831055
0.0629509910941124 -0.10397738218307495 1.1039843559265137
0.05217571184039116 -0.17284175753593445 1.08002507686615
0.026893161237239838 -0.17326994240283966 1.5615406036376953
0.04931778833270073 -0.1051800325512886 1.476185917854309
0.03956480324268341 -0.14554211497306824 1.4681951999664307
0.18535281717777252 0.09712504595518112 1.0574674606323242
0.047194954007864 -0.15492041409015656 1.2691184282302856
0.04771144688129425 -0.2110278308391571 1.228041410446167
0.05946561321616173 -0.14351171255111694 1.2137795686721802
0.15010066330432892 -0.053922079503536224 0.11659171432256699
0.15338066220283508 -0.14542794227600098 0.1479056179523468
0.16735097765922546 -0.13579964637756348 0.13159580528736115
0.07147454470396042 -0.07933854311704636 1.67915678024292
0.053406357765197754 -0.17002025246620178 1.272016167640686
0.16534338891506195 -0.0518970713019371 0.40753084421157837
0.14417628943920135 -0.10215282440185547 0.464851975440979
0.17100149393081665 -0.07156635075807571 0.3501470386981964
0.07952380180358887 -0.11658685654401779 1.3824750185012817
0.06570909917354584 -0.11438652873039246 1.3812886476516724
0.08344072848558426 -0.10021084547042847 1.343275785446167
0.12110832333564758 0.06022798269987106 0.9109350442886353
0.11819501221179962 -0.1173248291015625 0.8430423736572266
0.1771271526813507 -0.065842404961586 0.22079385817050934
0.190530925989151 -0.09577395021915436 0.2309729903936386
0.08830989897251129 -0.09245194494724274 1.336530327796936
0.16794513165950775 0.028446553274989128 1.2949870824813843
0.17896506190299988 0.05625813826918602 1.2786105871200562
0.043287187814712524 -0.2707873582839966 1.1220732927322388
0.15432558953762054 -0.07160109281539917 0.9800564050674438
0.1556634157896042 -0.12793788313865662 0.9686036109924316
0.08958099782466888 -0.11517909169197083 1.1649980545043945
0.08436642587184906 -0.22597800195217133 1.0621833801269531
0.09990380704402924 -0.19002389907836914 1.0388898849487305
0.09827856719493866 -0.25244125723838806 1.1281145811080933
-0.2690690755844116 -0.036977045238018036 1.0362482070922852
-0.2894677221775055 -0.08964356780052185 1.012115716934204
-0.2279462367296219 -0.1008187085390091 1.1080858707427979
-0.2430715560913086 -0.10906773805618286 1.150711178779602
-0.19707901775836945 -0.07410859316587448 1.1268309354782104
-0.18549641966819763 -0.03607439994812012 1.1512184143066406
-0.18660958111286163 -0.15236690640449524 0.8608438372612
-0.05504310131072998 0.14191967248916626 1.0790324211120605
-0.06694323569536209 0.12329427897930145 1.1689355373382568
-0.16686323285102844 -0.23109057545661926 1.084219217300415
-0.14325210452079773 -0.15771424770355225 0.9413325786590576
-0.22493329644203186 -0.060207024216651917 0.25623977184295654
-0.20394158363342285 -0.1085742861032486 0.2707177698612213
-0.16074179112911224 -0.004315529018640518 0.47544148564338684
-0.14532271027565002 -0.1920817494392395 0.8461784720420837
-0.14759410917758942 -0.0630064383149147 0.6168497800827026
-0.1428840309381485 -0.10466604679822922 0.6725231409072876
-0.12676042318344116 -0.04756183922290802 0.6804050207138062
-0.1012248694896698 -0.03186061233282089 1.092484474182129
-0.11536160856485367 -0.09096840023994446 1.1087188720703125
0.016358597204089165 0.15691375732421875 1.236081838607788
-0.10936295241117477 -0.022569574415683746 0.8444749116897583
-0.15996846556663513 -0.1186850517988205 0.2850017547607422
-0.10994330048561096 -0.051360420882701874 1.1937341690063477
-0.09180072695016861 -0.055902302265167236 1.1248588562011719
-0.1485012322664261 -0.09688141196966171 0.42532455921173096
-0.11127641797065735 -0.058956604450941086 1.6789387464523315
-0.11970814317464828 -0.09111595898866653 1.6598769426345825
-0.0861661434173584 -0.1266598105430603 1.6655385494232178
-0.10668680816888809 -0.15615200996398926 1.6234713792800903
-0.12273089587688446 -0.14731070399284363 1.529893398284912
-0.13996005058288574 -0.07762123644351959 0.31725889444351196
-0.06212528422474861 -0.12508171796798706 0.7261717319488525
-0.11465759575366974 -0.08564764261245728 0.24550262093544006
-0.1332622915506363 -0.11560366302728653 0.2519133687019348
-0.14834533631801605 -0.029015766456723213 0.1845545619726181
-0.047205425798892975 0.0644853338599205 0.9609627723693848
-0.06701259315013885 -0.05306849256157875 1.7194766998291016
-0.08463918417692184 -0.06091155484318733 1.7058528661727905
0.07426612824201584 0.08901088684797287 1.2177067995071411
-4.870537668466568e-05 0.10208795964717865 1.212444543838501
0.05210573971271515 0.07707784324884415 1.2640066146850586
-0.0025893785059452057 -0.06752833724021912 1.233407735824585
0.07771125435829163 0.1434336155653 1.266059398651123
0.07743199914693832 0.10824348032474518 1.1142692565917969
0.13442938029766083 0.15564341843128204 1.198798418045044
0.03948689624667168 0.035022884607315063 1.632624864578247
0.10608094930648804 0.09291552007198334 1.12180757522583
0.037608012557029724 -0.2177678793668747 0.8980783820152283
0.0716858059167862 -0.10468585789203644 0.233833909034729
0.09796582907438278 -0.12188032269477844 0.17296524345874786
0.04760332405567169 -0.13026463985443115 0.679213285446167
0.03651955723762512 -0.007179681211709976 1.0686798095703125
0.07140012085437775 -0.04776462912559509 0.5464657545089722
0.11198399215936661 0.04197760298848152 1.3182268142700195
0.04363817721605301 -0.13200178742408752 1.3788219690322876
0.06805689632892609 0.020256616175174713 1.595978856086731
0.05236302316188812 -0.04021886736154556 1.5530314445495605
0.05746341496706009 -0.022328399121761322 1.5364792346954346
0.029819004237651825 -0.08042114973068237 1.7469347715377808
0.03476203233003616 -0.1541464626789093 1.319077491760254
0.13582737743854523 -0.024113278836011887 0.4728506803512573
0.10447634756565094 -0.011282097548246384 0.46799135208129883
0.12992064654827118 -0.028362475335597992 0.31637030839920044
0.15197564661502838 -0.03529331833124161 0.28679031133651733
0.07222309708595276 -0.1045195609331131 1.4671094417572021
0.06235896795988083 -0.11235490441322327 1.474157691001892
0.07201750576496124 -0.10424730181694031 1.4597159624099731
0.11498557776212692 -0.05402390658855438 0.7462525367736816
0.12996447086334229 -0.09662549197673798 0.6156819462776184
0.12458957731723785 0.01927204057574272 0.9513130187988281
0.09684127569198608 -0.09307816624641418 1.0857300758361816
0.08735083043575287 -0.1446336805820465 1.069359302520752
0.10033023357391357 -0.16482284665107727 1.0153511762619019
0.07920706272125244 -0.07572103291749954 1.5839729309082031
0.08890590071678162 -0.07401888072490692 1.507476806640625
0.04243042692542076 -0.20184996724128723 1.2097878456115723
0.11376410722732544 -0.008391879498958588 1.5047664642333984
0.09891834855079651 -0.038950756192207336 1.5383150577545166
0.1789071261882782 -0.06905527412891388 0.04523323103785515
0.18978355824947357 -0.12487315386533737 0.0386388786137104
0.12016837298870087 -0.02478974685072899 1.4701091051101685
0.12606273591518402 -0.011124434880912304 1.4467523097991943
0.1351044476032257 -0.014965441077947617 1.4170160293579102
0.1376989781856537 -0.0032760128378868103 1.4062566757202148
0.04292668029665947 -0.27408841252326965 1.140173077583313
0.1683010756969452 -0.15925996005535126 0.8523970246315002
0.055683959275484085 -0.2540366053581238 1.1527130603790283
0.050116781145334244 -0.2772517800331116 1.141506552696228
0.19653092324733734 -0.11558029055595398 0.8685277700424194
0.19679997861385345 -0.09257997572422028 0.8489106297492981
0.20771732926368713 -0.05793662369251251 0.8588520288467407
-0.2124776542186737 -0.10687512904405594 1.1625657081604004
-0.1694883108139038 -0.12026355415582657 1.2302632331848145
-0.17786549031734467 -0.11844269931316376 1.2145711183547974
-0.16873103380203247 -0.11057766526937485 1.2225019931793213
-0.1631089746952057 -0.11434383690357208 1.2406609058380127
-0.19470572471618652 -0.00023655593395233154 0.8608629703521729
-0.13562141358852386 -0.08547253161668777 1.2647606134414673
-0.14702340960502625 -0.07217083871364594 1.0603668689727783
-0.10454009473323822 0.035409629344940186 1.5183796882629395
-0.14325127005577087 -0.10521811991930008 1.1760445833206177
-0.146880105137825 -0.09319180250167847 1.1251798868179321
-0.07641519606113434 0.04689527302980423 1.425281047821045
-0.06201094016432762 0.04267270863056183 1.392521619796753
-0.13836008310317993 -0.1432674080133438 1.015456199645996
-0.10437390208244324 -0.1658671796321869 0.977949857711792
-0.1253315657377243 -0.03646262362599373 0.7681336402893066
0.00966738909482956 0.13143515586853027 1.2962263822555542
-0.04550378397107124 0.051395028829574585 1.6113709211349487
-0.138242706656456 -0.035998739302158356 0.03900027275085449
-0.153054341673851 -0.01931731589138508 0.027067940682172775
-0.07989147305488586 0.023090142756700516 0.8553650379180908
-7.208995521068573e-05 0.09328930079936981 0.8505064249038696
-0.060931846499443054 -0.025349274277687073 0.8332531452178955
0.046709246933460236 0.04061954468488693 1.3421982526779175
-0.03602401912212372 -0.08876959979534149 0.7544265985488892
-0.060880713164806366 -0.1766764521598816 1.5393269062042236
-0.007077590562403202 0.014193091541528702 0.8677183389663696
-0.005818719044327736 -0.02803613990545273 0.8453724384307861
0.00982893630862236 -0.11835302412509918 0.8484217524528503
-0.07718288898468018 -0.16275572776794434 0.8521662354469299
-0.008056392893195152 -0.22367942333221436 0.8448271751403809
0.023455137386918068 -0.11082936823368073 0.8199386596679688
-0.010767903178930283 -0.15935084223747253 0.8560409545898438
-0.0006255060434341431 -0.03524864837527275 1.4546910524368286
0.01932874694466591 -0.037671517580747604 0.8384464383125305
0.022982051596045494 -0.05012986809015274 0.8162276744842529
0.01704273372888565 -0.03281440585851669 1.5304851531982422
0.020247939974069595 -0.022661976516246796 1.5087695121765137
0.03379266709089279 -0.12430168688297272 0.8372821807861328
0.12505601346492767 0.05466240271925926 0.8437275886535645
0.07425085455179214 -0.07603152096271515 0.22970017790794373
0.04101742431521416 -0.035684674978256226 0.8025454878807068
0.11048918217420578 0.08004205673933029 1.2414827346801758
0.10436101257801056 -0.10080686956644058 0.3561585247516632
0.10239896178245544 -0.08780380338430405 0.2945759892463684
0.11790581047534943 -0.10793045163154602 0.3115866780281067
0.1122773066163063 -0.14947554469108582 0.25778883695602417
0.10149074345827103 0.009229514747858047 1.4788281917572021
0.07334189116954803 -0.01746552065014839 0.8377129435539246
0.09577439725399017 -0.036627396941185 0.8127068281173706
0.06325767934322357 -0.11544251441955566 1.2225022315979004
