0.15730181336402893 -0.014454890042543411 1.5129919052124023
0.16341187059879303 -0.019610557705163956 1.5830485820770264
0.17429520189762115 -0.009341705590486526 1.5905895233154297
0.1761021912097931 -0.011160753667354584 1.6239235401153564
0.17293255031108856 -0.021078798919916153 1.647367000579834
0.1850055754184723 -0.03235474228858948 1.6563740968704224
0.20552507042884827 -0.026343531906604767 1.6765704154968262
0.23332172632217407 -0.005175881087779999 1.6608099937438965
0.20854909718036652 -0.009639490395784378 1.679206132888794
0.23975279927253723 -0.03738328069448471 1.6423202753067017
0.29207950830459595 -0.02949262037873268 1.5555319786071777
0.23417271673679352 -0.0285300575196743 1.672320008277893
0.28209835290908813 -0.019087113440036774 1.6812458038330078
0.2784245014190674 -0.03537701442837715 1.67873215675354
0.33253613114356995 -0.04938707500696182 1.6508511304855347
0.2962453365325928 -0.04824007302522659 1.6178383827209473
0.3208119869232178 -0.07475501298904419 1.515873670578003
0.3299587666988373 -0.04358800873160362 1.4641666412353516
0.3300522267818451 -0.029797574505209923 1.6625816822052002
0.4168967604637146 -0.06954175233840942 1.595945119857788
0.3425779640674591 -0.03616277128458023 1.6630029678344727
0.3788144290447235 -0.05327747017145157 1.6458476781845093
0.357666015625 -0.04095270484685898 1.612221360206604
0.38137125968933105 -0.03847835212945938 1.6505241394042969
0.41656363010406494 -0.050595350563526154 1.6066125631332397
0.41657254099845886 -0.04788685590028763 1.5817644596099854
0.3717001676559448 -0.059749193489551544 1.5890496969223022
0.3862060308456421 -0.050047095865011215 1.6230682134628296
0.4138868451118469 -0.06342758238315582 1.5722683668136597
0.4421396255493164 -0.04984327778220177 1.5345516204833984
0.446422278881073 -0.06304687261581421 1.5326265096664429
0.45509302616119385 -0.055848367512226105 1.4961814880371094
0.46512407064437866 -0.07754544913768768 1.4907878637313843
0.4991844892501831 -0.05238978564739227 1.5101301670074463
0.49108070135116577 -0.06731025874614716 1.5089927911758423
0.49886444211006165 -0.06398934125900269 1.4658055305480957
0.4799695909023285 -0.06943008303642273 1.492384433746338
0.49815136194229126 -0.0718935877084732 1.4221798181533813
0.4982753396034241 -0.08395539224147797 1.4235389232635498
0.5415353775024414 -0.07533631473779678 1.3912848234176636
0.5276980996131897 -0.08245481550693512 1.357869267463684
0.507256031036377 -0.09640610218048096 1.3623541593551636
0.5330142974853516 -0.08993163704872131 1.3165103197097778
0.4982869029045105 -0.08404544740915298 1.459665298461914
0.5291215181350708 -0.07352165877819061 1.4435551166534424
0.5268566608428955 -0.08831978589296341 1.3935707807540894
0.5162932872772217 -0.09533651173114777 1.4441651105880737
0.5978603959083557 -0.1044614389538765 1.313751220703125
0.5540192723274231 -0.1119193509221077 1.3393049240112305
0.5713397860527039 -0.09896790236234665 1.3158202171325684
0.568610429763794 -0.09605725109577179 1.366835355758667
0.553661584854126 -0.10746177285909653 1.3174207210540771
0.5678061246871948 -0.09722580760717392 1.2857465744018555
0.5601089000701904 -0.11101904511451721 1.2853766679763794
0.6031136512756348 -0.10823140293359756 1.3218564987182617
0.5954694747924805 -0.114375539124012 1.308571219444275
0.5974368453025818 -0.11090099811553955 1.3290181159973145
0.5955955386161804 -0.11557760089635849 1.2592551708221436
0.6426454186439514 -0.11809732019901276 1.2219749689102173
0.6002991199493408 -0.10996349900960922 1.234072208404541
0.6446266770362854 -0.1187652200460434 1.199587345123291
0.6285489797592163 -0.13030844926834106 1.197326421737671
0.661597490310669 -0.13967789709568024 1.0123673677444458
0.6400539875030518 -0.15217921137809753 1.0310701131820679
0.6558157801628113 -0.16516585648059845 0.9849289655685425
0.6674943566322327 -0.14754140377044678 1.0127792358398438
0.610260546207428 -0.179214209318161 0.9960718154907227
0.659939169883728 -0.19871573150157928 0.9504526257514954
0.6533856987953186 -0.20895400643348694 0.9531106948852539
-0.4361785650253296 0.05753498896956444 0.8331449031829834
-0.4076353907585144 0.04296470433473587 0.7997123003005981
-0.40225476026535034 0.029566682875156403 0.7685390114784241
-0.40518903732299805 0.029890786856412888 0.8069036602973938
-0.36981379985809326 0.030802618712186813 0.7440640926361084
-0.3608214855194092 0.010512769222259521 0.739048957824707
-0.4509987533092499 0.11260262131690979 0.8879858255386353
-0.4359498918056488 0.0689689964056015 0.9355084896087646
-0.4234042763710022 0.0604468397796154 0.8828608989715576
-0.40703698992729187 0.054148510098457336 0.8795045614242554
-0.3825123608112335 0.03972148522734642 0.8083665370941162
-0.3631282448768616 0.010743342339992523 0.7826959490776062
-0.3744978904724121 -0.0033281855285167694 0.7504997849464417
-0.3283824324607849 -0.008212201297283173 0.6619740724563599
-0.33029937744140625 -0.022745372727513313 0.6815515756607056
-0.30072423815727234 -0.05332028493285179 0.6485368609428406
-0.3670891523361206 0.023870695382356644 0.8454227447509766
-0.35293787717819214 0.021491926163434982 0.7788445353507996
-0.31212949752807617 -0.0021819323301315308 0.657539963722229
-0.3507270812988281 0.005399130284786224 0.7694088816642761
-0.3517199754714966 0.01902017369866371 0.794445276260376
-0.34925270080566406 -0.002494778484106064 0.748879075050354
-0.3323754072189331 -0.02818908542394638 0.7544903755187988
-0.41509008407592773 0.08668386191129684 1.069612979888916
-0.27047452330589294 -0.10926283895969391 0.6349241137504578
-0.24424214661121368 -0.121710404753685 0.5565668940544128
-0.44177284836769104 0.07092715799808502 1.1744732856750488
-0.44238346815109253 0.07780266553163528 1.0955400466918945
-0.3994393050670624 0.0785100907087326 1.044905662536621
-0.46085822582244873 0.08260595798492432 1.1954240798950195
-0.45036840438842773 0.12798556685447693 1.1344374418258667
-0.3280830979347229 -0.06322229653596878 0.8336125016212463
-0.4765603542327881 0.1373947262763977 1.3300918340682983
-0.43636077642440796 0.11161546409130096 1.2727577686309814
-0.22833669185638428 -0.009054813534021378 0.6840190291404724
-0.2054746150970459 -0.01604275405406952 0.6009465456008911
-0.29181233048439026 0.019202515482902527 0.8214724659919739
-0.18529123067855835 -0.04330114647746086 0.5907162427902222
-0.3247916102409363 0.021450679749250412 0.9883768558502197
-0.33013850450515747 -0.004447754472494125 0.9214147329330444
-0.28908997774124146 0.01677720621228218 0.8856956958770752
-0.2792893648147583 0.01687663048505783 0.9320409297943115
-0.27290529012680054 0.036868780851364136 0.9366012811660767
-0.31719714403152466 0.02335779368877411 1.0106797218322754
-0.42901554703712463 0.082565538585186 1.390826940536499
-0.4559919536113739 0.1263018250465393 1.4171584844589233
-0.2875831723213196 0.05023689568042755 1.033128023147583
-0.3629651665687561 0.08738720417022705 1.193725824356079
-0.37451955676078796 0.05345279723405838 1.170311689376831
-0.4062179923057556 0.07802557945251465 1.5000052452087402
-0.39552175998687744 0.07468792796134949 1.3814815282821655
-0.4272622764110565 0.11536575853824615 1.4801397323608398
-0.30737441778182983 0.046271324157714844 1.1211555004119873
-0.307041198015213 0.07193055748939514 1.1370429992675781
-0.2954674959182739 0.04438590258359909 1.0851421356201172
-0.28725555539131165 0.05262098088860512 1.0791964530944824
-0.3478813171386719 0.10120899230241776 1.3263740539550781
-0.31448128819465637 0.09049712121486664 1.2659952640533447
-0.3074207901954651 0.06069576367735863 1.4353443384170532
-0.21567735075950623 0.05114850401878357 1.0836331844329834
-0.3583061993122101 0.10212533175945282 1.5178645849227905
-0.23764178156852722 0.045226629823446274 1.4143861532211304
-0.27217620611190796 0.08734102547168732 1.407475233078003
-0.22387585043907166 0.04157133772969246 1.3468296527862549
-0.20900119841098785 0.07197414338588715 1.3429001569747925
-0.18305286765098572 0.05894974619150162 1.2557532787322998
-0.15487040579319 0.040677279233932495 1.2221628427505493
0.17794804275035858 -0.024799633771181107 1.1827187538146973
0.15731433033943176 -0.04216740280389786 1.1926487684249878
0.18606214225292206 -0.040622469037771225 1.1459534168243408
0.21404549479484558 -0.027451084926724434 1.315886378288269
0.17526750266551971 -0.053598616272211075 1.2450505495071411
0.18929705023765564 -0.030518855899572372 1.254288911819458
0.2354581207036972 -0.034787774085998535 1.203625202178955
0.24060174822807312 -0.06608273088932037 1.1914857625961304
0.24368542432785034 -0.04317628964781761 1.108871340751648
0.2545275390148163 -0.04830937832593918 1.0799336433410645
0.23868177831172943 -0.057295478880405426 1.1099292039871216
0.25492751598358154 -0.06137266010046005 1.0877476930618286
0.2828228175640106 -0.05096575245261192 1.093528389930725
0.26490235328674316 -0.030067166313529015 1.460105299949646
0.25386467576026917 -0.0581669956445694 1.4216325283050537
0.32188770174980164 -0.059200968593358994 1.0711137056350708
0.2980751097202301 -0.08050531148910522 1.080670714378357
0.2799551486968994 -0.06062624603509903 1.0987237691879272
0.3080400824546814 -0.06662537157535553 1.0647603273391724
0.33898666501045227 -0.07348071783781052 1.0312161445617676
0.27878537774086 -0.07068632543087006 1.3311033248901367
0.37277770042419434 -0.07141414284706116 1.1549503803253174
0.3114089369773865 -0.09209569543600082 1.0986883640289307
0.3221147954463959 -0.0711040049791336 1.1133551597595215
0.3592756390571594 -0.0616002231836319 1.2874946594238281
0.3473531901836395 -0.09118044376373291 1.1459511518478394
0.38902217149734497 -0.08524879068136215 1.0687705278396606
0.3806922435760498 -0.07203787565231323 1.116546630859375
0.37410402297973633 -0.0859680324792862 1.086258053779602
0.37275683879852295 -0.1119120866060257 1.1112182140350342
0.37364888191223145 -0.06419907510280609 1.3302068710327148
0.3856894373893738 -0.07934600114822388 1.2179526090621948
0.3633425235748291 -0.10255207121372223 1.2371525764465332
0.3697870671749115 -0.08474920690059662 1.45987069606781
0.4054920971393585 -0.0907585620880127 1.107426404953003
0.3999064564704895 -0.06117181107401848 1.4359651803970337
0.4080451726913452 -0.08142845332622528 1.3755589723587036
0.4160727262496948 -0.09734539687633514 1.4226967096328735
0.46181681752204895 -0.1471349149942398 0.9100909233093262
0.4371989965438843 -0.1127815842628479 1.3558733463287354
0.4630163311958313 -0.11767156422138214 1.3132882118225098
0.4509965479373932 -0.08746950328350067 1.2702720165252686
0.44929182529449463 -0.13225778937339783 1.1716114282608032
0.4612225294113159 -0.1015450730919838 1.1732438802719116
0.47703200578689575 -0.09120175242424011 1.2780646085739136
0.4856546223163605 -0.10222753137350082 1.215425968170166
0.5050634741783142 -0.1213674247264862 1.1528205871582031
0.5143877267837524 -0.09314367920160294 1.301589012145996
0.5113101601600647 -0.11895937472581863 1.2741382122039795
0.48331448435783386 -0.2521408796310425 0.760319709777832
0.5019127130508423 -0.26953768730163574 0.6248551607131958
0.5424076318740845 -0.2235620766878128 0.6165462732315063
0.511088490486145 -0.22360558807849884 0.6481994390487671
0.5279178619384766 -0.176654651761055 0.9608904719352722
0.5292938947677612 -0.17366334795951843 0.9203338623046875
0.5492476224899292 -0.12401001155376434 1.1441065073013306
0.5869637727737427 -0.1678868532180786 0.6547765731811523
0.5748709440231323 -0.16782480478286743 0.7219874858856201
0.606290340423584 -0.1795605570077896 0.9123055934906006
0.6229589581489563 -0.2035624235868454 0.8165432214736938
0.5741312503814697 -0.19676122069358826 0.8265228271484375
0.600088357925415 -0.21754492819309235 0.8367259502410889
-0.4000680446624756 0.015241947025060654 0.71654212474823
-0.3952983617782593 -0.0017216689884662628 0.7278872728347778
-0.4894016683101654 0.12844011187553406 1.070062279701233
-0.4854353666305542 0.13973119854927063 1.081649899482727
-0.46173352003097534 0.11872612684965134 1.0348165035247803
-0.4133155345916748 0.07502894103527069 0.9423007369041443
-0.4087294042110443 0.07062354683876038 0.9894928336143494
-0.4135848879814148 0.040802501142024994 0.8999841809272766
-0.3744863271713257 0.05026329681277275 0.9054095149040222
-0.42166268825531006 0.05253611505031586 1.038102626800537
-0.4731411039829254 0.10264340043067932 1.1981329917907715
-0.46483975648880005 0.10099613666534424 1.1598479747772217
-0.256686270236969 -0.0016293004155158997 0.7267771363258362
-0.2913905084133148 0.005013778805732727 0.6723713874816895
-0.2402249574661255 -0.010158244520425797 0.6098058223724365
-0.44847333431243896 0.11828143149614334 1.2052284479141235
-0.4882330298423767 0.11055019497871399 1.2462947368621826
-0.32015156745910645 -0.03558763861656189 0.7942596077919006
-0.3110050857067108 -0.045610230416059494 0.7790133953094482
-0.2515431046485901 -0.07560275495052338 0.6216612458229065
-0.23385566473007202 -0.10149046778678894 0.5776770114898682
-0.332314133644104 0.03775141015648842 0.914319634437561
-0.5070970058441162 0.12995027005672455 1.3487352132797241
-0.34628617763519287 0.043070219457149506 0.955159068107605
-0.30888065695762634 0.04258125647902489 0.8858873248100281
-0.3719554841518402 0.018600180745124817 0.9826239347457886
-0.36465975642204285 0.012293606996536255 0.9601379632949829
-0.3176496624946594 0.04695698618888855 0.9745500683784485
-0.3885231614112854 0.04296736791729927 1.0708975791931152
-0.2822684645652771 0.017478369176387787 0.8424400091171265
-0.25878554582595825 -0.0037553757429122925 0.7779223918914795
-0.4150277376174927 0.09437812864780426 1.1422253847122192
-0.3601386547088623 0.06713764369487762 1.0876712799072266
-0.36176377534866333 0.03927592933177948 1.0503268241882324
-0.46488261222839355 0.11510145664215088 1.408909559249878
-0.4384649395942688 0.06898227334022522 1.2201552391052246
-0.3570217490196228 0.04531175270676613 1.1336637735366821
-0.4535500407218933 0.1004372388124466 1.4673068523406982
-0.38775813579559326 0.11448996514081955 1.370861530303955
-0.39844271540641785 0.07105480134487152 1.2588251829147339
-0.295024573802948 0.05630889907479286 1.0767743587493896
-0.3213748335838318 0.04012555629014969 1.0890233516693115
-0.3806174695491791 0.09935243427753448 1.2596523761749268
-0.344413161277771 0.08989328145980835 1.2005712985992432
-0.3464077413082123 0.10345660150051117 1.438433289527893
-0.32984766364097595 0.06115984916687012 1.2655372619628906
-0.28212571144104004 0.043905820697546005 1.1865744590759277
-0.2683539390563965 0.06764724105596542 1.1832129955291748
-0.2525618076324463 0.05722610652446747 1.1192035675048828
-0.2504167854785919 0.03724551573395729 1.2184568643569946
-0.23096749186515808 0.05884401872754097 1.129115104675293
-0.316236674785614 0.09641030430793762 1.3526653051376343
-0.280027836561203 0.058622442185878754 1.3188188076019287
-0.19200122356414795 0.04684252291917801 1.1237688064575195
-0.17588482797145844 0.048240311443805695 1.1484776735305786
-0.19930076599121094 0.063932865858078 1.4154937267303467
-0.1958562731742859 0.03033999726176262 1.261152744293213
0.20940983295440674 -0.05541394278407097 1.1271413564682007
0.17611175775527954 -0.02003614977002144 1.3992843627929688
0.27384793758392334 -0.039408862590789795 1.1614322662353516
0.260651171207428 -0.06107037141919136 1.1531282663345337
0.2650997042655945 -0.041321732103824615 1.09561026096344
0.3068735599517822 -0.05317378044128418 1.2621486186981201
0.302644282579422 -0.08103761076927185 1.182751178741455
0.3501853346824646 -0.06631594896316528 1.0361744165420532
0.3528895974159241 -0.05246495455503464 1.4017481803894043
0.3640347719192505 -0.10767862945795059 1.1398537158966064
0.43352210521698 -0.08370944857597351 1.340004563331604
0.4744633138179779 -0.15230633318424225 0.8224420547485352
0.4908795654773712 -0.14461542665958405 0.8037682175636292
0.49011966586112976 -0.1576990783214569 0.6936744451522827
0.49473249912261963 -0.1599472165107727 0.6220427751541138
0.4838162362575531 -0.1768122762441635 0.6360489726066589
0.4858684837818146 -0.11862193793058395 1.0909029245376587
0.510414719581604 -0.14941352605819702 0.7002487182617188
0.5076697468757629 -0.152618870139122 0.6265852451324463
0.4653792381286621 -0.196503147482872 0.8744387626647949
0.46223461627960205 -0.20853541791439056 0.9249249696731567
0.4461863040924072 -0.22487904131412506 0.8945459723472595
0.47177836298942566 -0.21116746962070465 0.8268470168113708
0.5383901596069336 -0.15677857398986816 0.7238416075706482
0.5379382371902466 -0.1684338003396988 0.6432901620864868
0.5282402634620667 -0.16054199635982513 0.8878378868103027
0.48449063301086426 -0.20295260846614838 0.8690311312675476
0.5062393546104431 -0.22135843336582184 0.8154768347740173
0.476806640625 -0.22156544029712677 0.8751571774482727
0.4859529733657837 -0.24970735609531403 0.8047135472297668
0.49421247839927673 -0.18623019754886627 0.9421485066413879
0.531026303768158 -0.19871699810028076 0.8903590440750122
0.5295910835266113 -0.23252925276756287 0.6555079817771912
0.5078503489494324 -0.2580936551094055 0.5996966361999512
0.5577421188354492 -0.1918519139289856 0.6077390313148499
0.5404866337776184 -0.1590241938829422 0.9609834551811218
0.5416889190673828 -0.1809009611606598 0.7529557943344116
0.5110166668891907 -0.2481314092874527 0.7226399779319763
0.5367975234985352 -0.24203236401081085 0.7154461145401001
0.5638800859451294 -0.2335953414440155 0.6356805562973022
0.5858595371246338 -0.1738087385892868 0.8939136266708374
0.6034893989562988 -0.1743282526731491 0.8592820167541504
0.5998253226280212 -0.20494824647903442 0.6907318830490112
0.5955806374549866 -0.21890605986118317 0.7113910913467407
0.5428727865219116 -0.13896527886390686 1.0586414337158203
0.6296846866607666 -0.14040200412273407 1.0104942321777344
0.5916284322738647 -0.1569974571466446 1.0041382312774658
0.603754997253418 -0.12920859456062317 1.192819595336914
0.5969958305358887 -0.12832628190517426 1.1496387720108032
0.5927004814147949 -0.12462718039751053 1.1452850103378296
0.5930229425430298 -0.14263691008090973 1.132139801979065
0.6228809356689453 -0.1383255273103714 1.0671688318252563
0.6124099493026733 -0.14432720839977264 1.0858006477355957
-0.43965405225753784 0.084877610206604 0.8772324323654175
-0.4378191828727722 0.06340102106332779 0.8922950625419617
-0.435526967048645 0.03905335068702698 0.863136351108551
-0.2539871335029602 -0.054484058171510696 0.5948688387870789
-0.2466985285282135 -0.10104089230298996 0.5627123117446899
-0.3075881600379944 -0.043952737003564835 0.7752268314361572
-0.31247442960739136 -0.05205264315009117 0.7213414907455444
-0.3197634816169739 -0.0771825760602951 0.7613568902015686
-0.29622527956962585 -0.08349554240703583 0.6534895300865173
-0.2652757167816162 -0.07092341780662537 0.6633763909339905
-0.255453884601593 -0.09752225875854492 0.6340363621711731
-0.3530495762825012 -0.005323868244886398 0.9115453958511353
-0.33371973037719727 -0.036101460456848145 0.8669623136520386
-0.3429979979991913 -0.01925703138113022 0.8649506568908691
-0.2807321846485138 -0.08641526103019714 0.6988526582717896
-0.27425599098205566 -0.06417180597782135 0.7004945278167725
-0.3088635802268982 -0.06360051780939102 0.792748212814331
-0.3002721965312958 -0.048996154218912125 0.7483363151550293
-0.3821623921394348 0.07481345534324646 1.0507231950759888
-0.28677260875701904 0.030668947845697403 0.9030852317810059
-0.2583087682723999 0.018908534198999405 0.945229172706604
-0.25699582695961 0.038814522325992584 0.9413284659385681
-0.34466278553009033 0.0359155498445034 1.083581566810608
-0.2850733995437622 0.03638220950961113 1.0314140319824219
-0.26443371176719666 0.044016484171152115 0.974460244178772
-0.2623389959335327 0.02484748139977455 0.9670051336288452
-0.32026880979537964 0.06369888782501221 1.3177168369293213
-0.25996115803718567 0.053299274295568466 1.0640943050384521
-0.25437361001968384 0.029789842665195465 1.108170986175537
-0.23510460555553436 0.0558142215013504 1.0701777935028076
-0.19755567610263824 0.03141032159328461 1.1159775257110596
-0.20807066559791565 0.0491737499833107 1.0868468284606934
-0.16653817892074585 0.03667472302913666 1.1768131256103516
0.4057583808898926 -0.09251878410577774 1.0232493877410889
0.4222662150859833 -0.07856886833906174 1.4965208768844604
0.4731072187423706 -0.12718969583511353 0.9817360639572144
0.4263874888420105 -0.09531451761722565 0.9666597247123718
0.4416087567806244 -0.13434864580631256 0.9598253965377808
0.45018470287323 -0.12209252268075943 0.9537716507911682
0.4418083429336548 -0.10423191636800766 1.1535601615905762
0.44693899154663086 -0.16863873600959778 0.9793834090232849
0.4585988223552704 -0.18048876523971558 0.9245812892913818
0.44266176223754883 -0.20242461562156677 0.9467847347259521
0.44741201400756836 -0.20033970475196838 0.9187954068183899
0.4620654582977295 -0.18779289722442627 0.8673381209373474
0.48832467198371887 -0.199482262134552 0.6725890636444092
0.49784889817237854 -0.2044755518436432 0.6228207349777222
0.526402473449707 -0.19571883976459503 0.6100608110427856
0.49656209349632263 -0.1524217128753662 0.9608031511306763
0.5054755806922913 -0.1528799682855606 0.9258299469947815
0.48341846466064453 -0.20293402671813965 0.897401750087738
0.4720829129219055 -0.2108025699853897 0.8594574928283691
0.4581279754638672 -0.23463179171085358 0.8270056247711182
0.47936826944351196 -0.1350831836462021 1.2607743740081787
0.5490254759788513 -0.17144890129566193 0.8920407295227051
0.5713822245597839 -0.1870853453874588 0.8454512357711792
0.5470966696739197 -0.17019183933734894 1.0148011445999146
0.5831938982009888 -0.2428337037563324 0.6729525923728943
0.5894734263420105 -0.2066933959722519 0.6407403349876404
0.5673460364341736 -0.20080575346946716 0.8732517957687378
0.5707337260246277 -0.2125558704137802 0.8228015899658203
0.6576011776924133 -0.16749292612075806 0.9972702264785767
0.6089047789573669 -0.20150412619113922 0.9580678939819336
0.6264688968658447 -0.18316368758678436 0.9538087844848633
0.6311805248260498 -0.20928961038589478 0.8250681161880493
0.6363493204116821 -0.19533495604991913 0.8373284935951233
-0.47540539503097534 0.12076900154352188 1.039841651916504
-0.26636046171188354 -0.04366771876811981 0.5425366163253784
-0.3633353114128113 -0.007624603807926178 0.8491582274436951
-0.34479284286499023 -0.029643086716532707 0.8229234218597412
-0.3801758289337158 0.022836808115243912 0.8922421336174011
-0.4747038781642914 0.10946077853441238 1.3352863788604736
-0.3605411946773529 0.05521519482135773 0.9288955926895142
-0.3504170775413513 0.03655247762799263 0.9017695188522339
-0.2141551524400711 -0.0608707070350647 0.5790712833404541
-0.20267684757709503 -0.035706933587789536 0.5756189227104187
-0.3196398615837097 -0.021447177976369858 0.8690667152404785
-0.3062969446182251 -0.04137350991368294 0.8164145946502686
-0.3176614046096802 -0.03897944465279579 0.8570917248725891
-0.4585779309272766 0.08832909166812897 1.28988778591156
-0.4138934016227722 0.0981096550822258 1.1912057399749756
-0.21640491485595703 0.06397519260644913 1.1849669218063354
0.13883356750011444 -0.02732856757938862 1.2213706970214844
0.12480687350034714 -0.038740675896406174 1.228227972984314
0.21720659732818604 -0.06264979392290115 1.161502718925476
0.21854320168495178 -0.04579354450106621 1.0944530963897705
0.29354435205459595 -0.05024736374616623 1.1985000371932983
0.3434736430644989 -0.07263411581516266 1.0806690454483032
0.3332420587539673 -0.08496154844760895 1.066321611404419
0.40012699365615845 -0.11050204932689667 1.2023026943206787
0.4260551333427429 -0.12027768790721893 1.2782201766967773
0.4320693612098694 -0.1357286423444748 1.097718358039856
0.45207011699676514 -0.2281286120414734 0.8326987624168396
0.4866068363189697 -0.22179846465587616 0.7842229008674622
0.4723829925060272 -0.24429066479206085 0.7412209510803223
0.49234867095947266 -0.22709466516971588 0.6917198300361633
0.5016739368438721 -0.16813915967941284 1.0215321779251099
0.5154117941856384 -0.26706773042678833 0.6203004717826843
-0.4267117977142334 0.04843311756849289 0.887006402015686
-0.24443387985229492 -0.02952856943011284 0.7287639379501343
-0.221495121717453 -0.04246234893798828 0.678829550743103
-0.47984614968299866 0.10997511446475983 1.438467264175415
-0.25763559341430664 0.04979976266622543 1.0525493621826172
-0.24611973762512207 0.04765557870268822 1.0236597061157227
-0.23181027173995972 0.041661594063043594 1.0515124797821045
-0.19268153607845306 0.049011342227458954 1.0946201086044312
-0.14063985645771027 0.026957755908370018 1.244741439819336
-0.14682337641716003 0.009024493396282196 1.2443164587020874
0.3531404137611389 -0.09237626194953918 1.3340343236923218
0.3832285404205322 -0.099675752222538 1.3782538175582886
0.49598121643066406 -0.14213182032108307 0.9903571009635925
0.48941656947135925 -0.13733479380607605 0.9183693528175354
0.4590286314487457 -0.152328222990036 1.093140721321106
0.4668366611003876 -0.1934826523065567 0.8131998181343079
0.521143913269043 -0.15981121361255646 1.0603069067001343
0.5165762305259705 -0.14612695574760437 1.147086262702942
0.5877013802528381 -0.17958523333072662 0.9850042462348938
0.5841031074523926 -0.1909370869398117 0.9235242009162903
0.5825613141059875 -0.22980856895446777 0.7594712376594543
0.5318713784217834 -0.2426184117794037 0.6793428063392639
0.5954201221466064 -0.20826786756515503 0.7502064108848572
-0.26328447461128235 -0.06312795728445053 0.5650850534439087
-0.224862739443779 -0.042337071150541306 0.566098690032959
-0.30935895442962646 -0.0442095510661602 0.7698460221290588
-0.25932472944259644 -0.06632521003484726 0.6253913640975952
-0.22218164801597595 -0.06303134560585022 0.6219538450241089
-0.30331510305404663 0.010798420757055283 0.9241490364074707
-0.23295778036117554 0.0395156554877758 1.1935696601867676
-0.22221869230270386 0.041473139077425 1.1414737701416016
-0.22219043970108032 0.050151512026786804 1.1145269870758057
-0.20146548748016357 0.02780575305223465 1.187967300415039
-0.17611727118492126 0.017115723341703415 1.1227902173995972
-0.17312973737716675 0.033548563718795776 1.1120336055755615
0.22220437228679657 -0.029442686587572098 1.1006486415863037
0.4337403178215027 -0.14469672739505768 1.0279635190963745
0.46581682562828064 -0.1764911264181137 1.0193296670913696
0.47388768196105957 -0.1895807832479477 0.9767990112304688
0.5553269386291504 -0.22723759710788727 0.8097841739654541
-0.31994590163230896 -0.024169111624360085 0.6366604566574097
-0.31088364124298096 -0.047108616679906845 0.604121744632721
-0.3056732416152954 -0.037087224423885345 0.5983812808990479
-0.3351040184497833 0.031442198902368546 0.8160446286201477
-0.2915269434452057 -0.02897130325436592 0.7887253165245056
-0.3043644428253174 -0.03226594254374504 0.8380484580993652
-0.1690521091222763 0.021014194935560226 1.2062525749206543
-0.13478440046310425 0.01686989516019821 1.3152419328689575
-0.12424838542938232 0.020902985706925392 1.3043376207351685
0.12719306349754333 -0.048034824430942535 1.239229679107666
0.2147139310836792 -0.0350085087120533 1.5876715183258057
0.3656975030899048 -0.04728148132562637 1.5212881565093994
0.38897648453712463 -0.06818495690822601 1.5348716974258423
0.4325565695762634 -0.0802052915096283 1.4635618925094604
0.5621626377105713 -0.12306438386440277 1.217017650604248
0.5886966586112976 -0.11950305849313736 1.2496845722198486
0.582692563533783 -0.1039717048406601 1.1943937540054321
0.5852500200271606 -0.12951774895191193 1.1764174699783325
0.6139882802963257 -0.11627867072820663 1.1935174465179443
-0.4715158939361572 0.10328353941440582 0.9708521962165833
-0.4522654712200165 0.11357621848583221 0.957744836807251
-0.5131112933158875 0.14415758848190308 1.213606834411621
-0.4941079616546631 0.1463104486465454 1.197821855545044
-0.26138952374458313 -0.010248830541968346 0.5873892307281494
-0.24579204618930817 -0.0250161774456501 0.5487790107727051
-0.2890956997871399 -0.0653461441397667 0.6630074977874756
-0.31886184215545654 0.01709267869591713 0.7714285254478455
-0.37059634923934937 0.06593076884746552 0.9774003028869629
-0.4754258990287781 0.115463986992836 1.4864534139633179
0.225030317902565 -0.03964146971702576 1.163902759552002
0.2677696943283081 -0.037861935794353485 1.3759708404541016
0.3602072298526764 -0.0778120756149292 1.094079852104187
0.357514351606369 -0.062037866562604904 1.2194206714630127
0.39446812868118286 -0.09917227923870087 1.0243492126464844
0.4092322587966919 -0.11258090287446976 0.9737390875816345
0.40308311581611633 -0.1304149180650711 1.0509543418884277
0.48297417163848877 -0.16944129765033722 0.771586000919342
0.4873534142971039 -0.1820039451122284 0.7620961666107178
0.4951145052909851 -0.22707249224185944 0.8205457329750061
0.5726133584976196 -0.164947047829628 0.9849604964256287
0.5861961841583252 -0.17585882544517517 0.773144543170929
-0.28225648403167725 -0.05191420763731003 0.572035551071167
-0.24011091887950897 -0.050535354763269424 0.537884533405304
-0.23222136497497559 0.06143588945269585 1.0268269777297974
-0.1998772919178009 0.05927214026451111 1.1140645742416382
-0.1740359365940094 0.027672961354255676 1.1647862195968628
0.5626800656318665 -0.1708538681268692 0.8085842728614807
0.5740805864334106 -0.21301895380020142 0.5830918550491333
0.579681396484375 -0.2173381745815277 0.5965047478675842
-0.33452409505844116 -0.03354867920279503 0.8051392436027527
-0.2668669819831848 -0.028039226308465004 0.7393609285354614
-0.251975953578949 -0.0503958985209465 0.6979444026947021
0.4593426585197449 -0.09378506988286972 1.3879019021987915
0.5873746275901794 -0.1935587376356125 0.5900339484214783
0.6115182042121887 -0.20399610698223114 0.8879233002662659
-0.23090113699436188 0.07094308733940125 1.2594389915466309
0.6025828719139099 -0.17677931487560272 0.9752572178840637
-0.2700956463813782 -0.005285888910293579 0.8129667043685913
0.49194595217704773 -0.24917170405387878 0.637372612953186
0.588715672492981 -0.17114169895648956 0.9654128551483154
-0.3260401487350464 -0.05891856551170349 0.7723525762557983
-0.34895437955856323 -0.09580002725124359 0.9428386688232422
-0.35604193806648254 -0.09249197691679001 0.9528846144676208
-0.33910664916038513 -0.11694548279047012 0.9504010677337646
-0.3502640128135681 -0.11373385041952133 0.958868145942688
-0.32451438903808594 -0.07611499726772308 1.0120145082473755
-0.33146023750305176 -0.08756334334611893 0.9901689291000366
-0.31976625323295593 -0.07664003223180771 0.9617315530776978
-0.31565648317337036 -0.0514666847884655 0.9959497451782227
-0.32361337542533875 -0.10572348535060883 0.9920978546142578
-0.32794275879859924 -0.1310136914253235 0.9792792797088623
-0.3065614104270935 -0.052810944616794586 1.0717412233352661
-0.30911341309547424 -0.13191142678260803 0.982473611831665
-0.3197472393512726 -0.0978342816233635 0.9856597781181335
-0.31241875886917114 -0.11935006827116013 1.01809823513031
-0.30925941467285156 -0.09513328224420547 1.0156283378601074
-0.2935965359210968 -0.03970777615904808 1.0455162525177002
-0.3029170036315918 -0.08555914461612701 1.014356017112732
-0.30283528566360474 -0.09586932510137558 1.0385146141052246
-0.30490270256996155 -0.07591617107391357 1.0679655075073242
-0.31727135181427 -0.041882097721099854 1.1039893627166748
-0.31598159670829773 -0.09118075668811798 1.0939401388168335
-0.2792363166809082 0.003449923824518919 1.1342675685882568
-0.28560858964920044 -0.005333565175533295 1.0927330255508423
-0.3079717755317688 -0.046311937272548676 1.1372607946395874
-0.25497177243232727 -0.0024961023591458797 1.0833935737609863
-0.26529908180236816 -0.037393148988485336 1.188523769378662
-0.2870526909828186 -0.09285914152860641 1.1424609422683716
-0.25339582562446594 0.012133377604186535 1.126981496810913
-0.2255266159772873 0.0011675702407956123 1.1380891799926758
-0.2282312959432602 0.002424616366624832 1.193590521812439
-0.20536504685878754 0.002108566462993622 1.1940442323684692
-0.20765085518360138 -0.05788189917802811 1.2586926221847534
-0.25043728947639465 -0.08117923885583878 1.1893694400787354
-0.19719065725803375 0.001185581088066101 1.2371737957000732
-0.22713936865329742 -0.02465108036994934 1.2394611835479736
-0.18801552057266235 -0.006108622997999191 1.2744085788726807
-0.1749608963727951 -0.01155102625489235 1.309812307357788
-0.17242395877838135 -0.058489881455898285 1.3117961883544922
-0.20539440214633942 -0.09447933733463287 1.2150756120681763
-0.16896522045135498 0.01394268125295639 1.6904414892196655
-0.11316822469234467 0.0754430815577507 1.3856042623519897
-0.1282230168581009 0.06528016924858093 0.8548212051391602
-0.1736569106578827 0.01511813048273325 0.8599235415458679
-0.14898917078971863 -0.07809992134571075 0.864466667175293
-0.19202230870723724 -0.10583457350730896 0.8551005125045776
-0.15166492760181427 0.03227611258625984 1.6045018434524536
-0.1772838681936264 0.0033428557217121124 1.71088707447052
-0.14492563903331757 0.00997190922498703 1.6642484664916992
-0.1252407282590866 0.04207562655210495 1.6216809749603271
-0.13569152355194092 0.02433200553059578 1.5692287683486938
-0.11590282618999481 -0.005367198958992958 1.0274076461791992
-0.15508826076984406 -0.050082746893167496 0.9885900616645813
-0.16229911148548126 -0.11701267957687378 0.973909854888916
-0.13683751225471497 0.008320383727550507 1.5044224262237549
-0.2584070861339569 -0.07179854065179825 0.04415997117757797
-0.27174443006515503 -0.13702638447284698 0.018111152574419975
-0.2770310640335083 -0.15871861577033997 0.039028048515319824
-0.14476555585861206 -0.05123541131615639 1.3607040643692017
-0.13354863226413727 -0.008816003799438477 1.3139140605926514
-0.12943486869335175 -0.03329312056303024 1.2926025390625
-0.15383413434028625 -0.06193147599697113 1.347754716873169
-0.1380404680967331 -0.10179904103279114 1.3007004261016846
-0.20291142165660858 -0.03799661621451378 0.46292397379875183
-0.20195621252059937 -0.0657481774687767 0.37777891755104065
-0.2144007831811905 -0.012974358163774014 0.31842780113220215
-0.22079996764659882 -0.04099906608462334 0.3445943593978882
-0.1384000927209854 0.02029956504702568 1.6345466375350952
-0.1324823647737503 -0.07116910070180893 1.2588661909103394
-0.13752944767475128 -0.07692084461450577 1.2187221050262451
-0.14026552438735962 -0.10232219099998474 1.2459633350372314
-0.16382218897342682 -0.11536981165409088 1.2438621520996094
-0.20834816992282867 -0.0032188361510634422 0.24374592304229736
-0.13973313570022583 -0.053545452654361725 1.4952656030654907
-0.12255879491567612 0.014005273580551147 1.5050445795059204
-0.13207973539829254 -0.015804115682840347 1.4958587884902954
-0.1747100055217743 -0.07526835799217224 0.561545729637146
-0.09330911934375763 -0.0012634582817554474 1.7222684621810913
-0.12638910114765167 -0.11909104883670807 1.185230016708374
-0.11558276414871216 -0.045603904873132706 1.1425347328186035
-0.12427697330713272 -0.13078239560127258 0.7334745526313782
-0.09255918115377426 0.048411764204502106 1.6805493831634521
-0.12380247563123703 -0.08063927292823792 1.3691883087158203
-0.0993577092885971 -0.1211848109960556 0.8416129350662231
-0.13610149919986725 -0.13171720504760742 0.862099289894104
-0.1226009652018547 -0.19605690240859985 0.9036849737167358
-0.10414815694093704 -0.21264317631721497 0.8434114456176758
-0.2499968409538269 -0.19419103860855103 0.06061170995235443
-0.05777762085199356 0.06377529352903366 1.6806901693344116
-0.08712311834096909 0.008787788450717926 1.7074625492095947
-0.1391715109348297 -0.029756223782896996 1.4123975038528442
-0.12220843136310577 -0.054781973361968994 1.454045057296753
-0.18091849982738495 0.00726338941603899 0.31293439865112305
-0.20561431348323822 -0.014993959106504917 0.1972326934337616
-0.24093392491340637 -0.1872512549161911 0.10192178189754486
-0.20839238166809082 -0.002616818994283676 0.047706350684165955
-0.10438308119773865 -0.0300190020352602 1.298850417137146
-0.15513929724693298 -0.10130352526903152 0.5349550843238831
-0.20458565652370453 -0.15977518260478973 -0.0008606994524598122
-0.24456851184368134 -0.16166451573371887 -0.003977694548666477
-0.0892060175538063 0.003729049116373062 1.5191736221313477
-0.09769675135612488 -0.02308977209031582 1.4761942625045776
-0.032936036586761475 -0.21425876021385193 0.8989573121070862
-0.07803317904472351 0.08821529150009155 0.8560104370117188
-0.20574592053890228 -0.11897057294845581 0.2548130750656128
-0.18219365179538727 -0.11281049251556396 0.1783359944820404
-0.187082901597023 -0.00969342514872551 0.09299397468566895
-0.09088045358657837 -0.028055662289261818 1.2661230564117432
-0.10082642734050751 -0.0448736734688282 1.2259845733642578
-0.07478532940149307 -0.14649127423763275 1.280405044555664
-0.12651236355304718 -0.03252607583999634 0.6554856896400452
-0.1071673035621643 -0.1329515278339386 0.727374792098999
-0.06782424449920654 -0.12166254222393036 0.805034339427948
-0.17219741642475128 -0.11920971423387527 0.1442381590604782
-0.19297771155834198 -0.18283292651176453 0.06572241336107254
-0.11761686205863953 -0.10451950877904892 1.445042371749878
-0.08786877989768982 -0.02323084883391857 1.332687497138977
-0.06079687178134918 -0.02556394599378109 1.2736579179763794
-0.12475312501192093 -0.10248184204101562 0.5578752756118774
-0.10461968928575516 -0.08333863317966461 0.5575946569442749
-0.14067411422729492 0.012803023681044579 0.5007609128952026
-0.09317126125097275 -0.09162043780088425 1.4166560173034668
-0.06569051742553711 -0.05593302845954895 1.403578281402588
-0.09369776397943497 -0.009996272623538971 1.372875452041626
-0.11520607769489288 -0.024785179644823074 0.506942093372345
-0.045366089791059494 0.01858474686741829 1.714548110961914
-0.11369509249925613 -0.14827755093574524 1.568866491317749
-0.03981853649020195 -0.18827612698078156 0.9716963768005371
-0.07093548774719238 -0.06571119278669357 1.4163506031036377
-0.05256450176239014 -0.09433891624212265 1.4001290798187256
-0.07219935953617096 -0.07807569950819016 1.3934649229049683
-0.06383572518825531 -0.14663559198379517 1.5048155784606934
-0.0987778902053833 -0.13432347774505615 1.4553918838500977
-0.04470996558666229 -0.037893299013376236 1.4285521507263184
-0.08842895179986954 -0.04723886027932167 0.6278122663497925
-0.007130730897188187 -0.026732929050922394 1.729026436805725
-0.013680770993232727 0.07425879687070847 1.6545333862304688
-0.05492207780480385 -0.16174283623695374 1.4548232555389404
-0.06710810959339142 -0.1356392204761505 1.4127548933029175
-0.029907939955592155 -0.046944405883550644 1.4040937423706055
-0.042052820324897766 -0.1424938142299652 1.4146950244903564
-0.001666933298110962 -0.02981005609035492 1.3841696977615356
-0.022325867787003517 -0.03970469534397125 1.2653000354766846
-0.0018877089023590088 0.025026053190231323 1.7118656635284424
-0.011859497055411339 -0.04877980425953865 1.430587887763977
-0.01886826381087303 -0.09011037647724152 1.4146853685379028
0.028010785579681396 0.03753761947154999 1.6782219409942627
0.003977913409471512 -0.01748354732990265 1.7140402793884277
-0.01634785532951355 -0.08252988755702972 1.4049081802368164
0.015619445592164993 -0.1121828481554985 1.436979055404663
-0.008235437795519829 -0.06410416215658188 1.410116195678711
0.06596401333808899 -0.09148292243480682 0.5794327259063721
0.020977219566702843 -0.02765810675919056 1.4642510414123535
0.10122809559106827 -0.11357125639915466 0.49562862515449524
-0.009068354032933712 -0.18394207954406738 1.2401375770568848
0.044988639652729034 -0.07148736715316772 1.2410202026367188
0.04434465616941452 -0.0850525051355362 1.1346310377120972
0.1309700459241867 -0.17639419436454773 0.06341151148080826
0.14845913648605347 -0.17355060577392578 0.03934149816632271
0.1185009628534317 -0.027730997651815414 0.05493564531207085
0.004567807540297508 -0.16829653084278107 1.2285027503967285
-0.003994785249233246 -0.1993606984615326 1.1528316736221313
0.062154676765203476 -0.1406361609697342 0.7178952097892761
0.11451749503612518 -0.08964995294809341 0.028580397367477417
0.04946909099817276 -0.025595754384994507 1.6742491722106934
0.00022256001830101013 -0.16137468814849854 1.5747774839401245
-0.0008331649005413055 -0.14242304861545563 1.4953231811523438
-0.002257455140352249 -0.1415809988975525 1.4529260396957397
0.09252576529979706 -0.16190886497497559 0.8658289909362793
0.09706544876098633 -0.03751170635223389 1.701833963394165
0.026804983615875244 -0.029418887570500374 1.5111662149429321
0.023751283064484596 -0.05017208307981491 1.4823042154312134
0.12277191877365112 -0.03248054161667824 0.310382604598999
0.11562446504831314 -0.026027634739875793 0.24758923053741455
0.13217179477214813 -0.021942138671875 0.03431228920817375
0.042583566159009933 -0.04147089272737503 1.7542903423309326
0.05440079793334007 -0.05286376178264618 1.3799024820327759
0.09406492114067078 -0.21932262182235718 0.853757381439209
0.08160191774368286 -0.13251498341560364 0.8511679172515869
0.12426850199699402 -0.19598859548568726 0.8525843620300293
0.08814412355422974 -0.039556942880153656 0.7397047281265259
0.17277874052524567 -0.17423467338085175 0.05304969102144241
0.06157715246081352 -0.03586087375879288 1.6849004030227661
0.030490465462207794 -0.1714598834514618 1.1238815784454346
0.030969273298978806 -0.16147345304489136 1.2439465522766113
0.03012249246239662 -0.17862221598625183 1.241162657737732
0.12477318942546844 -0.1911114603281021 0.9197945594787598
0.0439138188958168 -0.10143494606018066 1.517810583114624
0.05532478541135788 -0.029341483488678932 1.524335503578186
0.05114220827817917 -0.05391702428460121 1.5074119567871094
0.05541525036096573 -0.06884967535734177 1.502954363822937
0.05971752852201462 -0.08188680559396744 1.4795525074005127
0.12627464532852173 -0.06625159829854965 0.6369984149932861
0.12377755343914032 -0.13167020678520203 0.6557196378707886
0.06107180938124657 -0.09476955235004425 1.362284541130066
0.06852400302886963 -0.052574798464775085 1.304579734802246
0.039219003170728683 -0.051775433123111725 1.3251488208770752
0.04557659849524498 -0.06876658648252487 1.2994823455810547
0.1166633665561676 -0.11947915703058243 0.8181616067886353
0.17709019780158997 -0.0476677305996418 0.03679957240819931
0.1888073980808258 -0.07447183132171631 0.03478704020380974
0.06665952503681183 -0.04247476905584335 1.640369176864624
0.07721298933029175 -0.06427732855081558 1.3552544116973877
0.18513470888137817 -0.08114258944988251 0.2956482470035553
0.09281545877456665 -0.026431165635585785 1.618882179260254
0.071628138422966 -0.000163983553647995 1.6254730224609375
0.07926759123802185 -0.027312468737363815 1.5882863998413086
0.19180604815483093 -0.07385844737291336 0.11430796980857849
0.19802938401699066 -0.1398073136806488 0.04857375845313072
0.18492567539215088 -0.16533763706684113 0.08154905587434769
0.15417087078094482 -0.018528323620557785 0.9581437110900879
0.14549914002418518 -0.017842505127191544 0.8578571081161499
0.09375634789466858 -0.05217915028333664 1.6957811117172241
0.1642177700996399 0.03516436740756035 0.864132285118103
0.1792674958705902 -0.0018218341283500195 0.9255489110946655
0.08989322930574417 -0.06560815125703812 1.297989845275879
0.09577207267284393 -0.08915898948907852 1.283769130706787
0.06995576620101929 -0.09789549559354782 1.3334013223648071
0.09651579707860947 -0.07899637520313263 1.2435709238052368
0.08601914346218109 -0.07996107637882233 1.223917007446289
0.08925116062164307 -0.15569259226322174 1.2141249179840088
0.10601399093866348 -0.11434522271156311 1.2443195581436157
0.12219354510307312 -0.09655629098415375 1.1770825386047363
0.12923870980739594 -0.10550127178430557 1.10135817527771
0.1535378098487854 -0.11862986534833908 1.1129804849624634
0.14586971700191498 -0.1298661082983017 1.165784478187561
0.1180148795247078 -0.16083817183971405 1.1872926950454712
0.1536075323820114 -0.14526687562465668 1.0625669956207275
0.17258846759796143 -0.19997048377990723 1.1164292097091675
0.17852060496807098 -0.18213023245334625 1.0959886312484741
0.16884064674377441 -0.15844132006168365 1.070130467414856
0.1276920735836029 -0.2349657416343689 1.1050220727920532
0.14998842775821686 -0.2079123854637146 1.0716125965118408
0.1498255729675293 -0.19077542424201965 1.056057333946228
0.1790977418422699 -0.2710822820663452 0.9628667831420898
0.12926074862480164 -0.22211816906929016 1.072762131690979
0.13043257594108582 -0.241815984249115 1.0451297760009766
0.16706985235214233 -0.22285278141498566 0.9894049167633057
0.13278649747371674 -0.23061154782772064 1.01991868019104
0.1264229714870453 -0.25616157054901123 1.023781418800354
0.1480463147163391 -0.2539742588996887 0.995698094367981
0.162872314453125 -0.25816452503204346 0.9920917749404907
0.12216034531593323 -0.27429091930389404 1.000901460647583
0.14238402247428894 -0.27147361636161804 0.9921080470085144
0.13199950754642487 -0.27081069350242615 1.0005697011947632
0.17266646027565002 -0.27535614371299744 0.9441058039665222
0.1368260234594345 -0.28541016578674316 0.9884124994277954
0.15762574970722198 -0.2590682804584503 0.9582327008247375
0.1589534878730774 -0.29011401534080505 0.9572703242301941
0.1725420355796814 -0.2849481701850891 0.9599284529685974
-0.29275062680244446 -0.03360311686992645 1.0689505338668823
-0.2909356653690338 -0.08645730465650558 1.0526657104492188
-0.27460992336273193 -0.07091102004051208 1.051747441291809
-0.2976430356502533 -0.10572590678930283 1.0856319665908813
-0.2408125400543213 -0.03572375327348709 1.067203402519226
-0.273487389087677 -0.10933014005422592 1.0699326992034912
-0.18712691962718964 -0.021805865690112114 1.2149635553359985
-0.19248759746551514 -0.07275515794754028 1.1870567798614502
-0.1743023544549942 -0.09529353678226471 0.9512407779693604
-0.178259938955307 -0.014237616211175919 0.9303305149078369
-0.12793734669685364 0.05112718045711517 0.919208824634552
-0.07603374123573303 0.11785764247179031 1.2622225284576416
-0.07166118174791336 0.11823822557926178 1.2056217193603516
-0.06626297533512115 0.14280082285404205 1.184407353401184
-0.1533002257347107 -0.010328074917197227 0.9527937173843384
-0.17974497377872467 -0.0001482740044593811 1.6802055835723877
-0.14214666187763214 -0.02015373855829239 1.3321276903152466
-0.1609533578157425 -0.014440886676311493 1.2678378820419312
-0.006574096158146858 0.1381785124540329 1.0939216613769531
-0.02768731117248535 0.1436946541070938 1.018919825553894
-0.26138389110565186 -0.08119598031044006 0.10505860298871994
-0.27866512537002563 -0.13958069682121277 0.06261661648750305
-0.15840832889080048 -0.013836607336997986 1.6645816564559937
-0.14447301626205444 0.001334119588136673 1.6125898361206055
-0.15260231494903564 -0.13595300912857056 1.2184652090072632
-0.15269577503204346 -0.14899349212646484 1.1932801008224487
-0.1581888645887375 -0.16839639842510223 1.186375379562378
-0.08511455357074738 0.07719848304986954 1.3641035556793213
-0.07624273747205734 0.0708053857088089 1.3610821962356567
-0.13427968323230743 -0.1408107727766037 1.2345420122146606
-0.14191821217536926 -0.06854076683521271 1.187635898590088
-0.23338282108306885 -0.10244587063789368 0.16890119016170502
-0.24173493683338165 -0.057303257286548615 0.18051539361476898
-0.030969804152846336 0.09789746254682541 1.2560131549835205
-0.14620037376880646 -0.042909927666187286 1.4230681657791138
-0.14454962313175201 -0.036676693707704544 1.4032001495361328
-0.13212597370147705 -0.038034841418266296 1.3856306076049805
-0.14688412845134735 -0.033899590373039246 1.3835231065750122
-0.14827491343021393 -0.04929961636662483 1.37134850025177
-0.14065653085708618 -0.11422798037528992 0.7800367474555969
-0.15372109413146973 -0.07560171186923981 0.7735018730163574
0.0062075406312942505 0.18966558575630188 1.1084861755371094
0.0034931646659970284 0.18530166149139404 1.1549808979034424
-0.12527833878993988 -0.13442273437976837 1.2297556400299072
-0.12296710163354874 -0.11190667748451233 0.8538334369659424
-0.2342713177204132 -0.017316315323114395 0.0989227220416069
-0.23918604850769043 -0.019839178770780563 0.0592285580933094
-0.1358703076839447 -0.18508973717689514 0.842851996421814
