0.736453652381897 -0.19693318009376526 1.044126033782959
-0.45853161811828613 0.06621269881725311 0.820164144039154
-0.42831936478614807 0.05189252644777298 0.7902090549468994
-0.42487019300460815 0.03363043814897537 0.7579889893531799
-0.42497608065605164 0.035764362663030624 0.7986860871315002
-0.38792121410369873 0.038419123739004135 0.7289761900901794
-0.37641650438308716 0.01593756675720215 0.7292577028274536
-0.476267009973526 0.1275719553232193 0.8723850846290588
-0.46525877714157104 0.081774041056633 0.9286806583404541
-0.446386456489563 0.07278348505496979 0.8717293739318848
-0.43339550495147705 0.06642144173383713 0.8695753812789917
-0.39979130029678345 0.04812891408801079 0.7995045185089111
-0.381072461605072 0.015449494123458862 0.7784037590026855
-0.389957070350647 0.0011171847581863403 0.7414506673812866
-0.33659881353378296 -0.004976645112037659 0.6459634900093079
-0.34457916021347046 -0.0182492733001709 0.6705775260925293
-0.3086439073085785 -0.05081802234053612 0.6420477628707886
-0.39034131169319153 0.02811257168650627 0.8409941792488098
-0.37198176980018616 0.027489539235830307 0.7712618112564087
-0.3175441324710846 0.0034645460546016693 0.6426689028739929
-0.3651861250400543 0.015989750623703003 0.7615885138511658
-0.37143784761428833 0.029549580067396164 0.7884043455123901
-0.3638327419757843 0.0010316334664821625 0.7426686882972717
-0.3489331603050232 -0.02511313185095787 0.7507534027099609
-0.4478079676628113 0.1078941747546196 1.0676475763320923
-0.2753860652446747 -0.11031939089298248 0.6324292421340942
-0.239157572388649 -0.1250341832637787 0.5518156290054321
-0.47937819361686707 0.09574292600154877 1.1832976341247559
-0.47815272212028503 0.09772487729787827 1.0975048542022705
-0.42963331937789917 0.0943814367055893 1.0440484285354614
-0.5040263533592224 0.1079489141702652 1.2018120288848877
-0.4888828992843628 0.15258991718292236 1.1348599195480347
-0.34721654653549194 -0.052685633301734924 0.8382816314697266
-0.5229600071907043 0.1716281622648239 1.3393561840057373
-0.4747622609138489 0.14280621707439423 1.2817597389221191
-0.23176270723342896 -0.004691757261753082 0.6786559820175171
-0.20513688027858734 -0.015509949997067451 0.5895946025848389
-0.3052334189414978 0.030642107129096985 0.8168691992759705
-0.18012845516204834 -0.03892679885029793 0.5852659344673157
-0.3476599454879761 0.03781646117568016 0.9935497045516968
-0.3506983518600464 0.012125406414270401 0.9283701777458191
-0.30789196491241455 0.029410015791654587 0.8865867257118225
-0.29692694544792175 0.033738359808921814 0.9394055604934692
-0.29255515336990356 0.054813019931316376 0.9391795992851257
-0.33690205216407776 0.04166228324174881 1.019736886024475
-0.47118809819221497 0.11631818860769272 1.4120627641677856
-0.5007495880126953 0.1620766967535019 1.435379981994629
-0.30790507793426514 0.07367293536663055 1.0401725769042969
-0.3965899646282196 0.11259713768959045 1.203311800956726
-0.40784600377082825 0.08294043689966202 1.185190200805664
-0.44881051778793335 0.11749538779258728 1.5267298221588135
-0.4359886348247528 0.10957591235637665 1.4002118110656738
-0.47248464822769165 0.15167729556560516 1.500894546508789
-0.33298540115356445 0.07163707166910172 1.1325292587280273
-0.33474189043045044 0.10374437272548676 1.148644208908081
-0.31911158561706543 0.07200253009796143 1.0980632305145264
-0.308499813079834 0.07871566712856293 1.0888056755065918
-0.38391292095184326 0.13258343935012817 1.3404827117919922
-0.3480629622936249 0.1211523711681366 1.2784924507141113
-0.34107333421707153 0.0961577445268631 1.4579449892044067
-0.2321607768535614 0.07564681023359299 1.0932483673095703
-0.40178537368774414 0.14002779126167297 1.5440224409103394
-0.2659396529197693 0.07509250938892365 1.437042236328125
-0.3011656701564789 0.11925023794174194 1.4282902479171753
-0.24503932893276215 0.07169543206691742 1.367041826248169
-0.23034854233264923 0.10129915177822113 1.360806941986084
-0.19906967878341675 0.08533550053834915 1.2732250690460205
-0.16810178756713867 0.06510688364505768 1.2363697290420532
0.2140951007604599 0.008360443636775017 1.2153973579406738
0.18975187838077545 -0.011956150643527508 1.2281414270401
0.23056060075759888 -0.009955359622836113 1.1811304092407227
0.23256149888038635 0.010205172002315521 1.3629300594329834
0.20147646963596344 -0.02076316997408867 1.2861007452011108
0.2135336995124817 0.007464532740414143 1.2940526008605957
0.2739906907081604 -0.004796164110302925 1.2470927238464355
0.2824171781539917 -0.03315011411905289 1.2436100244522095
0.296713262796402 -0.014168113470077515 1.1500794887542725
0.3121318519115448 -0.021212048828601837 1.124159336090088
0.2913781404495239 -0.026903297752141953 1.1541119813919067
0.3097599148750305 -0.03196270018815994 1.1338976621627808
0.3405872583389282 -0.02162567898631096 1.1405580043792725
0.26437216997146606 0.016088753938674927 1.5286771059036255
0.2640349864959717 -0.016958389431238174 1.490809679031372
0.38169538974761963 -0.03154033049941063 1.1219862699508667
0.3582896590232849 -0.05157092958688736 1.1340359449386597
0.33546721935272217 -0.03142523765563965 1.1452207565307617
0.3723500370979309 -0.03706382215023041 1.1182188987731934
0.40887632966041565 -0.04920222982764244 1.0849529504776
0.3015175461769104 -0.028466135263442993 1.3981300592422485
0.42518579959869385 -0.03763590380549431 1.2215274572372437
0.3721712827682495 -0.06305296719074249 1.1573889255523682
0.37851008772850037 -0.040407825261354446 1.1715797185897827
0.3926539421081543 -0.01825745590031147 1.3597017526626587
0.40293484926223755 -0.05856312811374664 1.2124658823013306
0.45460817217826843 -0.053197406232357025 1.135205626487732
0.43858128786087036 -0.038408778607845306 1.1832928657531738
0.43872255086898804 -0.057604316622018814 1.155585527420044
0.43099257349967957 -0.08296652138233185 1.1833522319793701
0.4023224711418152 -0.024131154641509056 1.4103667736053467
0.432707816362381 -0.039529066532850266 1.2941778898239136
0.4088519215583801 -0.06474440544843674 1.3145660161972046
0.38099637627601624 -0.0403868742287159 1.5485905408859253
0.46836745738983154 -0.06382375210523605 1.1786025762557983
0.41155675053596497 -0.014361105859279633 1.5214532613754272
0.4317297339439392 -0.03340885415673256 1.463139295578003
0.43156808614730835 -0.05426923558115959 1.5150147676467896
0.5505312085151672 -0.1327967792749405 0.9811060428619385
0.46583226323127747 -0.07332230359315872 1.4452002048492432
0.4997568428516388 -0.0781565010547638 1.4051482677459717
0.4950370788574219 -0.04822768270969391 1.3505723476409912
0.5016626715660095 -0.101920485496521 1.256014347076416
0.5162234902381897 -0.06987646222114563 1.2523690462112427
0.5188143849372864 -0.05139484256505966 1.365435242652893
0.5346084237098694 -0.06637828797101974 1.3026968240737915
0.5610318183898926 -0.0933283343911171 1.2375600337982178
0.5494652390480042 -0.053018905222415924 1.3929088115692139
0.5546966791152954 -0.08193803578615189 1.3640508651733398
0.586798906326294 -0.2560424506664276 0.8361851572990417
0.6182525157928467 -0.2781867980957031 0.6949496865272522
0.6671931743621826 -0.22713226079940796 0.6799483299255371
0.6280948519706726 -0.2308833748102188 0.7160840630531311
0.6103063821792603 -0.16509807109832764 1.0430500507354736
0.6159508228302002 -0.16838116943836212 1.0003670454025269
0.6074230670928955 -0.09294967353343964 1.2334462404251099
0.7033209800720215 -0.16984188556671143 0.719319224357605
0.681830108165741 -0.16567420959472656 0.7933514714241028
0.6965324282646179 -0.1713172197341919 0.9947526454925537
0.7242956161499023 -0.1949484497308731 0.8972400426864624
0.6736319661140442 -0.19289998710155487 0.9041861295700073
0.701245903968811 -0.21811382472515106 0.9155303239822388
-0.41330403089523315 0.017615091055631638 0.7012451887130737
-0.41286665201187134 0.0009560510516166687 0.7158321738243103
-0.5299592018127441 0.14874039590358734 1.0684401988983154
-0.5249253511428833 0.16352978348731995 1.0736193656921387
-0.49924516677856445 0.13877296447753906 1.0272860527038574
-0.4437062740325928 0.09022681415081024 0.931851863861084
-0.4365469515323639 0.09019741415977478 0.9869582653045654
-0.43918895721435547 0.05277249217033386 0.8914726972579956
-0.39943015575408936 0.06351059675216675 0.9031708240509033
-0.4563140869140625 0.07236548513174057 1.039728045463562
-0.5178762078285217 0.12855365872383118 1.2034227848052979
-0.5033470988273621 0.12674447894096375 1.1654249429702759
-0.2621726989746094 0.005771707743406296 0.7205113172531128
-0.30183517932891846 0.012658350169658661 0.6615231037139893
-0.24249519407749176 -0.011270731687545776 0.5983755588531494
-0.4865051507949829 0.14431026577949524 1.2080934047698975
-0.53214430809021 0.13876929879188538 1.2522270679473877
-0.33346205949783325 -0.02510596066713333 0.7971757650375366
-0.3200584650039673 -0.04087785631418228 0.7790205478668213
-0.25521382689476013 -0.07452510297298431 0.620337724685669
-0.23196227848529816 -0.10041362792253494 0.5725608468055725
-0.3502955436706543 0.055354829877614975 0.9119936227798462
-0.5570610761642456 0.16161413490772247 1.3574062585830688
-0.3713870644569397 0.06198437511920929 0.955489993095398
-0.3266482949256897 0.053661148995161057 0.8865310549736023
-0.3979053497314453 0.03673291206359863 0.9869122505187988
-0.3905563950538635 0.0261567160487175 0.9650033116340637
-0.34238648414611816 0.06424293667078018 0.9746882319450378
-0.4184452295303345 0.06493659317493439 1.0777935981750488
-0.2983775734901428 0.026348192244768143 0.8428096771240234
-0.2671740651130676 0.0037883520126342773 0.7803291082382202
-0.4449111819267273 0.11877547204494476 1.145881175994873
-0.3897871971130371 0.09065897762775421 1.0925796031951904
-0.38613998889923096 0.059874266386032104 1.0601165294647217
-0.5124807357788086 0.14656834304332733 1.42360520362854
-0.477184921503067 0.09695402532815933 1.2331122159957886
-0.3858306109905243 0.07186108827590942 1.1440398693084717
-0.5011865496635437 0.13231179118156433 1.4899704456329346
-0.4304482340812683 0.14299333095550537 1.386716604232788
-0.43605780601501465 0.0977586954832077 1.2722573280334473
-0.3199048638343811 0.08123733103275299 1.0839295387268066
-0.3459458351135254 0.05976024270057678 1.0973308086395264
-0.41353389620780945 0.13154344260692596 1.2738515138626099
-0.3762809634208679 0.11606496572494507 1.2121329307556152
-0.38248854875564575 0.1383466124534607 1.4581297636032104
-0.36121052503585815 0.0915183499455452 1.2791715860366821
-0.30715805292129517 0.07169297337532043 1.1989569664001465
-0.2905413508415222 0.0944904163479805 1.1951192617416382
-0.2751556932926178 0.08134011924266815 1.1311246156692505
-0.2731672525405884 0.06749515235424042 1.235640048980713
-0.24866151809692383 0.08838903903961182 1.1381113529205322
-0.3506254553794861 0.1309889703989029 1.3702598810195923
-0.3081190884113312 0.09034644067287445 1.337775468826294
-0.20734184980392456 0.07198546081781387 1.1339406967163086
-0.18945778906345367 0.07112030684947968 1.1603620052337646
-0.22550556063652039 0.0949702188372612 1.4355844259262085
-0.21416263282299042 0.057845842093229294 1.2782644033432007
0.26018601655960083 -0.029115304350852966 1.1662877798080444
0.17666012048721313 0.01668979972600937 1.445937991142273
0.31854987144470215 -0.0069654155522584915 1.20850670337677
0.31110841035842896 -0.03208182379603386 1.203322410583496
0.31867751479148865 -0.012826617807149887 1.1381299495697021
0.34286296367645264 -0.012331165373325348 1.324662685394287
0.35140347480773926 -0.04977237805724144 1.2471177577972412
0.4180937707424164 -0.041844259947538376 1.090457797050476
0.3665432631969452 -0.0064098648726940155 1.480534315109253
0.423746258020401 -0.07621104270219803 1.2128876447677612
0.4631316065788269 -0.04320189356803894 1.4265581369400024
0.5694953203201294 -0.14313438534736633 0.8907262682914734
0.5907887816429138 -0.14105315506458282 0.8720949292182922
0.6024448871612549 -0.15860755741596222 0.7580418586730957
0.6131575703620911 -0.16525548696517944 0.6788456439971924
0.5997910499572754 -0.18149858713150024 0.6942865252494812
0.5528008937835693 -0.09425166994333267 1.1718717813491821
0.6209809184074402 -0.14664331078529358 0.7595859169960022
0.6283318996429443 -0.1561264842748642 0.6851418018341064
0.5562242269515991 -0.19035173952579498 0.9527862071990967
0.546800971031189 -0.19807547330856323 1.001339316368103
0.5365217924118042 -0.21763217449188232 0.9736130833625793
0.5689020156860352 -0.20638494193553925 0.901572585105896
0.6477431058883667 -0.15096643567085266 0.7867662310600281
0.6564976572990417 -0.16596673429012299 0.7022700309753418
0.616112232208252 -0.15090711414813995 0.9618930220603943
0.5748905539512634 -0.19497840106487274 0.9461449980735779
0.6048697233200073 -0.21680131554603577 0.8907099962234497
0.5680733323097229 -0.21423162519931793 0.9556262493133545
0.5855108499526978 -0.24651938676834106 0.8843483328819275
0.5763866901397705 -0.17557117342948914 1.0209749937057495
0.6207002997398376 -0.19303812086582184 0.9686049222946167
0.6442285776138306 -0.23727798461914062 0.7284889221191406
0.629504919052124 -0.26899951696395874 0.6684653162956238
0.6786496043205261 -0.1986483931541443 0.6711386442184448
0.6219176054000854 -0.14189723134040833 1.0402671098709106
0.6479295492172241 -0.17728900909423828 0.8243056535720825
0.6243886947631836 -0.2508934736251831 0.7990648150444031
0.6467716693878174 -0.24220454692840576 0.7883540391921997
0.6796264052391052 -0.2367284595966339 0.7029464840888977
0.6791490316390991 -0.1673000603914261 0.9733182787895203
0.6999558806419373 -0.16584567725658417 0.9423001408576965
0.7112120985984802 -0.21442779898643494 0.7657849788665771
0.7023103833198547 -0.2184893786907196 0.7864693403244019
0.6143206357955933 -0.12024936825037003 1.1433556079864502
0.7088562250137329 -0.12161383032798767 1.0937868356704712
0.6693340539932251 -0.13940897583961487 1.0917301177978516
0.6540303230285645 -0.09629637002944946 1.2870495319366455
0.6546236276626587 -0.10344535112380981 1.2395838499069214
0.6524537801742554 -0.0995851531624794 1.235754370689392
0.6534391641616821 -0.11983056366443634 1.2200899124145508
0.6909699440002441 -0.118707075715065 1.1534210443496704
0.679296612739563 -0.12574079632759094 1.1749534606933594
-0.4682605266571045 0.09653860330581665 0.8686134815216064
-0.4698125123977661 0.07415703684091568 0.8854288458824158
-0.4614071846008301 0.05073699355125427 0.8563975691795349
-0.2533947825431824 -0.055373746901750565 0.5880494117736816
-0.24855323135852814 -0.10269813239574432 0.5528897047042847
-0.3194749355316162 -0.0356593020260334 0.7774823904037476
-0.3219286799430847 -0.049458157271146774 0.7216339111328125
-0.33271753787994385 -0.0747416615486145 0.7637118697166443
-0.3055448532104492 -0.08286213129758835 0.6510669589042664
-0.2716241478919983 -0.06528844684362411 0.6643323302268982
-0.2592821717262268 -0.09889763593673706 0.6330012679100037
-0.37480872869491577 0.00577787309885025 0.914828896522522
-0.35207128524780273 -0.028131313621997833 0.8716217875480652
-0.3639758825302124 -0.008608821779489517 0.8688627481460571
-0.2896696925163269 -0.08514783531427383 0.7032191157341003
-0.28210586309432983 -0.06015453860163689 0.7022068500518799
-0.32442182302474976 -0.05925508588552475 0.7999792098999023
-0.30693864822387695 -0.04491554573178291 0.7500976324081421
-0.408862829208374 0.09518466889858246 1.0541530847549438
-0.30565398931503296 0.047029342502355576 0.9064571261405945
-0.27875810861587524 0.03567880392074585 0.9500479698181152
-0.2731311321258545 0.05703188478946686 0.9470252990722656
-0.371351957321167 0.055080901831388474 1.0948915481567383
-0.30749234557151794 0.05900038406252861 1.038895845413208
-0.28271377086639404 0.062114935368299484 0.9818088412284851
-0.2788233757019043 0.04182622209191322 0.9738122224807739
-0.3516174554824829 0.09409735351800919 1.3378636837005615
-0.2817240357398987 0.08031629025936127 1.071486234664917
-0.275255411863327 0.053570590913295746 1.1187551021575928
-0.2525697350502014 0.08069083094596863 1.0763084888458252
-0.210959792137146 0.05756830424070358 1.1262381076812744
-0.22254586219787598 0.07446218281984329 1.0926998853683472
-0.18141108751296997 0.06187383830547333 1.1890919208526611
0.4781944751739502 -0.06688768416643143 1.089725136756897
0.42808040976524353 -0.02961261197924614 1.593969464302063
0.5501704812049866 -0.10481330007314682 1.0562231540679932
0.5042356252670288 -0.0730946734547615 1.0332719087600708
0.5185564160346985 -0.11432544887065887 1.0313588380813599
0.5322245955467224 -0.09845972806215286 1.0232473611831665
0.4992808699607849 -0.07051931321620941 1.2334964275360107
0.5253888964653015 -0.1493740826845169 1.0598784685134888
0.5433167815208435 -0.16565020382404327 1.0043399333953857
0.5254315733909607 -0.1856672763824463 1.0276384353637695
0.5311994552612305 -0.18897120654582977 0.9967156052589417
0.553088366985321 -0.1797349900007248 0.9413201808929443
0.601976215839386 -0.2020624727010727 0.7365052700042725
0.6163783669471741 -0.20796523988246918 0.6839090585708618
0.6443317532539368 -0.19913478195667267 0.673417866230011
0.575771689414978 -0.13595709204673767 1.0376477241516113
0.5904746651649475 -0.14048877358436584 0.9987326264381409
0.5699670314788818 -0.19656752049922943 0.9763779044151306
0.5657894611358643 -0.20352044701576233 0.9352661371231079
0.5525330901145935 -0.2341678887605667 0.9057124853134155
0.5197355151176453 -0.09654850512742996 1.3499646186828613
0.6392064094543457 -0.1659589409828186 0.969450831413269
0.6678758859634399 -0.18046095967292786 0.9238404035568237
0.620872974395752 -0.15641866624355316 1.0987284183502197
0.7012091279029846 -0.25000420212745667 0.7493760585784912
0.7071036696434021 -0.2106126993894577 0.7117757797241211
0.661577582359314 -0.19218488037586212 0.955116868019104
0.6684549450874329 -0.20973634719848633 0.9029178023338318
0.735337495803833 -0.1538255661725998 1.086013674736023
0.6906648874282837 -0.1891033947467804 1.0481774806976318
0.7131263613700867 -0.16972681879997253 1.040327548980713
0.7324038743972778 -0.2101108878850937 0.9084784984588623
0.7318870425224304 -0.1873052716255188 0.9149123430252075
-0.5098423957824707 0.13387545943260193 1.0318126678466797
-0.2678735852241516 -0.04655960574746132 0.5279409885406494
-0.3833328187465668 0.0012761391699314117 0.8506642580032349
-0.3629533648490906 -0.022204644978046417 0.8241868019104004
-0.40461599826812744 0.0347638837993145 0.8914664387702942
-0.5199918746948242 0.14126929640769958 1.3486642837524414
-0.3848629593849182 0.0698685422539711 0.9255903959274292
-0.37014949321746826 0.04676540568470955 0.89722740650177
-0.21446585655212402 -0.061538711190223694 0.5705899596214294
-0.19824399054050446 -0.035157158970832825 0.5680014491081238
-0.3371378779411316 -0.00776798278093338 0.8720318078994751
-0.32240110635757446 -0.03189767524600029 0.8215209245681763
-0.3336678743362427 -0.02607857435941696 0.8653478622436523
-0.49955737590789795 0.11846202611923218 1.3029999732971191
-0.44993850588798523 0.12647902965545654 1.196478009223938
-0.2331186830997467 0.09166434407234192 1.1968199014663696
0.16269423067569733 0.006418386474251747 1.2513151168823242
0.1490057408809662 -0.007844390347599983 1.2602194547653198
0.26195189356803894 -0.03252517431974411 1.208882212638855
0.2702347934246063 -0.01861078292131424 1.1332857608795166
0.3349529206752777 -0.01806870475411415 1.25587797164917
0.4039073884487152 -0.045798011124134064 1.1388992071151733
0.3969048261642456 -0.06109660863876343 1.1234391927719116
0.4486062526702881 -0.07484553754329681 1.2823046445846558
0.4637625813484192 -0.08472216129302979 1.3651654720306396
0.49561646580696106 -0.10428555309772491 1.1787184476852417
0.5496105551719666 -0.22357620298862457 0.9084327220916748
0.5850369930267334 -0.21536502242088318 0.858369767665863
0.5782489776611328 -0.24931912124156952 0.8165625929832458
0.5995961427688599 -0.22921055555343628 0.7600055932998657
0.5777913928031921 -0.15134060382843018 1.102821946144104
0.6363639831542969 -0.27598345279693604 0.6919922828674316
-0.45479816198349 0.05981289595365524 0.8792729377746582
-0.2513521909713745 -0.01938573643565178 0.7256304621696472
-0.22598791122436523 -0.03295833617448807 0.6703207492828369
-0.5316952466964722 0.14838923513889313 1.4568058252334595
-0.27495789527893066 0.072795070707798 1.059259057044983
-0.26028677821159363 0.06986396014690399 1.0290228128433228
-0.2483038753271103 0.06176107004284859 1.0634727478027344
-0.20493608713150024 0.0701819360256195 1.103150486946106
-0.15282714366912842 0.051753751933574677 1.2598682641983032
-0.16193631291389465 0.034637488424777985 1.2623835802078247
0.381391704082489 -0.050037745386362076 1.4128162860870361
0.4038798213005066 -0.0566372312605381 1.4665299654006958
0.5746435523033142 -0.12241900712251663 1.067427158355713
0.5745709538459778 -0.12121275812387466 0.9899856448173523
0.5231069326400757 -0.1259986311197281 1.1767833232879639
0.5668262243270874 -0.1875055581331253 0.883193850517273
0.5907220840454102 -0.13928401470184326 1.148229956626892
0.5761516690254211 -0.11950752884149551 1.234775185585022
0.6670719385147095 -0.16454792022705078 1.0706984996795654
0.6672481298446655 -0.18142832815647125 1.0061726570129395
0.6863115429878235 -0.2282477468252182 0.8386470079421997
0.6461935639381409 -0.24774394929409027 0.7509437799453735
0.7049275040626526 -0.2091137021780014 0.8288743495941162
-0.2661092281341553 -0.06582613289356232 0.5580888986587524
-0.22304083406925201 -0.04263688996434212 0.5553133487701416
-0.32409995794296265 -0.04084281623363495 0.7721034288406372
-0.26374560594558716 -0.0664009377360344 0.6201629638671875
-0.22170239686965942 -0.06557536870241165 0.6150156855583191
-0.3260394334793091 0.028558041900396347 0.9297061562538147
-0.25374701619148254 0.06630134582519531 1.2089924812316895
-0.24065786600112915 0.06353901326656342 1.1528675556182861
-0.2399655282497406 0.0752394050359726 1.1263320446014404
-0.21772527694702148 0.05465544015169144 1.2029430866241455
-0.19215241074562073 0.0411471426486969 1.1366159915924072
-0.1869085133075714 0.0557117760181427 1.1245319843292236
0.274861603975296 -0.004223157651722431 1.1385351419448853
0.5065199732780457 -0.12410277128219604 1.1015747785568237
0.5390639305114746 -0.15622280538082123 1.101921558380127
0.5517271757125854 -0.172209233045578 1.0576539039611816
0.6550586819648743 -0.22276632487773895 0.8879351615905762
-0.3290610909461975 -0.021547693759202957 0.6223640441894531
-0.319640576839447 -0.051181644201278687 0.593025803565979
-0.31323128938674927 -0.039335478097200394 0.5883554220199585
-0.3532538414001465 0.03931653872132301 0.8137266635894775
-0.30485647916793823 -0.023639384657144547 0.790273129940033
-0.3178432583808899 -0.022801663726568222 0.8427810668945312
-0.18246501684188843 0.04851250350475311 1.2229132652282715
-0.14987991750240326 0.04220407456159592 1.332503318786621
-0.13698147237300873 0.04725024104118347 1.3213139772415161
0.14964008331298828 -0.0168386772274971 1.2732266187667847
0.19645562767982483 0.017771422863006592 1.6661732196807861
0.3662431836128235 0.0061721280217170715 1.6114153861999512
0.3882627785205841 -0.013146325945854187 1.630729079246521
0.4449903964996338 -0.03099849447607994 1.5620324611663818
0.6095705032348633 -0.08696528524160385 1.3099151849746704
0.6351966261863708 -0.0894121453166008 1.34662663936615
0.6370254158973694 -0.0735333263874054 1.2830005884170532
0.6406787633895874 -0.09989800304174423 1.2685582637786865
0.6660216450691223 -0.08504126220941544 1.2838776111602783
-0.5022220015525818 0.11673104763031006 0.9649237990379333
-0.48750609159469604 0.12652018666267395 0.9445915818214417
-0.5573365688323975 0.17151956260204315 1.21102774143219
-0.5346843600273132 0.17134428024291992 1.200469732284546
-0.26382702589035034 -0.01102931797504425 0.5738495588302612
-0.24553094804286957 -0.027742642909288406 0.5312379598617554
-0.2956364154815674 -0.061900436878204346 0.6587538123130798
-0.3279174864292145 0.024927977472543716 0.765295684337616
-0.39413681626319885 0.08289182186126709 0.9770997762680054
-0.5238773226737976 0.15223200619220734 1.5078332424163818
0.2686077058315277 -0.006072951480746269 1.2040867805480957
0.2838136553764343 0.006199736148118973 1.4359885454177856
0.4232296347618103 -0.05169250816106796 1.1576541662216187
0.40261390805244446 -0.024496830999851227 1.2836071252822876
0.4667496681213379 -0.07536011934280396 1.0911800861358643
0.48599788546562195 -0.08981145918369293 1.0415754318237305
0.4689094126224518 -0.10590450465679169 1.1241086721420288
0.5822769403457642 -0.16134901344776154 0.8383136987686157
0.5900747179985046 -0.18086080253124237 0.8265987634658813
0.5906766057014465 -0.2234375923871994 0.8987732529640198
0.6511055827140808 -0.14774438738822937 1.0678462982177734
0.6917197108268738 -0.1730506271123886 0.8461050391197205
-0.28606149554252625 -0.0515386238694191 0.5626400709152222
-0.23925547301769257 -0.05387730896472931 0.5243118405342102
-0.24936480820178986 0.08139313757419586 1.0317333936691284
-0.215307354927063 0.0828033834695816 1.122773289680481
-0.18950624763965607 0.05194650590419769 1.1773734092712402
0.6623496413230896 -0.16943971812725067 0.8800736665725708
0.6957195401191711 -0.2238462269306183 0.6455538868904114
0.7029304504394531 -0.2271169275045395 0.6614720225334167
-0.3481029272079468 -0.02704191952943802 0.8073591589927673
-0.2735738754272461 -0.02222493290901184 0.7407698631286621
-0.25842469930648804 -0.04621327295899391 0.6967728137969971
0.48446139693260193 -0.05231262743473053 1.4835288524627686
0.7104523181915283 -0.2052186280488968 0.6530609130859375
0.7059122323989868 -0.19512036442756653 0.9707667827606201
-0.25277388095855713 0.09903178364038467 1.2725708484649658
0.681105375289917 -0.1592261642217636 1.062002182006836
-0.2856716215610504 0.0021839849650859833 0.8144304752349854
0.6073974370956421 -0.25639069080352783 0.7067989706993103
0.6710080504417419 -0.16134728491306305 1.047299861907959
-0.3413577079772949 -0.051430389285087585 0.7708088159561157
-0.36818504333496094 -0.14261135458946228 0.9724716544151306
-0.372620165348053 -0.13892275094985962 0.9842052459716797
-0.35635602474212646 -0.16047507524490356 0.9825838208198547
-0.3635587990283966 -0.1590643674135208 0.9937254190444946
-0.34298670291900635 -0.10941770672798157 1.0409330129623413
-0.3482561707496643 -0.12546198070049286 1.0200648307800293
-0.3390708565711975 -0.11229301989078522 0.9909944534301758
-0.33740705251693726 -0.08581897616386414 1.023878812789917
-0.33665138483047485 -0.13998450338840485 1.0282056331634521
-0.3394341468811035 -0.16961604356765747 1.0174884796142578
-0.3239644765853882 -0.07283536344766617 1.1029541492462158
-0.31845781207084656 -0.16699281334877014 1.0189965963363647
-0.3338494300842285 -0.13246901333332062 1.0166058540344238
-0.3182912766933441 -0.1487215757369995 1.0576646327972412
-0.32067400217056274 -0.1239333301782608 1.046877145767212
-0.3140515983104706 -0.06070758029818535 1.072103500366211
-0.31424131989479065 -0.11480997502803802 1.047102451324463
-0.3149530291557312 -0.12156035006046295 1.0709186792373657
-0.3204657733440399 -0.09860166907310486 1.0989532470703125
-0.33721014857292175 -0.056584037840366364 1.1340234279632568
-0.3261003792285919 -0.10805211961269379 1.1308972835540771
-0.3032165765762329 -0.006462827790528536 1.1604273319244385
-0.3120242953300476 -0.01608908362686634 1.1153700351715088
-0.3268572986125946 -0.05784628540277481 1.1682757139205933
-0.2783470153808594 -0.014714645221829414 1.1047122478485107
-0.28132951259613037 -0.04057491570711136 1.220231533050537
-0.29363372921943665 -0.10173098742961884 1.1787378787994385
-0.2788497805595398 0.005693175829946995 1.1473524570465088
-0.246344655752182 -0.0009652115404605865 1.1587246656417847
-0.2513110637664795 0.007633345201611519 1.2157694101333618
-0.22760099172592163 0.00793600082397461 1.215358018875122
-0.22121983766555786 -0.044334519654512405 1.2888820171356201
-0.25835689902305603 -0.07551029324531555 1.2252557277679443
-0.21799810230731964 0.014796297997236252 1.2601608037948608
-0.24361878633499146 -0.014376983046531677 1.2687996625900269
-0.20553921163082123 0.01274384930729866 1.2988430261611938
-0.19036152958869934 0.01022190973162651 1.3338985443115234
-0.18313999474048615 -0.038195885717868805 1.3437461853027344
-0.21111932396888733 -0.0833442434668541 1.246997356414795
-0.19146062433719635 0.060742996633052826 1.7359317541122437
-0.1378358006477356 0.11004866659641266 1.4012465476989746
-0.13065773248672485 0.06655652821063995 0.873913049697876
-0.1774059236049652 0.017232626676559448 0.8817750215530396
-0.1542367935180664 -0.07544319331645966 0.8863450288772583
-0.197473406791687 -0.10345378518104553 0.8775124549865723
-0.174941748380661 0.07144013047218323 1.6420009136199951
-0.19814369082450867 0.04720449820160866 1.7583550214767456
-0.16650299727916718 0.05396852642297745 1.7073605060577393
-0.14813439548015594 0.08331701904535294 1.6570525169372559
-0.1575077623128891 0.06529627740383148 1.6067777872085571
-0.11558347195386887 0.00039574503898620605 1.0425388813018799
-0.15299132466316223 -0.05084279179573059 1.006885051727295
-0.15951165556907654 -0.1199350357055664 0.994932234287262
-0.15313749015331268 0.04545694589614868 1.5369980335235596
-0.2906135320663452 -0.0681837722659111 0.06911679357290268
-0.3059946894645691 -0.128025621175766 0.03304912894964218
-0.30886584520339966 -0.15354959666728973 0.0495242178440094
-0.15406139194965363 -0.023815181106328964 1.3922661542892456
-0.14585484564304352 0.01747475191950798 1.3372817039489746
-0.1388685703277588 -0.008882928639650345 1.3187445402145386
-0.16198743879795074 -0.036250777542591095 1.3804982900619507
-0.1449631303548813 -0.07943475991487503 1.3374954462051392
-0.22987525165081024 -0.034263938665390015 0.48650726675987244
-0.231243297457695 -0.0619758702814579 0.4026890695095062
-0.24303632974624634 -0.010562097653746605 0.33899515867233276
-0.2478737086057663 -0.0357632040977478 0.36945024132728577
-0.16117644309997559 0.06241895630955696 1.6760579347610474
-0.14056053757667542 -0.05019654333591461 1.2880374193191528
-0.1427077203989029 -0.06098778918385506 1.2450931072235107
-0.14482147991657257 -0.087282694876194 1.2767459154129028
-0.16968931257724762 -0.10201232880353928 1.278119683265686
-0.23872889578342438 0.0003201299114152789 0.2667052447795868
-0.1545179933309555 -0.021042916923761368 1.534226894378662
-0.14275524020195007 0.050314489752054214 1.537975788116455
-0.1498761624097824 0.02173314243555069 1.5311907529830933
-0.19742527604103088 -0.06911161541938782 0.5847470164299011
-0.11222445964813232 0.04540611058473587 1.771675944328308
-0.12881208956241608 -0.10795619338750839 1.2144205570220947
-0.1175575703382492 -0.033878181129693985 1.1601074934005737
-0.13820140063762665 -0.1250135600566864 0.7550051212310791
-0.11642957478761673 0.09692339599132538 1.7181910276412964
-0.13331739604473114 -0.05650514364242554 1.406395673751831
-0.10542790591716766 -0.11788442730903625 0.8577886819839478
-0.14060890674591064 -0.1310192346572876 0.8797061443328857
-0.12389358133077621 -0.19994904100894928 0.9190977811813354
-0.1076575368642807 -0.2152554988861084 0.8548343181610107
-0.28267303109169006 -0.19179722666740417 0.06800603121519089
-0.07689165323972702 0.11903108656406403 1.7169567346572876
-0.10537252575159073 0.05626346915960312 1.757162094116211
-0.15378351509571075 0.0019348673522472382 1.444383978843689
-0.13568690419197083 -0.024313241243362427 1.4925392866134644
-0.20538927614688873 0.013026115484535694 0.3350602984428406
-0.23462630808353424 -0.011845669709146023 0.2181738018989563
-0.2720577120780945 -0.18986037373542786 0.11063294112682343
-0.24081358313560486 -0.006959263235330582 0.07618165016174316
-0.11389301717281342 -0.006157681345939636 1.3220634460449219
-0.1782541126012802 -0.09646283835172653 0.5577549934387207
-0.23781873285770416 -0.14940938353538513 0.01201061811298132
-0.2800084948539734 -0.15052972733974457 0.0064003304578363895
-0.1072256863117218 0.04368465021252632 1.5541155338287354
-0.10926923900842667 0.013334110379219055 1.5111457109451294
-0.032073501497507095 -0.2175283133983612 0.9103943109512329
-0.07988253980875015 0.08929001539945602 0.8683983683586121
-0.23428262770175934 -0.1149093359708786 0.27785706520080566
-0.21119694411754608 -0.11260455846786499 0.20184622704982758
-0.21964015066623688 -0.016597453504800797 0.11916803568601608
-0.09793077409267426 -0.004460662603378296 1.2876441478729248
-0.10512064397335052 -0.025196973234415054 1.2463937997817993
-0.07684828341007233 -0.12513557076454163 1.3202238082885742
-0.14366711676120758 -0.02874654158949852 0.6770394444465637
-0.12054739147424698 -0.12694567441940308 0.7449541687965393
-0.07616131752729416 -0.1172388419508934 0.8172597289085388
-0.20300376415252686 -0.12057805061340332 0.1683948040008545
-0.2266547530889511 -0.18347615003585815 0.07762821018695831
-0.12888199090957642 -0.07563942670822144 1.4866770505905151
-0.09803237020969391 0.0058752186596393585 1.357601284980774
-0.06733617931604385 -0.0002335086464881897 1.29209566116333
-0.14752766489982605 -0.0994143933057785 0.5797159671783447
-0.12346968799829483 -0.07973165065050125 0.5802353024482727
-0.16470381617546082 0.016649067401885986 0.5213446617126465
-0.09902572631835938 -0.06378449499607086 1.4576022624969482
-0.07479965686798096 -0.022533178329467773 1.4386358261108398
-0.10459958761930466 0.01783333346247673 1.397533893585205
-0.13535873591899872 -0.020235490053892136 0.5262362957000732
-0.06296254694461823 0.07072921097278595 1.7600812911987305
-0.12077079713344574 -0.11609119921922684 1.6225452423095703
-0.035917941480875015 -0.18855971097946167 0.9939647912979126
-0.07827502489089966 -0.03354962542653084 1.4527966976165771
-0.05690610408782959 -0.0624360516667366 1.438039779663086
-0.07735620439052582 -0.04681894928216934 1.4320690631866455
-0.0676056370139122 -0.11421778798103333 1.5537300109863281
-0.1076030284166336 -0.10795484483242035 1.4998834133148193
-0.054050713777542114 -0.0026064887642860413 1.462701678276062
-0.10662894695997238 -0.044519245624542236 0.6463356018066406
-0.019813913851976395 0.024155668914318085 1.783416748046875
-0.034852270036935806 0.12703371047973633 1.686683177947998
-0.05558377876877785 -0.1308981478214264 1.5048776865005493
-0.06991598010063171 -0.10873774439096451 1.458182454109192
-0.037225142121315 -0.01156267523765564 1.437947392463684
-0.04390815645456314 -0.11031492799520493 1.4581423997879028
-0.007010962814092636 0.008459657430648804 1.413498044013977
-0.028484998270869255 -0.013234209269285202 1.2861753702163696
-0.01529543474316597 0.07915448397397995 1.7583303451538086
-0.015888454392552376 -0.01432335376739502 1.4672454595565796
-0.02051316574215889 -0.05764419585466385 1.4534895420074463
0.013264041393995285 0.09517377614974976 1.7172117233276367
-0.005382038652896881 0.0356457456946373 1.7644150257110596
-0.015305496752262115 -0.049118511378765106 1.4397313594818115
0.01373109221458435 -0.07935177534818649 1.4786003828048706
-0.010118361562490463 -0.02826540172100067 1.4460973739624023
0.07887163758277893 -0.09147826582193375 0.6012606024742126
0.014733739197254181 0.01270720362663269 1.4966915845870972
0.1141326054930687 -0.11068418622016907 0.5185958743095398
0.0022053346037864685 -0.1638425588607788 1.2772845029830933
0.04843147471547127 -0.04090922325849533 1.2669003009796143
0.050881460309028625 -0.06907360255718231 1.1533315181732178
0.14979441463947296 -0.11720455437898636 0.0829484686255455
0.16642341017723083 -0.10833132266998291 0.06512629240751266
0.1371758133172989 0.008410833775997162 0.09377598762512207
0.017249861732125282 -0.14722293615341187 1.2627540826797485
0.00595194473862648 -0.18787658214569092 1.1875646114349365
0.07370413094758987 -0.1413949429988861 0.7423359751701355
0.13228295743465424 -0.040909528732299805 0.06667762994766235
0.04452846199274063 0.026525266468524933 1.7244300842285156
0.0029882416129112244 -0.1237546056509018 1.6312814950942993
-0.0036736615002155304 -0.10761473327875137 1.5447713136672974
0.0005744919180870056 -0.10937059670686722 1.4997626543045044
0.09982648491859436 -0.16053935885429382 0.8863648772239685
0.09277498722076416 0.018423564732074738 1.7520437240600586
0.020949970930814743 0.010487232357263565 1.5516303777694702
0.019787535071372986 -0.00739133358001709 1.5221043825149536
0.1380099207162857 -0.018078915774822235 0.34023523330688477
0.13027611374855042 -0.006781149655580521 0.2791198492050171
0.14914685487747192 0.01924874633550644 0.07673892378807068
0.037282735109329224 0.011357616633176804 1.8100523948669434
0.05499203875660896 -0.00993838906288147 1.4191335439682007
0.10035155713558197 -0.2193221151828766 0.8734289407730103
0.09116824716329575 -0.13169202208518982 0.873801589012146
0.13066862523555756 -0.19500857591629028 0.8750468492507935
0.09896815568208694 -0.041580572724342346 0.7621758580207825
0.19372621178627014 -0.10756798088550568 0.07677244395017624
0.052537232637405396 0.014798581600189209 1.735554814338684
0.03934390842914581 -0.1580204963684082 1.1542456150054932
0.04588905721902847 -0.1333698332309723 1.2812561988830566
0.04800863564014435 -0.14947396516799927 1.2786051034927368
0.12655767798423767 -0.18934312462806702 0.9430545568466187
0.0421050488948822 -0.06258828938007355 1.5660388469696045
0.050506964325904846 0.01130722090601921 1.5612038373947144
0.04564957320690155 -0.014163501560688019 1.5498833656311035
0.05276314914226532 -0.030407927930355072 1.5446505546569824
0.06309650838375092 -0.04232843965291977 1.5212559700012207
0.13920436799526215 -0.0660247951745987 0.6607527732849121
0.13714392483234406 -0.13225272297859192 0.6802849769592285
0.07095813751220703 -0.04631057381629944 1.3988900184631348
0.07443114370107651 0.0025447309017181396 1.338902473449707
0.0402558296918869 -0.0014285296201705933 1.3545057773590088
0.05086242035031319 -0.0227813720703125 1.3309056758880615
0.1270417422056198 -0.11900538951158524 0.8424432873725891
0.1934085488319397 0.003116890788078308 0.07996529340744019
0.2078196257352829 -0.0212867334485054 0.07357315719127655
0.06443274021148682 0.00588081032037735 1.6888409852981567
0.08039645850658417 -0.024200156331062317 1.3923909664154053
0.2013513147830963 -0.06261052191257477 0.3249397873878479
0.08747394382953644 0.023585017770528793 1.6629372835159302
0.06518658995628357 0.050519783049821854 1.6666810512542725
0.0737326443195343 0.01998724415898323 1.63114333152771
0.20987382531166077 -0.03190598636865616 0.1496533453464508
0.21734829246997833 -0.07752827554941177 0.07712356001138687
0.20432689785957336 -0.1083674430847168 0.10344767570495605
0.1534671187400818 -0.01435828860849142 0.9832849502563477
0.1527748703956604 -0.01543876901268959 0.8837969899177551
0.09043247997760773 -0.0018739961087703705 1.7499920129776
0.17025640606880188 0.03800918161869049 0.8912630677223206
0.18166646361351013 0.0014353832229971886 0.9547571539878845
0.1004013866186142 -0.00656706839799881 1.3332186937332153
0.1149447113275528 -0.02680385112762451 1.3195810317993164
0.08276887983083725 -0.04944209009408951 1.365556240081787
0.11359431594610214 -0.013281084597110748 1.2788394689559937
0.10365279018878937 -0.017782941460609436 1.2583332061767578
0.12401992082595825 -0.09290459752082825 1.2416132688522339
0.13500049710273743 -0.0477275475859642 1.2793853282928467
0.15586969256401062 -0.021329060196876526 1.2144443988800049
0.17402008175849915 -0.026881754398345947 1.1378114223480225
0.19969293475151062 -0.04158211499452591 1.154853343963623
0.18341860175132751 -0.05846615880727768 1.2030160427093506
0.1581588238477707 -0.09644974768161774 1.2228093147277832
0.2056065797805786 -0.05966486036777496 1.102548599243164
0.22124582529067993 -0.12879593670368195 1.154481053352356
0.2319982945919037 -0.10456088185310364 1.1351569890975952
0.22381821274757385 -0.07855606824159622 1.106912612915039
0.18272799253463745 -0.164667010307312 1.1363165378570557
0.20506063103675842 -0.1336176097393036 1.1032774448394775
0.2070288509130478 -0.11284245550632477 1.0908395051956177
0.24584519863128662 -0.19184249639511108 0.9875061511993408
0.18528461456298828 -0.15086816251277924 1.1029964685440063
0.1845213770866394 -0.16703245043754578 1.0748573541641235
0.22506161034107208 -0.14774146676063538 1.0206736326217651
0.19039535522460938 -0.15690647065639496 1.0497087240219116
0.1850978136062622 -0.18438085913658142 1.052636742591858
0.20945489406585693 -0.17881450057029724 1.0214248895645142
0.2303789258003235 -0.1854737401008606 1.015518069267273
0.1833188235759735 -0.20870956778526306 1.0245931148529053
0.20859044790267944 -0.19879969954490662 1.0151870250701904
0.19496722519397736 -0.2019379734992981 1.0241987705230713
0.23830139636993408 -0.19868174195289612 0.9673066139221191
0.20333220064640045 -0.21637208759784698 1.0118025541305542
0.22201967239379883 -0.18304648995399475 0.9815297722816467
0.22276955842971802 -0.21654276549816132 0.9802486896514893
0.2403707504272461 -0.20996984839439392 0.983259916305542
-0.3174459934234619 -0.0504726804792881 1.0961322784423828
-0.30426520109176636 -0.10883697867393494 1.0867623090744019
-0.29274576902389526 -0.09157010167837143 1.082595944404602
-0.3078947365283966 -0.1272830069065094 1.12309992313385
-0.26120027899742126 -0.047492362558841705 1.0909759998321533
-0.28139281272888184 -0.1261289119720459 1.1074379682540894
-0.20520569384098053 -0.010011754930019379 1.236846923828125
-0.20062100887298584 -0.06475318968296051 1.2154614925384521
-0.17295168340206146 -0.0978277176618576 0.9724042415618896
-0.17667153477668762 -0.015705564990639687 0.9530916213989258
-0.12677103281021118 0.051265470683574677 0.9371868371963501
-0.10518448054790497 0.15332278609275818 1.2592928409576416
-0.0974201112985611 0.15020287036895752 1.2006937265396118
-0.09872712194919586 0.1735931634902954 1.170395851135254
-0.15155640244483948 -0.011356283910572529 0.9742295742034912
-0.20574386417865753 0.03993208706378937 1.7277158498764038
-0.15490595996379852 0.007813610136508942 1.3577193021774292
-0.17544128000736237 0.007115021347999573 1.2903236150741577
-0.03075755015015602 0.16473466157913208 1.0724014043807983
-0.05645565316081047 0.16978614032268524 0.9915562868118286
-0.2930545210838318 -0.0857531800866127 0.12790077924728394
-0.3097154200077057 -0.13785064220428467 0.0799521803855896
-0.18121901154518127 0.03255511820316315 1.7095152139663696
-0.16532105207443237 0.04232007637619972 1.6547880172729492
-0.15516124665737152 -0.12449032068252563 1.2549984455108643
-0.15457141399383545 -0.14152884483337402 1.2278220653533936
-0.15858623385429382 -0.16188204288482666 1.2245680093765259
-0.10965670645236969 0.1149716004729271 1.3764997720718384
-0.10119469463825226 0.10613442212343216 1.3715234994888306
-0.13543035089969635 -0.12561729550361633 1.2699873447418213
-0.14853808283805847 -0.05418802425265312 1.2101929187774658
-0.2648167014122009 -0.1031341478228569 0.19413118064403534
-0.2704913020133972 -0.05792456120252609 0.2007729411125183
-0.05499300733208656 0.1297462284564972 1.2538950443267822
-0.15988364815711975 -0.009443346410989761 1.4570581912994385
-0.15961892902851105 -0.003853030502796173 1.4355723857879639
-0.14556485414505005 -0.008423030376434326 1.4177055358886719
-0.15939606726169586 -0.002114124596118927 1.4141157865524292
-0.1582232117652893 -0.022040411829948425 1.405770182609558
-0.15039752423763275 -0.10861890017986298 0.7997466325759888
-0.16209521889686584 -0.07036948949098587 0.7953486442565918
-0.02458193339407444 0.2244207262992859 1.0806883573532104
-0.026763230562210083 0.2221924513578415 1.1322039365768433
-0.12664397060871124 -0.1185595914721489 1.2668310403823853
-0.12964993715286255 -0.10870685428380966 0.8716665506362915
-0.26607418060302734 -0.022873826324939728 0.12670540809631348
-0.27133747935295105 -0.022472642362117767 0.08890575170516968
-0.14022274315357208 -0.1867867112159729 0.8574247360229492
-0.055019550025463104 0.19041934609413147 1.2352304458618164
-0.16055431962013245 -0.08454062044620514 1.6200073957443237
-0.13180361688137054 0.02802896499633789 1.5354371070861816
-0.09948787838220596 0.11360003054141998 1.502901554107666
-0.10024955123662949 0.07688593864440918 1.5621700286865234
-0.11953649669885635 0.07608886808156967 1.5353057384490967
-0.10500544309616089 0.09382972121238708 1.4496155977249146
-0.05366664007306099 0.13534817099571228 1.545773983001709
-0.12239812314510345 -0.008710771799087524 1.4874908924102783
-0.08483169972896576 0.043963707983493805 0.9803529977798462
-0.13957197964191437 0.03856069594621658 1.8115440607070923
-0.15087532997131348 0.031503356993198395 1.806025505065918
-0.15246105194091797 0.020288318395614624 1.7917659282684326
-0.022061163559556007 0.0759572684764862 1.441853642463684
-0.07860380411148071 0.12733270227909088 1.4195762872695923
-0.21034672856330872 -0.08540882170200348 0.05007427930831909
-0.027849344536662102 0.16424180567264557 1.3653054237365723
-0.12302445620298386 -0.08557732403278351 1.532760739326477
-0.18116697669029236 -0.06486084312200546 0.4047411382198334
-0.06221776828169823 0.07474625110626221 1.5036470890045166
-0.08610849827528 0.034714266657829285 1.4870741367340088
-0.03222221881151199 0.13881823420524597 1.4668669700622559
-0.03248356282711029 0.051890403032302856 0.8625785112380981
-0.18932966887950897 -0.0016808158252388239 0.354763388633728
0.02088800258934498 0.18387717008590698 0.990161657333374
-0.03212106227874756 0.03740379959344864 1.038196325302124
-0.10768832266330719 -0.1505030393600464 1.265859603881836
-0.1009197011590004 -0.1527918428182602 1.1636273860931396
-0.17777186632156372 -0.029307778924703598 0.3329893946647644
-0.16279162466526031 -0.04429476335644722 0.2705283761024475
-0.19354398548603058 0.005111041013151407 0.2657061815261841
-0.06959642469882965 0.05758066847920418 1.5230463743209839
-0.09183038771152496 -0.10377268493175507 0.694438099861145
-0.11725188791751862 -0.029730360954999924 0.6673176288604736
0.02864961512386799 0.22710558772087097 1.1226391792297363
0.03369420766830444 0.21705666184425354 1.036757469177246
-0.05437670275568962 -0.18515047430992126 1.1906906366348267
-0.19111844897270203 -0.0702727660536766 0.13474313914775848
0.023750226944684982 0.16649135947227478 1.0309298038482666
0.01544158160686493 0.14597491919994354 1.0683257579803467
-0.0004543215036392212 0.05525458604097366 1.5143219232559204
-0.08862444758415222 -0.08108295500278473 1.4000577926635742
0.02551538124680519 0.17098312079906464 1.3448615074157715
0.02301677130162716 0.06559347361326218 1.4323725700378418
-0.009019453078508377 0.04693688824772835 1.515097975730896
0.07457584887742996 0.1597711443901062 1.0394189357757568
0.09215861558914185 0.14594018459320068 0.996537446975708
-0.024181531742215157 -0.09889934211969376 1.396242618560791
0.013855822384357452 0.03656400367617607 1.0366692543029785
-0.02743140235543251 -0.19935286045074463 1.118709683418274
0.08865129947662354 0.14058628678321838 1.3697336912155151
0.010008411481976509 -0.012369390577077866 1.3034191131591797
0.059281107038259506 0.11515316367149353 1.473645806312561
0.02538302168250084 0.06755367666482925 1.4757843017578125
0.025169380009174347 -0.02974054217338562 1.2139474153518677
0.04529915377497673 0.09424489736557007 0.9270648956298828
-0.00795755535364151 -0.011747755110263824 1.7479044198989868
0.1316046267747879 -0.09031713008880615 0.09512284398078918
0.12198258936405182 -0.09673269093036652 0.07122475653886795
0.12437333166599274 -0.037017714232206345 0.1079867035150528
-0.04294687882065773 -0.1298273652791977 1.6238263845443726
0.06922176480293274 -0.06247431039810181 0.7261908650398254
0.08229726552963257 0.05494622141122818 1.4447382688522339
0.02582462877035141 -0.044889889657497406 1.4889271259307861
0.06375677138566971 -0.030538327991962433 1.4361013174057007
0.022024530917406082 0.002274569123983383 1.4112939834594727
0.11735121160745621 -0.03170275688171387 0.4077379107475281
0.1407303661108017 -0.11301207542419434 0.24943438172340393
