-0.07010215520858765 0.11982414871454239 1.4064713716506958
-0.21205826103687286 -0.08160415291786194 0.04656113684177399
-0.018390420824289322 0.15496209263801575 1.3555511236190796
-0.12737366557121277 -0.08561140298843384 1.506988763809204
-0.18184500932693481 -0.05831953138113022 0.39936572313308716
-0.06032722815871239 0.06848198175430298 1.4877469539642334
-0.08518542349338531 0.030381247401237488 1.469335675239563
-0.026590950787067413 0.13009320199489594 1.4549005031585693
-0.032331135123968124 0.05078396201133728 0.8564674854278564
-0.19072255492210388 0.004067958332598209 0.3502146005630493
0.03900328278541565 0.16983433067798615 0.9976887702941895
-0.03104625828564167 0.035441529005765915 1.0311802625656128
-0.11132467538118362 -0.14871644973754883 1.2487714290618896
-0.10412431508302689 -0.1514236181974411 1.1501588821411133
-0.17939767241477966 -0.023858878761529922 0.32764342427253723
-0.16485345363616943 -0.038419097661972046 0.2652316093444824
-0.19536598026752472 0.010866578668355942 0.26063835620880127
-0.06712338328361511 0.05162111297249794 1.5046497583389282
-0.09298190474510193 -0.10138863325119019 0.6889720559120178
-0.11871011555194855 -0.027268068864941597 0.6624404191970825
0.04346679151058197 0.21122193336486816 1.1257649660110474
0.05000876635313034 0.2027365267276764 1.044041395187378
-0.05929170176386833 -0.18471352756023407 1.1758954524993896
-0.1938154399394989 -0.06743715703487396 0.12987732887268066
0.03827670216560364 0.1543232500553131 1.0346122980117798
0.027900537475943565 0.13345985114574432 1.0701488256454468
-0.0005324520170688629 0.04702821373939514 1.4978691339492798
-0.09336195141077042 -0.0820445567369461 1.3817156553268433
0.03362971544265747 0.15805479884147644 1.338280439376831
0.025860214605927467 0.05785006284713745 1.4209129810333252
-0.01023753359913826 0.04003572091460228 1.4977988004684448
0.08539901673793793 0.1437848061323166 1.0449923276901245
0.103387251496315 0.13120734691619873 1.0013835430145264
-0.03104238025844097 -0.0992828980088234 1.3777759075164795
0.013345861807465553 0.033551525324583054 1.029606819152832
-0.032160233706235886 -0.20017367601394653 1.1051174402236938
0.09237831085920334 0.1272604614496231 1.3633440732955933
0.008269887417554855 -0.016927018761634827 1.2894675731658936
0.0605868399143219 0.10307426750659943 1.4619760513305664
0.026285726577043533 0.05909036844968796 1.4623639583587646
0.022414274513721466 -0.03565201535820961 1.2024102210998535
0.045600343495607376 0.0927390456199646 0.9207813739776611
-0.014771319925785065 -0.01895691081881523 1.7202329635620117
0.1315697729587555 -0.10689626634120941 0.08567240834236145
0.12242740392684937 -0.11638416349887848 0.060351014137268066
0.12522801756858826 -0.05031765252351761 0.09810689091682434
-0.05119100585579872 -0.1307271271944046 1.596372127532959
0.06989045441150665 -0.06235124170780182 0.7185093760490417
0.081320621073246 0.04323382303118706 1.4323216676712036
0.01855803094804287 -0.04871281981468201 1.466862440109253
0.0564117468893528 -0.034606464207172394 1.4170795679092407
0.017280155792832375 -0.005030632019042969 1.3940523862838745
0.1180158481001854 -0.03613537922501564 0.39889782667160034
0.14079909026622772 -0.12223222851753235 0.24215897917747498
0.13585226237773895 -0.035880789160728455 0.2040519118309021
0.14726324379444122 0.12937909364700317 1.053342580795288
0.14309823513031006 0.15515682101249695 1.0225619077682495
0.10701216757297516 -0.14585906267166138 0.7460920810699463
0.11317820847034454 -0.05229141563177109 0.6627483367919922
-0.01752704381942749 -0.06561801582574844 1.7052160501480103
0.0230252705514431 -0.07812618464231491 1.663135051727295
0.1303611844778061 -0.13018983602523804 0.5553381443023682
0.006594114005565643 -0.012968774884939194 1.734043836593628
0.029823454096913338 -0.030270889401435852 1.6842880249023438
0.05812377482652664 -0.10031680762767792 1.138120412826538
0.06340702623128891 -0.08909134566783905 1.1120648384094238
0.05350947380065918 -0.1603667140007019 1.094780683517456
0.006108798086643219 -0.11513890326023102 1.5956791639328003
0.03157534822821617 -0.049272969365119934 1.4968167543411255
0.02039727196097374 -0.08851008117198944 1.4938757419586182
0.18495602905750275 0.10684505850076675 1.016539216041565
0.05145104601979256 -0.09330693632364273 1.2903062105178833
0.06077885627746582 -0.15585553646087646 1.2538719177246094
0.06211766600608826 -0.10495845973491669 1.2360684871673584
0.1768030822277069 -0.0199284628033638 0.1571398228406906
0.19221465289592743 -0.10179833322763443 0.17919886112213135
0.20661844313144684 -0.08883709460496902 0.16467632353305817
0.04550299048423767 -0.009987972676753998 1.7086045742034912
0.05972687527537346 -0.10190777480602264 1.2925375699996948
0.1913750320672989 -0.03928864002227783 0.43987369537353516
0.1709383875131607 -0.09441763162612915 0.49276813864707947
0.19975170493125916 -0.05367226153612137 0.3828601539134979
0.06861699372529984 -0.050886329263448715 1.4104676246643066
0.05555453896522522 -0.048002105206251144 1.4069857597351074
0.07524099946022034 -0.040149468928575516 1.366415023803711
0.1179097443819046 0.06277211010456085 0.929901123046875
0.13018247485160828 -0.11719909310340881 0.8708943128585815
0.20494376122951508 -0.03910315781831741 0.2571541965007782
0.221576526761055 -0.06973273307085037 0.2646194100379944
0.07812932133674622 -0.021067723631858826 1.359038233757019
0.15788914263248444 0.06229967623949051 1.2822914123535156
0.1698855757713318 0.0867190733551979 1.260448932647705
0.06795261800289154 -0.22792956233024597 1.1534783840179443
0.1467214822769165 -0.06687810271978378 1.0012998580932617
0.1485798954963684 -0.12412654608488083 0.9955117702484131
0.10289530456066132 -0.025843478739261627 1.1876420974731445
0.11193469166755676 -0.13975493609905243 1.0889368057250977
0.13288278877735138 -0.1046273335814476 1.0688945055007935
0.11415017396211624 -0.16787125170230865 1.1561545133590698
-0.2949015498161316 -0.06040269136428833 1.0633286237716675
-0.3042077422142029 -0.116343192756176 1.0484477281570435
-0.2381519377231598 -0.09720278531312943 1.1399000883102417
-0.24917712807655334 -0.09637968242168427 1.1865782737731934
-0.21688038110733032 -0.06536847352981567 1.148216962814331
-0.2152048945426941 -0.026788590475916862 1.1663649082183838
-0.1900404691696167 -0.15098588168621063 0.8789408206939697
-0.06705678254365921 0.16826626658439636 1.0329437255859375
-0.07923159003257751 0.15864641964435577 1.1306445598602295
-0.17130021750926971 -0.22144588828086853 1.1201167106628418
-0.13862629234790802 -0.1590701937675476 0.956160306930542
-0.27844566106796265 -0.04032216966152191 0.2856791019439697
-0.2563493549823761 -0.08991530537605286 0.30011609196662903
-0.20343558490276337 0.01354480441659689 0.5041071772575378
-0.14967164397239685 -0.19106855988502502 0.857127845287323
-0.18078041076660156 -0.046311188489198685 0.6464858055114746
-0.1694236546754837 -0.0900784432888031 0.6982263326644897
-0.15125638246536255 -0.03344209864735603 0.7052544355392456
-0.10243384540081024 -0.01970095746219158 1.0922889709472656
-0.11561241000890732 -0.07663033157587051 1.1156129837036133
0.000554623082280159 0.1993083357810974 1.202023983001709
-0.11278776824474335 -0.01908193901181221 0.8612871766090393
-0.2127804458141327 -0.10216274112462997 0.31200915575027466
-0.11816717684268951 -0.023195914924144745 1.194955825805664
-0.09513839334249496 -0.03985477238893509 1.1247193813323975
-0.19552533328533173 -0.07982661575078964 0.4520089626312256
-0.14347624778747559 0.01267976313829422 1.702372670173645
-0.15073536336421967 -0.021837972104549408 1.689176082611084
-0.11522532999515533 -0.05873730033636093 1.6978609561920166
-0.13456550240516663 -0.09313022345304489 1.6563585996627808
-0.14785811305046082 -0.08600986748933792 1.5579822063446045
-0.18922191858291626 -0.059504326432943344 0.3444543480873108
-0.08505896478891373 -0.11497028917074203 0.7383596301078796
-0.1681755632162094 -0.06849653273820877 0.27310073375701904
-0.18643349409103394 -0.09718338400125504 0.2791408896446228
-0.20378632843494415 -0.017391430214047432 0.20814140141010284
-0.04531452804803848 0.06413441896438599 0.9624418020248413
-0.09904886782169342 0.02079828456044197 1.7467378377914429
-0.11692244559526443 0.01085742935538292 1.7334415912628174
0.06692960858345032 0.11949902027845383 1.187650442123413
-0.012445256114006042 0.13906902074813843 1.1830536127090454
0.04146353900432587 0.11118101328611374 1.2401591539382935
-0.008883830159902573 -0.035155702382326126 1.2392518520355225
0.06366658955812454 0.18380339443683624 1.2356410026550293
0.07047558575868607 0.13201715052127838 1.075798749923706
0.12527287006378174 0.18723703920841217 1.1619226932525635
0.01115322858095169 0.10403178632259369 1.6411798000335693
0.09970913827419281 0.11594007164239883 1.0860103368759155
0.03899916261434555 -0.2180851250886917 0.9066652059555054
0.1061573177576065 -0.08527762442827225 0.26066771149635315
0.13722452521324158 -0.09609171003103256 0.20087406039237976
0.06869195401668549 -0.12985935807228088 0.701208233833313
0.03170008584856987 0.005005994811654091 1.0666348934173584
0.09522660821676254 -0.04864484816789627 0.5718473792076111
0.09614390134811401 0.07998698204755783 1.3059078454971313
0.03914586827158928 -0.05921844020485878 1.4007463455200195
0.04132203012704849 0.08761264383792877 1.6056430339813232
0.02939389832317829 0.022826120257377625 1.5720341205596924
0.03529272973537445 0.03851664811372757 1.549626350402832
0.0008835829794406891 -0.007018100470304489 1.7804133892059326
0.03960587829351425 -0.08131705969572067 1.3382303714752197
0.160164475440979 -0.018037952482700348 0.5051220059394836
0.12734632194042206 -0.0055735185742378235 0.5006973743438721
0.15622833371162415 -0.012532470747828484 0.35053205490112305
0.17860952019691467 -0.016214929521083832 0.3219338059425354
0.055272024124860764 -0.046941597014665604 1.4879069328308105
0.042430903762578964 -0.055561479181051254 1.4974586963653564
0.0556483268737793 -0.05114138871431351 1.481659173965454
0.13216599822044373 -0.0521540530025959 0.770327627658844
0.152334526181221 -0.09541791677474976 0.640511155128479
0.11660069227218628 0.022878998890519142 0.9704375267028809
0.0943862646818161 -0.0800899863243103 1.0914123058319092
0.08670639246702194 -0.13372398912906647 1.0804071426391602
0.09707808494567871 -0.15792442858219147 1.030393362045288
0.057934023439884186 -0.012701474130153656 1.6086211204528809
0.06999233365058899 -0.018002741038799286 1.5277055501937866
0.05574661120772362 -0.14865152537822723 1.2351142168045044
0.09324527531862259 0.050899580121040344 1.5173040628433228
0.0789741650223732 0.02373667061328888 1.5565285682678223
0.20681625604629517 -0.01794891059398651 0.09289988875389099
0.220692977309227 -0.061428286135196686 0.0796356275677681
0.10200817883014679 0.02925362065434456 1.4837075471878052
0.11041868478059769 0.04146518558263779 1.4526671171188354
0.12048190832138062 0.029471974819898605 1.420085072517395
0.123496413230896 0.0415678396821022 1.4061481952667236
0.06490510702133179 -0.22919724881649017 1.1724207401275635
0.17617937922477722 -0.15826627612113953 0.8857184648513794
0.07834001630544662 -0.20526529848575592 1.1836845874786377
0.07499662041664124 -0.23126710951328278 1.1729793548583984
0.20323145389556885 -0.11362642049789429 0.9061145186424255
0.2058682143688202 -0.09072762727737427 0.8866695761680603
0.21448087692260742 -0.055812347680330276 0.8970683217048645
-0.22144705057144165 -0.08834037184715271 1.1923882961273193
-0.18192264437675476 -0.08739660680294037 1.255984902381897
-0.18999235332012177 -0.08735363185405731 1.2403675317764282
-0.18158407509326935 -0.07913357019424438 1.245792031288147
-0.17654567956924438 -0.07847293466329575 1.2627286911010742
-0.19513779878616333 0.0023901723325252533 0.887273371219635
-0.1512259989976883 -0.04565127193927765 1.2797960042953491
-0.14587751030921936 -0.06384467333555222 1.0658819675445557
-0.13358326256275177 0.10083188116550446 1.5224326848983765
-0.1490614116191864 -0.08106740564107895 1.1875276565551758
-0.1477179080247879 -0.07651115208864212 1.133484959602356
-0.10121844708919525 0.10153960436582565 1.4192193746566772
-0.08489333838224411 0.09453035145998001 1.3823463916778564
-0.13497811555862427 -0.13956506550312042 1.0303713083267212
-0.10087999701499939 -0.16515827178955078 0.9918766021728516
-0.1382252722978592 -0.026934579014778137 0.790475070476532
-0.009621989913284779 0.1776449829339981 1.2679576873779297
-0.07706764340400696 0.12320129573345184 1.615825891494751
-0.19979800283908844 -0.03404252976179123 0.07474654167890549
-0.2134476900100708 -0.019259987398982048 0.06616926938295364
-0.08136586844921112 0.024982042610645294 0.8668950796127319
0.001569913700222969 0.09415970742702484 0.8528468608856201
-0.06698282063007355 -0.02111203409731388 0.845789909362793
0.028808793053030968 0.08257586508989334 1.3286106586456299
-0.05384286493062973 -0.07971912622451782 0.7638599872589111
-0.08464598655700684 -0.11786229908466339 1.5720608234405518
-0.006928304210305214 0.014185466803610325 0.8718850612640381
-0.005875334143638611 -0.02708711288869381 0.8508163094520569
0.017478490248322487 -0.11929478496313095 0.8561023473739624
-0.07844201475381851 -0.16293497383594513 0.8559861779212952
-0.008503438904881477 -0.22409461438655853 0.8485475182533264
0.037342943251132965 -0.11124126613140106 0.8363011479377747
-0.00924550648778677 -0.16014698147773743 0.8600258827209473
-0.019416671246290207 0.023712705820798874 1.467285394668579
0.029436325654387474 -0.03784746676683426 0.8484303951263428
0.0343681201338768 -0.05064426362514496 0.832125723361969
-0.006681840866804123 0.030497193336486816 1.5452982187271118
-0.001773294061422348 0.03688857704401016 1.520914077758789
0.04582172632217407 -0.12502969801425934 0.8521242141723633
0.13151948153972626 0.056266166269779205 0.8643800020217896
0.10721413046121597 -0.05675198882818222 0.25971347093582153
0.05578029155731201 -0.035864077508449554 0.8219388723373413
0.1015985906124115 0.11098447442054749 1.2172846794128418
0.13566865026950836 -0.08625800907611847 0.38536304235458374
0.13269993662834167 -0.06769238412380219 0.3239988088607788
0.14891454577445984 -0.0895242989063263 0.34009891748428345
0.1472214162349701 -0.1280074566602707 0.2836205065250397
0.08094889670610428 0.06579701602458954 1.485809326171875
0.08237126469612122 -0.017402077093720436 0.85642009973526
0.10981544852256775 -0.03634287416934967 0.8374103307723999
0.06275417655706406 -0.07778836786746979 1.2386274337768555
0.16648025810718536 -0.1003291979432106 0.4340980648994446
0.06414806842803955 0.04124389961361885 1.5917513370513916
0.04885301738977432 -0.03328191116452217 1.2859646081924438
0.17956723272800446 -0.08875548094511032 0.3412414789199829
0.13049010932445526 0.16671591997146606 1.2186204195022583
0.0714251771569252 -0.06150476261973381 1.2116940021514893
0.16556432843208313 -0.02596437931060791 0.21500036120414734
0.17473283410072327 0.15315128862857819 1.1403772830963135
0.16350384056568146 -0.015525434166193008 0.25137126445770264
0.19124197959899902 -0.12840725481510162 0.2597927451133728
0.1319265067577362 0.058260057121515274 1.3279597759246826
0.06441514194011688 -0.03326664865016937 1.4452927112579346
0.0720096230506897 -0.03242848068475723 1.4135122299194336
0.06232175976037979 -0.031300533562898636 1.4456450939178467
0.08661071956157684 -0.032034002244472504 1.3933261632919312
0.07231803983449936 -0.1716599464416504 1.2226312160491943
0.058327458798885345 -0.18167153000831604 1.2168868780136108
0.16308608651161194 0.07533923536539078 1.2404098510742188
0.19249053299427032 0.10493097454309464 1.1833670139312744
0.18784606456756592 0.09965763241052628 1.1500099897384644
0.0781434029340744 -0.04517527297139168 1.2430360317230225
0.06944449990987778 -0.07548397779464722 1.2583509683609009
0.15930767357349396 -0.18332892656326294 0.8948707580566406
0.07658491283655167 -0.08473145216703415 1.2697367668151855
0.07193128019571304 -0.11285142600536346 1.16937255859375
0.09541425108909607 -0.056323833763599396 1.147024393081665
0.08097193390130997 -0.09602446854114532 1.136817455291748
0.1261509358882904 -0.1450330764055252 1.1875898838043213
0.1539582908153534 -0.14126542210578918 1.0591238737106323
0.12352463603019714 -0.17884624004364014 1.1132862567901611
-0.17405304312705994 -0.20659250020980835 1.1579151153564453
-0.16846336424350739 -0.13990354537963867 1.2037434577941895
-0.17543970048427582 -0.1256847083568573 1.223616123199463
-0.16340585052967072 -0.1940392553806305 1.159521222114563
-0.11866878718137741 0.10719931125640869 1.4483693838119507
-0.1236189529299736 0.09544969350099564 1.4323365688323975
-0.11889661848545074 0.11099555343389511 1.3898227214813232
-0.1660699099302292 0.014437951147556305 1.6656724214553833
-0.17025980353355408 -0.01901181787252426 1.5820131301879883
-0.24686911702156067 -0.056928765028715134 0.34303489327430725
-0.1330660581588745 -0.0674285739660263 0.8584439754486084
-0.1364273875951767 -0.09174318611621857 0.8392068147659302
-0.05242648720741272 0.17976872622966766 1.0125471353530884
-0.11834903061389923 -0.11535856127738953 1.242003083229065
-0.1199292466044426 -0.029322270303964615 0.8352091312408447
-0.12137052416801453 -0.0046308040618896484 1.7123947143554688
-0.10930822044610977 -0.1198779046535492 1.1227506399154663
-0.07805226743221283 -0.18142493069171906 1.1196491718292236
-0.007593268528580666 0.15425561368465424 1.1143004894256592
0.06163167953491211 0.1343666911125183 1.1145614385604858
-0.07274392247200012 -0.026147225871682167 1.1398900747299194
-0.05531112849712372 -0.11460241675376892 0.8493911623954773
-0.06460192054510117 -0.1875704526901245 1.0524039268493652
-0.051624976098537445 0.015710139647126198 1.0512633323669434
-0.07520388066768646 -0.10609669983386993 1.6696643829345703
0.037281811237335205 -0.10245700180530548 0.7722029685974121
-0.015471702441573143 0.10273025929927826 1.297332525253296
0.11960925906896591 -0.07708746939897537 0.056032851338386536
0.1659064143896103 0.16804741322994232 1.0808814764022827
0.12277346104383469 0.12427826225757599 1.136270523071289
0.11950816959142685 0.1946561634540558 1.0894129276275635
0.10017413645982742 0.08546625077724457 0.8647953867912292
0.17806340754032135 0.008006848394870758 0.08165261894464493
0.12418845295906067 -0.03852904215455055 0.8644863963127136
0.169244647026062 -0.09106996655464172 0.3927658200263977
0.06847535073757172 -0.05364251509308815 1.3815419673919678
0.06255529820919037 -0.07749511301517487 1.3071932792663574
0.19952218234539032 -0.0016585486009716988 0.8874348998069763
0.19533340632915497 -0.052501380443573 0.9519611597061157
0.14155322313308716 -0.1676376461982727 1.0776622295379639
-0.2583554685115814 -0.11080853641033173 1.156619906425476
-0.19334818422794342 -0.08258243650197983 0.9406267404556274
-0.21175169944763184 -0.07221147418022156 0.8896361589431763
-0.1220087930560112 0.09614332020282745 1.3848673105239868
-0.09245883673429489 0.12423783540725708 1.2532386779785156
-0.1484246402978897 0.02666449174284935 1.5048739910125732
-0.13902020454406738 -0.055419113487005234 1.0339313745498657
-0.14609506726264954 -0.08472612500190735 1.0719633102416992
-0.14751869440078735 0.029844556003808975 1.5054411888122559
-0.14766059815883636 0.016650639474391937 1.4923162460327148
-0.148725226521492 0.023101191967725754 1.5006322860717773
-0.14983470737934113 0.020268619060516357 1.502955675125122
-0.1557009369134903 0.009620137512683868 1.492709994316101
-0.24150630831718445 -0.11732209473848343 0.19286470115184784
-0.17103302478790283 -0.05419711768627167 1.6311293840408325
-0.046617649495601654 -0.01708817109465599 1.1942508220672607
-0.20568710565567017 -0.1335436999797821 0.06649149954319
-0.06497153639793396 -0.021248726174235344 1.2355228662490845
-0.019309189170598984 -0.03193080797791481 1.1520724296569824
-0.034807898104190826 0.09243623167276382 0.9253760576248169
-0.06444850564002991 -0.019656531512737274 1.7290927171707153
-0.07634288817644119 -0.06596723943948746 0.7038012742996216
0.009645279496908188 0.10305912047624588 1.2659728527069092
-0.004981093108654022 -0.19227658212184906 1.0027377605438232
-0.0602148175239563 -0.1789727658033371 1.2201284170150757
0.06446918100118637 0.12189111858606339 1.155678391456604
0.1267114281654358 -0.060238175094127655 0.18973073363304138
0.051384687423706055 -0.18041810393333435 0.992470383644104
0.10303309559822083 -0.1746421754360199 0.981374979019165
0.053654298186302185 0.03962824493646622 1.5172760486602783
0.037934742867946625 -0.1670960634946823 1.169684886932373
0.01949378475546837 -0.04188333824276924 1.1526097059249878
0.07829850167036057 -0.034734927117824554 1.084479808807373
0.0776480957865715 0.05628081411123276 0.9607217311859131
0.16757163405418396 -0.10314543545246124 0.02631964720785618
0.14373309910297394 -0.09746374189853668 0.025502797216176987
0.19669413566589355 -0.07926919311285019 0.03546789661049843
0.20898447930812836 -0.10445745289325714 0.24521073698997498
0.062063951045274734 -0.0321422703564167 1.4424307346343994
0.06175296753644943 -0.03248218446969986 1.4442530870437622
0.052402250468730927 -0.048983100801706314 1.3092726469039917
0.06155858188867569 -0.0728801041841507 1.2945163249969482
0.20901046693325043 0.11863589286804199 1.0873092412948608
0.2070724070072174 0.0982409119606018 1.043199896812439
0.21595731377601624 0.10069908201694489 1.0395382642745972
0.16627490520477295 -0.13508397340774536 1.0621960163116455
0.13923007249832153 -0.19027496874332428 1.0592737197875977
0.14386671781539917 -0.21648794412612915 1.0538829565048218
-0.2557781934738159 -0.0769653469324112 1.0837663412094116
-0.17985230684280396 -0.16659824550151825 1.1947243213653564
-0.215495765209198 -0.06162881851196289 0.37235069274902344
-0.018142325803637505 0.15668590366840363 0.9891785979270935
-0.11550771445035934 -0.14046533405780792 1.0706627368927002
-0.03676048293709755 -0.04340454190969467 0.8434526920318604
-0.06247285380959511 -0.03035377897322178 0.8096930384635925
-0.05825094133615494 -0.08311885595321655 0.8108623027801514
-0.011155208572745323 0.0036603156477212906 1.0968389511108398
0.02323055826127529 -0.20739927887916565 0.8387380838394165
0.0975809395313263 0.013210323639214039 0.8722438812255859
0.13908493518829346 0.11978081613779068 1.1047183275222778
0.0684557631611824 0.002031330019235611 1.5312572717666626
0.08148979395627975 0.021893106400966644 1.511421799659729
0.18284253776073456 -0.12117915600538254 0.9515472054481506
-0.18402479588985443 -0.18058061599731445 1.1649330854415894
-0.1424895077943802 0.07149125635623932 1.5381659269332886
0.0073838913813233376 0.16434676945209503 1.0345076322555542
-0.12176873534917831 0.09452573955059052 1.56985604763031
-0.10167738795280457 0.058579061180353165 1.5577682256698608
-0.07253427058458328 0.04677621275186539 1.5379018783569336
0.014378195628523827 -0.1960371434688568 1.0616446733474731
0.02443675696849823 -0.13769680261611938 1.255028247833252
0.16785702109336853 -0.10900174081325531 0.16329580545425415
0.06307286024093628 -0.1314273178577423 1.214163064956665
0.07774314284324646 -0.12504196166992188 1.161953091621399
0.10695787519216537 0.049294617027044296 1.4177324771881104
0.09668225049972534 0.07862750440835953 1.4306138753890991
0.08415162563323975 -0.08390237390995026 1.1674304008483887
0.12909114360809326 -0.07574322074651718 0.8480935096740723
0.044456470757722855 -0.16380475461483002 1.242071270942688
0.13533002138137817 0.07292822748422623 1.3472161293029785
-0.09182707965373993 0.11934245377779007 1.334490418434143
-0.20699085295200348 0.01390414871275425 0.3792177438735962
0.052026182413101196 -0.10269699990749359 0.7313677072525024
-0.024653024971485138 -0.11573021113872528 1.6515495777130127
-0.06739917397499084 0.18027114868164062 1.0763345956802368
-0.17036226391792297 -0.07949002087116241 1.265406608581543
-0.1643689125776291 -0.02667282149195671 0.4115784466266632
0.02050027623772621 0.12314005196094513 1.4596893787384033
0.12646979093551636 -0.10596241056919098 0.033482372760772705
0.058616653084754944 -0.05126435309648514 1.4803924560546875
0.057200465351343155 -0.05059448629617691 1.4788330793380737
0.05963985621929169 -0.03848652541637421 1.4010612964630127
0.20161335170269012 -0.08905893564224243 0.21577629446983337
0.19813814759254456 -0.05434964597225189 0.20204758644104004
0.08106160163879395 -0.10924358665943146 1.2174432277679443
-0.1714363992214203 -0.1555529236793518 0.9357770085334778
-0.10287579894065857 0.10710000991821289 1.361586570739746
-0.10340214520692825 0.10396582633256912 1.3622188568115234
-0.10783291608095169 0.10351677238941193 1.362532615661621
-0.185117706656456 -0.0572863407433033 0.21068575978279114
-0.035388242453336716 -0.09740057587623596 0.8449580669403076
0.13830779492855072 -0.08809100091457367 0.15231166779994965
0.08843871206045151 -0.13934455811977386 1.1803052425384521
0.03811907395720482 -0.07598879188299179 1.611945629119873
0.1462264209985733 -0.09736626595258713 0.7990520000457764
0.12364061921834946 0.03909430280327797 1.3883951902389526
0.12990252673625946 0.05547163262963295 1.3572897911071777
0.12732547521591187 -0.026856064796447754 0.0644846186041832
-0.07407304644584656 -0.45632046461105347 1.128312110900879
-0.0641714408993721 -0.43179595470428467 1.0986659526824951
-0.06829089671373367 -0.44095534086227417 1.103716254234314
-0.07402545213699341 -0.43181177973747253 1.109183669090271
-0.07872360199689865 -0.45392635464668274 1.1157146692276
-0.06854329258203506 -0.44730380177497864 1.1281827688217163
0.01663857325911522 -0.3396012485027313 1.0850496292114258
0.0047417329624295235 -0.34052610397338867 1.0815041065216064
0.0021405015140771866 -0.360361248254776 1.0912193059921265
-0.00684363953769207 -0.3661916255950928 1.095015287399292
0.08831720054149628 -0.22851933538913727 0.9983189702033997
0.08245651423931122 -0.23571649193763733 1.0174232721328735
0.0839550644159317 -0.2398788034915924 0.9925900101661682
-0.008927136659622192 -0.35531556606292725 1.0495731830596924
-0.014515908434987068 -0.36698049306869507 1.0655744075775146
-0.009442051872611046 -0.3848166763782501 1.1192601919174194
-0.00669005885720253 -0.37610507011413574 1.1066715717315674
0.0605158805847168 -0.2656927704811096 0.9803886413574219
0.055068787187337875 -0.27069327235221863 1.0031516551971436
0.058487288653850555 -0.2945503890514374 1.0726563930511475
0.056769903749227524 -0.28746843338012695 1.0654634237289429
-0.048871465027332306 -0.4360632300376892 1.1365338563919067
-0.05310513824224472 -0.42576491832733154 1.0904539823532104
0.08611974120140076 -0.24307969212532043 0.9826140999794006
0.0782250165939331 -0.24671128392219543 0.9790063500404358
0.2176123559474945 -0.11046662926673889 1.0410737991333008
0.21055008471012115 -0.11872825026512146 1.0407390594482422
0.21512818336486816 -0.11120159924030304 1.0205225944519043
-0.028912700712680817 -0.4040756821632385 1.1170446872711182
-0.0412294939160347 -0.420793741941452 1.1231962442398071
0.08387541770935059 -0.24544687569141388 0.9766613245010376
0.08218473196029663 -0.2463878095149994 0.9673309922218323
-0.0918484702706337 -0.47635793685913086 1.0796468257904053
-0.09456253051757812 -0.4859980046749115 1.0922614336013794
0.22997450828552246 -0.10187884420156479 1.033401370048523
0.22477994859218597 -0.10867804288864136 1.0466172695159912
0.2247466892004013 -0.10199694335460663 1.0266224145889282
0.21887120604515076 -0.10964415967464447 1.0183161497116089
-0.10335292667150497 -0.5068796873092651 1.1472748517990112
-0.11018074303865433 -0.5223926901817322 1.1610575914382935
-0.11383900046348572 -0.5216817259788513 1.1432099342346191
0.02371356263756752 -0.3183692991733551 1.0193383693695068
0.018636006861925125 -0.33295702934265137 1.0218418836593628
0.0025757141411304474 -0.3476133942604065 1.016632080078125
0.010573905892670155 -0.34643828868865967 1.0155882835388184
0.22376126050949097 -0.11670036613941193 1.0512405633926392
0.22873812913894653 -0.10431934148073196 1.0213639736175537
-0.014590026810765266 -0.4018801748752594 1.1321375370025635
-0.00830935686826706 -0.4032187759876251 1.1339125633239746
-0.02523445524275303 -0.4112045168876648 1.1350831985473633
-0.03288165107369423 -0.42800697684288025 1.1426583528518677
0.048821672797203064 -0.29239019751548767 1.0010327100753784
0.0393742099404335 -0.30555662512779236 0.998661458492279
0.03601350262761116 -0.30396395921707153 1.0051829814910889
0.23137572407722473 -0.10663728415966034 1.0267233848571777
0.22437508404254913 -0.1168704628944397 1.0492339134216309
0.22086215019226074 -0.11586488783359528 1.0214009284973145
0.09207109361886978 -0.22920171916484833 0.9350275993347168
0.08841162919998169 -0.23367369174957275 0.9286133050918579
0.08825616538524628 -0.23887282609939575 0.953488290309906
0.08901786059141159 -0.23991525173187256 0.9432149529457092
0.08770735561847687 -0.23432514071464539 0.9385037422180176
-0.001394420862197876 -0.3670426905155182 1.0126949548721313
-0.0012504272162914276 -0.35547545552253723 1.006561040878296
-0.0032081594690680504 -0.36035341024398804 0.9961303472518921
-0.007818501442670822 -0.36265161633491516 0.9984990358352661
0.2218445986509323 -0.1175326406955719 1.030511498451233
-0.10737476497888565 -0.5299323797225952 1.1678197383880615
-0.11165037751197815 -0.5271959900856018 1.1507887840270996
-0.11138660460710526 -0.5391786098480225 1.1665693521499634
-0.1201171725988388 -0.5382448434829712 1.170384168624878
-0.11504463851451874 -0.5218690633773804 1.1353204250335693
0.10952331870794296 -0.24395574629306793 0.993827760219574
0.09223614633083344 -0.2493303120136261 0.9821241497993469
-0.075633205473423 -0.4682198762893677 1.0720120668411255
-0.09347407519817352 -0.48624488711357117 1.0839253664016724
-0.09885835647583008 -0.5008513331413269 1.1006219387054443
0.07500681281089783 -0.2952778935432434 1.0705910921096802
0.0630628913640976 -0.3066142201423645 1.0742099285125732
0.06028814613819122 -0.3193490505218506 1.0711811780929565
-0.005474945530295372 -0.4027165174484253 1.1350206136703491
-0.010093659162521362 -0.40912553668022156 1.1273274421691895
-0.03829531744122505 -0.44411391019821167 1.1423351764678955
0.003859473392367363 -0.3796178102493286 1.115738868713379
-0.05183204635977745 -0.4490954577922821 1.085047960281372
-0.07443435490131378 -0.4727700650691986 1.0884007215499878
0.07802426069974899 -0.2953454256057739 1.0658079385757446
0.0022636866196990013 -0.3958969712257385 1.0999890565872192
0.013286741450428963 -0.3813127875328064 1.0908715724945068
-0.005674529820680618 -0.40654146671295166 1.1070365905761719
-0.09327299892902374 -0.5088906288146973 1.1356052160263062
-0.08730661869049072 -0.500801682472229 1.1227165460586548
-0.007767607923597097 -0.38375604152679443 1.0482069253921509
-0.0033692102879285812 -0.3884694576263428 1.0624507665634155
-0.01530100405216217 -0.3986119031906128 1.0685703754425049
-0.009032906964421272 -0.4030471444129944 1.0778369903564453
0.03850286826491356 -0.34490516781806946 1.0768826007843018
0.01230321079492569 -0.36863046884536743 1.0892947912216187
-0.03986651822924614 -0.4450283646583557 1.123314380645752
-0.049770258367061615 -0.4630686938762665 1.122169852256775
-0.06100047752261162 -0.462894469499588 1.128054141998291
-0.03952202573418617 -0.44146019220352173 1.0967166423797607
-0.04469149932265282 -0.4483296275138855 1.093266248703003
0.022714726626873016 -0.3613201975822449 1.0442771911621094
0.010363650508224964 -0.3730960190296173 1.049710750579834
0.017626110464334488 -0.3514920473098755 1.0282156467437744
0.010699042119085789 -0.3697521686553955 1.0394151210784912
-7.489509880542755e-05 -0.37693628668785095 1.0510962009429932
0.03423994034528732 -0.3476237952709198 1.0517886877059937
0.045048706233501434 -0.3389075994491577 1.0538947582244873
0.04102812334895134 -0.3257555663585663 1.0248368978500366
0.04160430654883385 -0.33587682247161865 1.041891098022461
-0.049039583653211594 -0.4557952880859375 1.0999572277069092
-0.05663628131151199 -0.46940287947654724 1.109946608543396
-0.057400792837142944 -0.46163931488990784 1.10162353515625
-0.04647676646709442 -0.46853941679000854 1.10591459274292
0.10891439020633698 -0.25621891021728516 1.0094250440597534
-0.0530611053109169 -0.4132343828678131 1.11362624168396
-0.06571830809116364 -0.4228556752204895 1.1074470281600952
-0.018386323004961014 -0.36962398886680603 1.0902035236358643
-0.018270444124937057 -0.36813169717788696 1.0856587886810303
-0.029113123193383217 -0.37816327810287476 1.0967364311218262
-0.023426488041877747 -0.3732944130897522 1.0851374864578247
-0.027429383248090744 -0.3813801407814026 1.094873309135437
0.003040516749024391 -0.3480719327926636 1.0639503002166748
-0.006716769188642502 -0.3549093008041382 1.0667568445205688
0.012556803412735462 -0.33505332469940186 1.0571810007095337
-0.023892400786280632 -0.3814060688018799 1.1015477180480957
-0.06792251765727997 -0.4449559152126312 1.081465721130371
-0.07672468572854996 -0.45388999581336975 1.1076310873031616
-0.02189129963517189 -0.37342482805252075 1.0628788471221924
-0.09022611379623413 -0.46777182817459106 1.124110460281372
-0.09999450296163559 -0.4873785078525543 1.1250824928283691
-0.08730205148458481 -0.47591960430145264 1.1138207912445068
-0.10427465289831161 -0.4993029236793518 1.1386629343032837
0.10378032922744751 -0.22696496546268463 1.0151779651641846
0.09741374850273132 -0.26049453020095825 1.08897864818573
0.0852302759885788 -0.2625005841255188 1.0824034214019775
0.09162552654743195 -0.26547348499298096 1.0894851684570312
0.04929802939295769 -0.28672903776168823 1.006933331489563
0.20650771260261536 -0.11484496295452118 1.010917067527771
0.20978598296642303 -0.12511305510997772 1.0543701648712158
0.2011895626783371 -0.13424837589263916 1.0498251914978027
0.19958364963531494 -0.1302049309015274 1.04141104221344
0.022624392062425613 -0.34948110580444336 1.0944687128067017
-0.055618200451135635 -0.44932711124420166 1.152031660079956
-0.10729516297578812 -0.5022110342979431 1.1174471378326416
0.16638261079788208 -0.15850138664245605 1.0122690200805664
0.15525473654270172 -0.18092861771583557 1.007552981376648
0.0355495847761631 -0.33342868089675903 1.095986008644104
0.026021506637334824 -0.33814483880996704 1.0904767513275146
0.00220329686999321 -0.3668023347854614 1.1000019311904907
-0.11030637472867966 -0.5114454030990601 1.120080590248108
-0.11285758763551712 -0.5306909084320068 1.1735249757766724
-0.11470156908035278 -0.5355479121208191 1.1771222352981567
-0.11898129433393478 -0.5339836478233337 1.1584482192993164
0.12258821725845337 -0.21231693029403687 1.011967420578003
0.11434285342693329 -0.22923529148101807 1.0158970355987549
0.01277890708297491 -0.3704862594604492 1.099547028541565
0.09986220300197601 -0.23020735383033752 0.9964830875396729
-0.0975947305560112 -0.4918709099292755 1.0943952798843384
0.130130797624588 -0.23172646760940552 1.0994832515716553
0.1304013580083847 -0.2351764440536499 1.0961718559265137
0.12098479270935059 -0.2414778172969818 1.0868515968322754
0.12076692283153534 -0.24618226289749146 1.098492980003357
0.11489590257406235 -0.25666940212249756 1.1019749641418457
0.10796470195055008 -0.24024060368537903 1.0644205808639526
0.11695906519889832 -0.24289166927337646 1.0688097476959229
-0.11689034104347229 -0.5365095734596252 1.1786388158798218
-0.021999452263116837 -0.39033666253089905 1.0522780418395996
-0.02548704855144024 -0.3999475836753845 1.060212254524231
-0.030165188014507294 -0.40060460567474365 1.0630286931991577
-0.011399512179195881 -0.37691646814346313 1.0347217321395874
0.12500518560409546 -0.24781730771064758 1.0965473651885986
0.11514665931463242 -0.25972190499305725 1.0995217561721802
0.0873408392071724 -0.25294721126556396 0.9700145721435547
0.12643632292747498 -0.24300140142440796 1.0949888229370117
0.12105480581521988 -0.24697372317314148 1.0875475406646729
-0.0037039583548903465 -0.3932093381881714 1.123517632484436
0.08000422269105911 -0.257106214761734 0.9428794384002686
0.07838547229766846 -0.25500667095184326 0.9374661445617676
0.06762464344501495 -0.2633324861526489 0.9294768571853638
0.06360159814357758 -0.2703697681427002 0.9355095624923706
0.12035152316093445 -0.24060550332069397 1.0151296854019165
0.10693756490945816 -0.26645132899284363 1.0860490798950195
-0.015785353258252144 -0.4110878109931946 1.1144675016403198
-0.02959125116467476 -0.42824774980545044 1.1234220266342163
0.0809812992811203 -0.2653648853302002 0.9703584313392639
0.0790446549654007 -0.2716647982597351 0.9706544876098633
0.07332219928503036 -0.265625536441803 0.9562347531318665
-0.02491689845919609 -0.4277494549751282 1.1153578758239746
-0.015046728774905205 -0.41520988941192627 1.1043517589569092
-0.023830244317650795 -0.42239686846733093 1.0901069641113281
-0.011165129020810127 -0.4098905920982361 1.0846794843673706
-0.08188910037279129 -0.48373469710350037 1.1039354801177979
-0.07840081304311752 -0.4886271357536316 1.1093918085098267
0.09217217564582825 -0.26636427640914917 0.9879583716392517
0.101560078561306 -0.27065786719322205 1.0356483459472656
0.08908692002296448 -0.2861635088920593 1.0341722965240479
0.09241297096014023 -0.2810685932636261 1.0232247114181519
0.07871152460575104 -0.2961965799331665 1.037933349609375
0.06764643639326096 -0.30105701088905334 1.0310845375061035
-0.027020426467061043 -0.436827152967453 1.0998040437698364
-0.01759209670126438 -0.42874717712402344 1.0959558486938477
-0.03740191459655762 -0.45930397510528564 1.116026759147644
0.019457899034023285 -0.38472333550453186 1.080941915512085
0.0006006117910146713 -0.40473467111587524 1.09224271774292
0.01197417825460434 -0.3877002000808716 1.0813441276550293
0.001484941691160202 -0.3971598446369171 1.0799648761749268
0.0011942442506551743 -0.4034886360168457 1.087134838104248
0.0022400873713195324 -0.3929804563522339 1.0860213041305542
-0.002318941056728363 -0.4073936939239502 1.086366057395935
-0.04225298762321472 -0.47019100189208984 1.1147404909133911
-0.04330842196941376 -0.46350574493408203 1.104438304901123
-0.06286287307739258 -0.42734766006469727 1.1200435161590576
-0.07569395005702972 -0.44142693281173706 1.121567726135254
-0.06727682799100876 -0.4269815683364868 1.1029577255249023
-0.07654464989900589 -0.4409932494163513 1.114251732826233
0.0845630019903183 -0.2507479786872864 1.0701535940170288
0.07649921625852585 -0.24526402354240417 1.0044174194335938
0.06798326969146729 -0.2533702254295349 1.0028549432754517
0.09932626783847809 -0.23101851344108582 1.0424245595932007
-0.049542512744665146 -0.42299532890319824 1.1218645572662354
-0.04372244328260422 -0.4100759029388428 1.0929311513900757
0.05367657169699669 -0.27907007932662964 1.0315237045288086
0.048516128212213516 -0.28577935695648193 1.020646333694458
0.0734681785106659 -0.2646857500076294 1.0646636486053467
0.06629078090190887 -0.27862247824668884 1.068105936050415
-0.037526682019233704 -0.40404534339904785 1.0915865898132324
-0.05438700318336487 -0.43357589840888977 1.1273300647735596
0.03721914440393448 -0.30443817377090454 1.0338019132614136
0.017087167128920555 -0.3262837529182434 1.0494496822357178
0.020542126148939133 -0.32170748710632324 1.0290019512176514
-0.030215103179216385 -0.3874415159225464 1.0784358978271484
-0.09470563381910324 -0.4897053837776184 1.1402864456176758
-0.1104285717010498 -0.513434112071991 1.1482301950454712
-0.10961879789829254 -0.5137768983840942 1.1305017471313477
0.10546320676803589 -0.2511550784111023 1.0974640846252441
0.08304046094417572 -0.276191771030426 1.0952109098434448
0.04953623563051224 -0.3079530894756317 1.079081654548645
0.03511175513267517 -0.32535064220428467 1.0878961086273193
0.016413407400250435 -0.33393698930740356 1.0260944366455078
0.07852563261985779 -0.28789034485816956 1.1054006814956665
0.07669734209775925 -0.27346304059028625 1.0713359117507935
0.07286899536848068 -0.28764432668685913 1.0716618299484253
-0.06662009656429291 -0.46521860361099243 1.1527836322784424
-0.07991145551204681 -0.4822331666946411 1.1478854417800903
-0.03302421793341637 -0.399111807346344 1.0660752058029175
0.14762139320373535 -0.18831339478492737 1.0351297855377197
0.15430845320224762 -0.17780981957912445 1.0340793132781982
-0.004018550738692284 -0.35292595624923706 1.009837031364441
0.04659087955951691 -0.3248271942138672 1.082146167755127
0.042059313505887985 -0.3355242908000946 1.0987375974655151
-0.05904412269592285 -0.45983439683914185 1.1526118516921997
-0.0584830641746521 -0.46649062633514404 1.148979902267456
-0.07189673185348511 -0.4744340181350708 1.1500763893127441
0.06760906428098679 -0.2727259397506714 0.9681121706962585
0.059066105633974075 -0.28297120332717896 0.9679030179977417
0.05478166416287422 -0.28165486454963684 0.9684340953826904
0.06329882889986038 -0.2651299238204956 0.9608054757118225
0.06772742420434952 -0.2680220603942871 0.95611971616745
0.06250367313623428 -0.2689688205718994 0.9427465796470642
0.04867369681596756 -0.28599220514297485 0.9909399747848511
0.05974748730659485 -0.2653777003288269 0.9365962743759155
0.05184045061469078 -0.27340298891067505 0.9300684928894043
0.12009739130735397 -0.23534822463989258 1.0415879487991333
0.1156526654958725 -0.23950618505477905 1.0438110828399658
0.10861828923225403 -0.2320972979068756 1.0119597911834717
0.10428972542285919 -0.2600732147693634 1.0938323736190796
0.09961026161909103 -0.2683456540107727 1.0879687070846558
-0.005741579458117485 -0.40198394656181335 1.1460964679718018
-0.005190772004425526 -0.3968891501426697 1.1462652683258057
-0.005313180387020111 -0.39157286286354065 1.131345510482788
0.06165345385670662 -0.2746632695198059 0.9275913238525391
0.06283744424581528 -0.2609800696372986 0.9275091886520386
0.05357635021209717 -0.2876247465610504 0.988290548324585
-0.05115986242890358 -0.4375247657299042 1.0759806632995605
-0.06605560332536697 -0.4502280354499817 1.0761433839797974
0.12022322416305542 -0.2500251233577728 1.071711540222168
0.13035699725151062 -0.22461175918579102 1.039001703262329
-0.050248242914676666 -0.4593074321746826 1.1328779458999634
0.005301774479448795 -0.3545524477958679 1.0125958919525146
0.19873997569084167 -0.14384785294532776 1.013807773590088
0.19139635562896729 -0.15457198023796082 1.0136748552322388
0.009365692734718323 -0.3607008457183838 1.0206584930419922
0.1350710541009903 -0.22280153632164001 1.026542067527771
0.12553931772708893 -0.235618457198143 1.0306620597839355
0.1211230456829071 -0.23340445756912231 1.0192289352416992
-0.030247436836361885 -0.43248850107192993 1.0958830118179321
0.10416077822446823 -0.25076180696487427 0.9907645583152771
0.02674320712685585 -0.3470931649208069 1.0329999923706055
0.11881561577320099 -0.24956026673316956 1.0327003002166748
0.11086729913949966 -0.26171040534973145 1.0369781255722046
0.113444022834301 -0.259551465511322 1.0615376234054565
0.10020062327384949 -0.2698385417461395 1.0477193593978882
0.12210620194673538 -0.2435317486524582 1.02064049243927
0.11389623582363129 -0.245223730802536 1.0078105926513672
-0.023726318031549454 -0.43524545431137085 1.104701280593872
-0.0028187809512019157 -0.3508346676826477 1.083164930343628
-0.010226170532405376 -0.34903404116630554 1.0792611837387085
-0.012200228869915009 -0.3593498766422272 1.090911626815796
-0.00782843492925167 -0.3464828133583069 1.0727819204330444
-0.019454527646303177 -0.36000433564186096 1.0842530727386475
-0.042864952236413956 -0.4016354978084564 1.1093146800994873
-0.04689287394285202 -0.41040948033332825 1.117136836051941
-0.016592171043157578 -0.36924874782562256 1.0815802812576294
-0.024656590074300766 -0.3768315017223358 1.0743356943130493
-0.0340832844376564 -0.3931856155395508 1.0937659740447998
-0.033661916851997375 -0.3945651650428772 1.1053380966186523
0.06149456277489662 -0.26647600531578064 1.0278455018997192
0.092608243227005 -0.25085246562957764 1.0830614566802979
0.10505031049251556 -0.23877453804016113 1.0700476169586182
0.11840565502643585 -0.2084941565990448 1.03351891040802
0.12088382244110107 -0.20682114362716675 1.0228142738342285
-0.013320140540599823 -0.37442487478256226 1.0438791513442993
0.004883965477347374 -0.34208548069000244 1.032369613647461
-0.011831733398139477 -0.3628455400466919 1.009302020072937
-0.0042277066968381405 -0.3508217930793762 1.0353710651397705
0.19737190008163452 -0.1397557556629181 1.0492761135101318
0.21123667061328888 -0.11965158581733704 1.0272094011306763
0.2009894847869873 -0.12889832258224487 1.0336499214172363
0.19714048504829407 -0.13084018230438232 1.0234967470169067
0.18663771450519562 -0.1350255310535431 1.0184435844421387
0.14731085300445557 -0.18229401111602783 1.0096441507339478
0.13568763434886932 -0.1943185031414032 1.0108237266540527
0.12218105792999268 -0.23330995440483093 1.0973656177520752
-0.009146584197878838 -0.3984155058860779 1.1452157497406006
-0.03701132535934448 -0.4302842915058136 1.140805721282959
-0.07917608320713043 -0.4624209403991699 1.0699737071990967
-0.07753532379865646 -0.45937860012054443 1.0740288496017456
0.07295627892017365 -0.252180814743042 0.9372752904891968
0.06123031675815582 -0.2591712474822998 0.9313219785690308
0.16030147671699524 -0.1862766444683075 1.034085750579834
0.1506328284740448 -0.19716019928455353 1.034209966659546
-0.008671323768794537 -0.39554786682128906 1.148884892463684
0.032080262899398804 -0.32545074820518494 1.0164512395858765
0.025117792189121246 -0.33756133913993835 1.0239847898483276
0.04363328218460083 -0.3319917917251587 1.0874345302581787
0.032193493098020554 -0.34170371294021606 1.0886725187301636
0.020232491195201874 -0.3556312918663025 1.0908992290496826
0.07428745925426483 -0.2886984050273895 0.9987924098968506
0.18765833973884583 -0.16351568698883057 1.0257763862609863
0.1798114776611328 -0.17279641330242157 1.0149461030960083
-0.0818512812256813 -0.4929528832435608 1.118533968925476
0.07753698527812958 -0.299405962228775 1.0562905073165894
0.06896066665649414 -0.3141070306301117 1.0477039813995361
0.07810844480991364 -0.2870657742023468 1.0132451057434082
0.07613331824541092 -0.282696396112442 0.9870628714561462
0.05734429880976677 -0.2956686019897461 1.0053701400756836
0.0933075100183487 -0.2779220640659332 1.0433980226516724
0.10188910365104675 -0.276577353477478 1.059535026550293
0.09274140000343323 -0.28366345167160034 1.0588449239730835
0.0875568836927414 -0.28897976875305176 1.0446380376815796
0.07904857397079468 -0.24936461448669434 1.0453275442123413
0.09086200594902039 -0.23070499300956726 1.0253101587295532
0.08443176001310349 -0.23833376169204712 1.035870909690857
0.07555028051137924 -0.2460920661687851 1.0244054794311523
-0.057452425360679626 -0.42259281873703003 1.100069522857666
0.0705299898982048 -0.24939021468162537 0.9928566813468933
-0.06933291256427765 -0.45569831132888794 1.1330780982971191
0.03950898349285126 -0.2963808476924896 1.0187991857528687
0.1760869324207306 -0.14793550968170166 1.0310330390930176
0.16720575094223022 -0.1559983789920807 1.025055170059204
0.16993699967861176 -0.15500979125499725 1.0160471200942993
0.08140957355499268 -0.27257591485977173 1.0723814964294434
0.07828475534915924 -0.2844369113445282 1.0957906246185303
0.08291031420230865 -0.2746127247810364 1.0797799825668335
0.06487590074539185 -0.26716670393943787 0.968760073184967
0.04970092698931694 -0.26962387561798096 0.9293580651283264
-0.04157863184809685 -0.41566309332847595 1.0717031955718994
-0.045966003090143204 -0.42300915718078613 1.0721018314361572
-0.0543733686208725 -0.4319743514060974 1.0777571201324463
0.10786189138889313 -0.23467013239860535 1.0460205078125
0.08357048779726028 -0.28771471977233887 1.0999176502227783
0.07501806318759918 -0.28996074199676514 1.098707675933838
0.0813169851899147 -0.28610605001449585 1.0857772827148438
0.0808146521449089 -0.28390413522720337 1.068892002105713
-0.09463517367839813 -0.48273754119873047 1.080842137336731
-0.1060132086277008 -0.506475031375885 1.1134796142578125
0.20461919903755188 -0.13279199600219727 1.0205399990081787
