-0.14395928382873535 -0.3260398209095001 0.2751150131225586
-0.11909018456935883 -0.3108465373516083 0.18504640460014343
-0.12833110988140106 -0.1843101680278778 0.11203676462173462
-0.07478547096252441 -0.04559818655252457 1.3000956773757935
-0.08203689008951187 -0.05719196796417236 1.2561936378479004
-0.03687634319067001 -0.17884859442710876 1.3008296489715576
-0.09631744772195816 -0.1405109018087387 0.6387509107589722
-0.081434465944767 -0.18583333492279053 0.7560845613479614
-0.05767315626144409 -0.12723836302757263 0.8198351860046387
-0.1079815924167633 -0.30639004707336426 0.15088355541229248
-0.1119164526462555 -0.35927730798721313 0.0801568254828453
-0.09326393902301788 -0.16867107152938843 1.5153967142105103
-0.07192198187112808 -0.054215531796216965 1.3686925172805786
-0.04283244535326958 -0.03745359927415848 1.3075201511383057
-0.07380959391593933 -0.25489097833633423 0.5720584392547607
-0.051318440586328506 -0.23550690710544586 0.5705491900444031
-0.08942414075136185 -0.15614627301692963 0.4932725131511688
-0.0657750815153122 -0.1526338756084442 1.4776668548583984
-0.04641630873084068 -0.1014365702867508 1.4477393627166748
-0.08835519105195999 -0.04528246447443962 1.4169721603393555
-0.06031861528754234 -0.18902648985385895 0.507765531539917
-0.056286584585905075 -0.004896998405456543 1.795031189918518
-0.0858801081776619 -0.20848646759986877 1.6616344451904297
-0.01561092771589756 -0.19253592193126678 0.9947631359100342
-0.04799022153019905 -0.11585482954978943 1.4679856300354004
-0.021806946024298668 -0.1445615291595459 1.4495552778244019
-0.04555675759911537 -0.12720006704330444 1.4362503290176392
-0.023694584146142006 -0.19625255465507507 1.5907319784164429
-0.06670810282230377 -0.1985243260860443 1.5331759452819824
-0.025783101096749306 -0.07851941883563995 1.4824397563934326
-0.04848628491163254 -0.16967350244522095 0.6285141706466675
0.0026511885225772858 -0.04708452522754669 1.8173091411590576
-0.036883607506752014 0.07078226655721664 1.7188770771026611
-0.007907228544354439 -0.2151523232460022 1.5387104749679565
-0.026750341057777405 -0.19620540738105774 1.4806724786758423
-0.007688576355576515 -0.08411740511655807 1.4497865438461304
0.0017163166776299477 -0.19534635543823242 1.4813593626022339
0.023076176643371582 -0.0515252910554409 1.4283661842346191
-0.0019912198185920715 -0.04151938855648041 1.2990961074829102
-0.0037141069769859314 0.013266637921333313 1.7910326719284058
0.017318062484264374 -0.08665592968463898 1.4870710372924805
0.015457791276276112 -0.1394672393798828 1.4663304090499878
0.026145922020077705 0.04181677848100662 1.7465133666992188
0.016363628208637238 -0.031325384974479675 1.797490119934082
0.014831171371042728 -0.13416209816932678 1.4416160583496094
0.060346126556396484 -0.15193358063697815 1.5039986371994019
0.021723641082644463 -0.10684651881456375 1.4536383152008057
0.0609135776758194 -0.05770069733262062 0.5668621063232422
0.04545517638325691 -0.0430726632475853 1.5196040868759155
0.0953642725944519 -0.04059590399265289 0.48625290393829346
0.044560063630342484 -0.20022980868816376 1.2466480731964111
0.08409614115953445 -0.052774738520383835 1.2741408348083496
0.08166534453630447 -0.048788540065288544 1.1499711275100708
0.13048331439495087 0.1846316158771515 0.12346666306257248
0.1595858484506607 0.20514577627182007 0.121761754155159
0.1147158294916153 0.2451486587524414 0.20120014250278473
0.05934259295463562 -0.17386844754219055 1.2394927740097046
0.050840336829423904 -0.19349032640457153 1.1655268669128418
0.05774286761879921 -0.12537018954753876 0.7004472613334656
0.11144713312387466 0.22798696160316467 0.1568213403224945
0.07258260250091553 -0.027196429669857025 1.7532145977020264
0.05421542748808861 -0.19432416558265686 1.6712992191314697
0.046215660870075226 -0.17867162823677063 1.5807957649230957
0.04958159103989601 -0.18482032418251038 1.5313608646392822
0.08983175456523895 -0.156692773103714 0.8477027416229248
0.12770316004753113 -0.028578031808137894 1.7828271389007568
0.052004631608724594 -0.04296119138598442 1.5744563341140747
0.05355151742696762 -0.06506557017564774 1.546034812927246
0.11894409358501434 0.11894437670707703 0.3779332935810089
0.11443765461444855 0.15743720531463623 0.33435750007629395
0.13043056428432465 0.2588690519332886 0.1938789337873459
0.06698255240917206 -0.05166700854897499 1.8448154926300049
0.10258617997169495 -0.06992040574550629 1.4352589845657349
0.09538498520851135 -0.21564224362373352 0.8405334949493408
0.07613540440797806 -0.12783192098140717 0.8324718475341797
0.12212148308753967 -0.18984642624855042 0.830620288848877
0.08592011779546738 -0.030036266893148422 0.7328888773918152
0.1821773648262024 0.1926586627960205 0.1261788010597229
0.08302072435617447 -0.039961230009794235 1.765128493309021
0.07967957109212875 -0.14804723858833313 1.1379752159118652
0.09099090844392776 -0.16953682899475098 1.2533773183822632
0.09527909755706787 -0.18932902812957764 1.2445307970046997
0.13502943515777588 -0.18356215953826904 0.9030221700668335
0.08648228645324707 -0.11965614557266235 1.5964107513427734
0.08290400356054306 -0.03415365517139435 1.5833406448364258
0.08442747592926025 -0.06262245774269104 1.5725411176681519
0.09425153583288193 -0.07913744449615479 1.570433259010315
0.10768771171569824 -0.09268447756767273 1.5473217964172363
0.12356257438659668 -0.04298613965511322 0.6290931105613708
0.12031084299087524 -0.11163994669914246 0.6386722326278687
0.12337107956409454 -0.1336873173713684 1.3909562826156616
0.13267692923545837 -0.05497220903635025 1.3575315475463867
0.08880934119224548 -0.05997485667467117 1.3681025505065918
0.09715799987316132 -0.0715176910161972 1.3378512859344482
0.11017358303070068 -0.11621678620576859 0.8003485202789307
0.17689214646816254 0.23516368865966797 0.17991513013839722
0.19260764122009277 0.2228165566921234 0.16838985681533813
0.09835849702358246 -0.04474412277340889 1.7172373533248901
0.13561788201332092 -0.07397662848234177 1.4091731309890747
0.18341612815856934 0.08552642166614532 0.3435351550579071
0.12216533720493317 -0.018456880003213882 1.6892434358596802
0.09117767214775085 0.005896180868148804 1.6917699575424194
0.10680735111236572 -0.022519800812005997 1.6554903984069824
0.19900381565093994 0.17789381742477417 0.2039019763469696
0.20710213482379913 0.20049721002578735 0.1424853801727295
0.1804334968328476 0.16455711424350739 0.1347123086452484
0.1640641987323761 -0.00968590285629034 0.9408143758773804
0.14087103307247162 -0.012885510921478271 0.8401404619216919
0.13034513592720032 -0.05043816938996315 1.7812002897262573
0.16132482886314392 0.04342889413237572 0.8475047945976257
0.1829112470149994 0.004681657999753952 0.9056749939918518
0.1689450740814209 -0.06495150923728943 1.3485355377197266
0.1886545568704605 -0.08751025050878525 1.3224986791610718
0.13976053893566132 -0.13127011060714722 1.3542081117630005
0.19293862581253052 -0.051140327006578445 1.2942802906036377
0.18060961365699768 -0.046394042670726776 1.2723091840744019
0.23399756848812103 -0.13611042499542236 1.2144639492034912
0.22220900654792786 -0.09371789544820786 1.2749779224395752
0.23356583714485168 -0.02087600901722908 1.2345272302627563
0.2579314410686493 0.02130841463804245 1.1636836528778076
0.2886165380477905 0.018302105367183685 1.1786085367202759
0.28284043073654175 -0.03442707657814026 1.2119367122650146
0.2832135558128357 -0.09937775135040283 1.2055578231811523
0.31130337715148926 0.03379654884338379 1.123203992843628
0.3722382187843323 -0.050387412309646606 1.1423105001449585
0.3665938675403595 -0.010951682925224304 1.1384801864624023
0.34489864110946655 0.021511226892471313 1.1232788562774658
0.36791878938674927 -0.10211686044931412 1.0987416505813599
0.36970189213752747 -0.038890909403562546 1.0883433818817139
0.35713034868240356 -0.011336356401443481 1.0869104862213135
0.4580836296081543 -0.01114414632320404 0.9572306871414185
0.36424702405929565 -0.06874312460422516 1.0760153532028198
0.37447473406791687 -0.07149488478899002 1.0406068563461304
0.40503188967704773 0.002944536507129669 1.0074443817138672
0.37473374605178833 -0.046332795172929764 1.023055076599121
0.38990798592567444 -0.07511596381664276 1.0114037990570068
0.412800669670105 -0.03904001787304878 0.9891623258590698
0.438336580991745 -0.031205356121063232 0.9841530323028564
0.4100014865398407 -0.08686257898807526 0.9719226956367493
0.4279029965400696 -0.05515917018055916 0.973224401473999
0.41983258724212646 -0.07062119245529175 0.9777913093566895
0.4594094157218933 -0.010390155017375946 0.9347199201583862
0.4345499575138092 -0.07591132819652557 0.9586008787155151
0.42909592390060425 -0.016181111335754395 0.9528875946998596
0.45651382207870483 -0.04541437700390816 0.9337505102157593
0.46970051527023315 -0.03184444457292557 0.9433733224868774
-0.33238089084625244 0.0015404042787849903 1.0383175611495972
-0.3307681381702423 -0.07053400576114655 1.011888027191162
-0.3108210861682892 -0.048532746732234955 1.0152459144592285
-0.34202101826667786 -0.11111102253198624 1.0431227684020996
-0.25943395495414734 -0.000401482917368412 1.0458424091339111
-0.30736595392227173 -0.10617278516292572 1.033068060874939
-0.17758645117282867 -0.041820228099823 1.2341194152832031
-0.18513761460781097 -0.10396482050418854 1.1930289268493652
-0.18198609352111816 -0.09359732270240784 0.9499903917312622
-0.1890811026096344 -0.011757949367165565 0.9040409326553345
-0.14011217653751373 0.0496407151222229 0.9049030542373657
-0.17384925484657288 0.16039606928825378 1.2551181316375732
-0.17160668969154358 0.17156364023685455 1.1868836879730225
-0.17829549312591553 0.20504313707351685 1.1521142721176147
-0.16489160060882568 -0.009486706927418709 0.9435592889785767
-0.21077106893062592 -0.061550166457891464 1.7627127170562744
-0.13249459862709045 -0.06304910778999329 1.3660008907318115
-0.1517370045185089 -0.04218985512852669 1.2980091571807861
-0.10001417994499207 0.24002620577812195 1.041043996810913
-0.13470783829689026 0.2566118836402893 0.9495072364807129
-0.19761553406715393 -0.2664567232131958 0.10722490400075912
-0.20112477242946625 -0.32873857021331787 0.06703393906354904
-0.1794126331806183 -0.0628306046128273 1.7435551881790161
-0.16402551531791687 -0.04842152073979378 1.6854639053344727
-0.12076302617788315 -0.17690658569335938 1.2284317016601562
-0.1192627027630806 -0.18849703669548035 1.1959928274154663
-0.12303087115287781 -0.21028918027877808 1.186050534248352
-0.1532311737537384 0.09354493021965027 1.3922796249389648
-0.14109402894973755 0.08837626874446869 1.3867522478103638
-0.09857714176177979 -0.1779600977897644 1.2477179765701294
-0.12481090426445007 -0.0817355290055275 1.2147128582000732
-0.1719154268503189 -0.2965974807739258 0.17399947345256805
-0.17735949158668518 -0.2544536590576172 0.1916072815656662
-0.11229951679706573 0.15231356024742126 1.2467188835144043
-0.13778463006019592 -0.10384715348482132 1.4722213745117188
-0.13739950954914093 -0.09654633700847626 1.4465949535369873
-0.12233539670705795 -0.09368041157722473 1.4234473705291748
-0.13776296377182007 -0.09080533683300018 1.423259973526001
-0.1343214362859726 -0.10817971080541611 1.4065136909484863
-0.12821640074253082 -0.13940921425819397 0.7885248064994812
-0.14220848679542542 -0.11126603186130524 0.7632821798324585
-0.10564006865024567 0.3040374219417572 1.0498937368392944
-0.10752139985561371 0.2889101505279541 1.1068822145462036
-0.08976366370916367 -0.16677707433700562 1.2484304904937744
-0.12257098406553268 -0.10532403737306595 0.8523737192153931
-0.1747739613056183 -0.19536864757537842 0.11284873634576797
-0.18111605942249298 -0.19645552337169647 0.06891310214996338
-0.1373106986284256 -0.19012632966041565 0.852094292640686
-0.12688766419887543 0.22265174984931946 1.2260662317276
-0.13227824866771698 -0.1819370985031128 1.6571091413497925
-0.11931054294109344 -0.051984868943691254 1.5593631267547607
-0.11110961437225342 0.05869656428694725 1.5322089195251465
-0.09867633134126663 0.009158112108707428 1.5870349407196045
-0.12093382328748703 0.005419958382844925 1.560915231704712
-0.11973723024129868 0.04613327234983444 1.4780622720718384
-0.06847073137760162 0.095779187977314 1.5737848281860352
-0.09914182126522064 -0.09601445496082306 1.5101295709609985
-0.0989452451467514 0.04436720162630081 0.9661815762519836
-0.13811276853084564 -0.05813691020011902 1.848909854888916
-0.15129777789115906 -0.06733232736587524 1.8436696529388428
-0.14967486262321472 -0.07923587411642075 1.829872488975525
-0.02925666980445385 0.05952862277626991 1.4595798254013062
-0.11266587674617767 0.1070609763264656 1.4410877227783203
-0.11055652797222137 -0.26493605971336365 0.0389094278216362
-0.07725158333778381 0.1748102754354477 1.3712821006774902
-0.08900748193264008 -0.17733138799667358 1.5654046535491943
-0.09656695276498795 -0.25360026955604553 0.3936992585659027
-0.06124882772564888 0.02483491227030754 1.5240345001220703
-0.06891404092311859 -0.03997974842786789 1.5088396072387695
-0.057961948215961456 0.12038180977106094 1.4886751174926758
-0.04377220571041107 0.052274495363235474 0.8426433801651001
-0.10340968519449234 -0.20204538106918335 0.3344928026199341
-0.046364955604076385 0.295975923538208 0.9480857849121094
-0.03714476525783539 0.043547749519348145 1.0348882675170898
-0.06623107194900513 -0.19277089834213257 1.2438347339630127
-0.0667305514216423 -0.16482117772102356 1.151279330253601
-0.09020189195871353 -0.2324034869670868 0.3195055425167084
-0.0727851539850235 -0.25692588090896606 0.26453927159309387
-0.10333040356636047 -0.21144568920135498 0.2533746361732483
-0.05725730210542679 -0.004809048026800156 1.5439518690109253
-0.04037387669086456 -0.1952025443315506 0.7027706503868103
-0.06717190891504288 -0.14422310888767242 0.6369817852973938
-0.04511512070894241 0.3119889795780182 1.0960571765899658
-0.037906549870967865 0.3237672448158264 1.000653862953186
-0.012818018905818462 -0.19923633337020874 1.1703548431396484
-0.0956098884344101 -0.24804940819740295 0.1271146684885025
-0.037942904978990555 0.2670331597328186 0.9937552213668823
-0.04281133413314819 0.23310203850269318 1.0345447063446045
0.013516506180167198 0.01856883428990841 1.532545566558838
-0.052510038018226624 -0.15855319797992706 1.393393874168396
-0.018343407660722733 0.20142842829227448 1.3456047773361206
0.0248497873544693 0.06512171030044556 1.4445245265960693
0.010090682655572891 -0.00540388748049736 1.534469485282898
0.024974994361400604 0.2712337076663971 1.0025684833526611
0.04545661062002182 0.27054673433303833 0.9525009393692017
0.011570630595088005 -0.17200513184070587 1.3832542896270752
0.013525472953915596 0.04676630720496178 1.0279828310012817
0.007608708925545216 -0.19725152850151062 1.112557291984558
0.06752254068851471 0.18066637217998505 1.368101954460144
0.03947393223643303 -0.036509618163108826 1.3173633813858032
0.057126328349113464 0.11620393395423889 1.491001009941101
0.0329267755150795 0.054351143538951874 1.4905928373336792
0.054095081984996796 -0.028673836961388588 1.2240941524505615
0.039634786546230316 0.10078750550746918 0.9109342098236084
0.02201891876757145 -0.08173095434904099 1.7820849418640137
0.10256564617156982 0.18842849135398865 0.14412057399749756
0.10711922496557236 0.20854254066944122 0.13065177202224731
0.09079381823539734 0.21378350257873535 0.1881422996520996
0.0035736635327339172 -0.21056649088859558 1.664385437965393
0.05569159612059593 -0.0464441254734993 0.6941536664962769
0.09960424900054932 0.061837129294872284 1.4562627077102661
0.06724244356155396 -0.11035133898258209 1.5130431652069092
0.11532468348741531 -0.10452770441770554 1.4445741176605225
0.06200798600912094 -0.0663488432765007 1.4248046875
0.09725403785705566 0.07850101590156555 0.42592722177505493
0.11674043536186218 0.07819805294275284 0.25685033202171326
0.12733666598796844 0.17552296817302704 0.2887377142906189
0.10439568758010864 0.2710709571838379 1.01019287109375
0.08987008780241013 0.3078141510486603 0.974628210067749
0.0914946049451828 -0.13186976313591003 0.7116119861602783
0.09739834815263748 -0.031091896817088127 0.6401488780975342
0.029229413717985153 -0.1337733417749405 1.7706977128982544
0.07517804205417633 -0.13335539400577545 1.7256776094436646
0.11083129793405533 -0.07711483538150787 0.5166255235671997
0.04124337062239647 -0.07259338349103928 1.7944715023040771
0.07231396436691284 -0.08185888826847076 1.7432104349136353
0.09729897975921631 -0.07720045000314713 1.1403515338897705
0.09975814074277878 -0.06396130472421646 1.109370231628418
0.09405961632728577 -0.1428057998418808 1.0919344425201416
0.06778862327337265 -0.17711536586284637 1.661476731300354
0.08105581253767014 -0.09961637854576111 1.545878291130066
0.07421241700649261 -0.146810382604599 1.5488981008529663
0.15154634416103363 0.26539286971092224 0.9636699557304382
0.1122228279709816 -0.1377905309200287 1.287369966506958
0.12861034274101257 -0.19642597436904907 1.2279956340789795
0.11483825743198395 -0.11106504499912262 1.2411727905273438
0.1745409369468689 0.19649380445480347 0.243680939078331
0.15750852227210999 0.11958357691764832 0.20638355612754822
0.17742066085338593 0.13342097401618958 0.1959136426448822
0.08715616166591644 -0.05492674559354782 1.7653532028198242
0.12528470158576965 -0.1568739414215088 1.2809092998504639
0.17157815396785736 0.05359306558966637 0.45973873138427734
0.15025854110717773 -0.019106369465589523 0.477946400642395
0.18006360530853271 0.06809553503990173 0.4067576229572296
0.13358142971992493 -0.12251962721347809 1.4318243265151978
0.1170549988746643 -0.11758392304182053 1.4286746978759766
0.14068058133125305 -0.08466625958681107 1.396945834159851
0.11929100751876831 0.06979367136955261 0.9066500067710876
0.11741834878921509 -0.1144149899482727 0.8297010660171509
0.1991252899169922 0.13421081006526947 0.3073578178882599
0.20775485038757324 0.10543400049209595 0.297927588224411
0.14951622486114502 -0.07404407113790512 1.3936727046966553
0.15644869208335876 0.15080109238624573 1.2692539691925049
0.15787547826766968 0.18641315400600433 1.2433881759643555
0.143541619181633 -0.24104087054729462 1.1066220998764038
0.16689340770244598 -0.054187797009944916 0.9710966348648071
0.16962569952011108 -0.11603197455406189 0.9598650932312012
0.19388213753700256 -0.014881744980812073 1.2256486415863037
0.29331716895103455 -0.0642596110701561 1.0787723064422607
0.2872856855392456 -0.00903775542974472 1.083264946937561
0.3145292401313782 -0.12781256437301636 1.1238713264465332
-0.314517080783844 -0.007634561508893967 1.010677695274353
-0.3385861814022064 -0.07162582874298096 0.9748647212982178
-0.24705509841442108 -0.11005277931690216 1.0982704162597656
-0.26324978470802307 -0.13294823467731476 1.1440415382385254
-0.20737184584140778 -0.0724964290857315 1.1256687641143799
-0.19517982006072998 -0.027899108827114105 1.1601649522781372
-0.1926397681236267 -0.15211078524589539 0.8674044609069824
-0.17082135379314423 0.24489320814609528 0.9942470788955688
-0.17423564195632935 0.20713548362255096 1.1079756021499634
-0.12655425071716309 -0.2547993063926697 1.0756361484527588
-0.14055165648460388 -0.16056635975837708 0.9556061029434204
-0.18871867656707764 -0.25878462195396423 0.2754746079444885
-0.1660875827074051 -0.30312713980674744 0.29782313108444214
-0.1270579695701599 -0.1655154973268509 0.4795759320259094
-0.148157000541687 -0.19605860114097595 0.858932375907898
-0.12283146381378174 -0.17992283403873444 0.6191785335540771
-0.12060943990945816 -0.18789637088775635 0.6888887882232666
-0.11187058687210083 -0.12702660262584686 0.6707572340965271
-0.1024133712053299 -0.01088964007794857 1.109389305114746
-0.093370720744133 -0.07901252061128616 1.1310858726501465
-0.08904862403869629 0.26395341753959656 1.1884191036224365
-0.11385416239500046 -0.018728986382484436 0.8282062411308289
-0.12281063944101334 -0.311445415019989 0.31577712297439575
-0.1006862074136734 -0.04069224372506142 1.2202671766281128
-0.08371299505233765 -0.03668495640158653 1.1452144384384155
-0.11353014409542084 -0.26526373624801636 0.4476710855960846
-0.13731670379638672 -0.07590848207473755 1.7633968591690063
-0.13668732345104218 -0.11367347091436386 1.752497673034668
-0.08757670223712921 -0.14887771010398865 1.7654268741607666
-0.09941526502370834 -0.18994837999343872 1.723460078239441
-0.11244732141494751 -0.18036913871765137 1.6197967529296875
-0.10064280778169632 -0.26362287998199463 0.34093838930130005
-0.04744268208742142 -0.17060618102550507 0.756490170955658
-0.07613049447536469 -0.28517016768455505 0.2751227915287018
-0.0942792147397995 -0.31171849370002747 0.2833797335624695
-0.10805383324623108 -0.22666984796524048 0.2176665961742401
-0.06012542173266411 0.06739052385091782 0.9586338400840759
-0.08858679980039597 -0.059957388788461685 1.8097612857818604
-0.10281407833099365 -0.07548762857913971 1.7960044145584106
0.01635422557592392 0.20303936302661896 1.1674305200576782
-0.08745064586400986 0.19522663950920105 1.1702241897583008
-0.006565239280462265 0.172622948884964 1.231453537940979
0.02178751491010189 -0.04744209349155426 1.2623151540756226
-0.005015098489820957 0.26324886083602905 1.2240262031555176
0.00696273148059845 0.24310816824436188 1.0400065183639526
0.06502433121204376 0.30249109864234924 1.1354830265045166
0.018389955163002014 0.07288031280040741 1.688276767730713
0.048527877777814865 0.2358098030090332 1.0480623245239258
0.04988609254360199 -0.21866536140441895 0.8963878154754639
0.0835820734500885 0.10087962448596954 0.29050835967063904
0.10121260583400726 0.12626704573631287 0.24464178085327148
0.05302288010716438 -0.11151082068681717 0.6690570712089539
0.04256376624107361 0.024237608537077904 1.0639088153839111
0.07580272853374481 -0.01501972135156393 0.5614367723464966
0.08010785281658173 0.14356756210327148 1.3040046691894531
0.08946812897920609 -0.1507912129163742 1.4058829545974731
0.056187886744737625 0.06301575154066086 1.6472834348678589
0.05950259044766426 -0.01649273931980133 1.6162536144256592
0.06231338903307915 0.004980467259883881 1.5889315605163574
0.03489448502659798 -0.06921415030956268 1.8447675704956055
0.09324997663497925 -0.1560371071100235 1.3285439014434814
0.13982157409191132 0.039626508951187134 0.521497905254364
0.1057930737733841 0.05282227694988251 0.5227838754653931
0.13753379881381989 0.11847952008247375 0.39914649724960327
0.16174368560314178 0.12804733216762543 0.3736518621444702
0.1061972975730896 -0.08970530331134796 1.5356249809265137
0.09276863932609558 -0.10211010277271271 1.546576976776123
0.10846057534217834 -0.09565585851669312 1.5284947156906128
0.11972977966070175 -0.04500359296798706 0.7462836503982544
0.1361929178237915 -0.07116428762674332 0.6109302639961243
0.12764737010002136 0.029964759945869446 0.9449743628501892
0.1298462450504303 -0.056567925959825516 1.0805624723434448
0.1255146563053131 -0.11225643008947372 1.0720406770706177
0.13152942061424255 -0.14192338287830353 1.0149543285369873
0.10184885561466217 -0.05034775286912918 1.6600825786590576
0.1169484555721283 -0.05155189707875252 1.570162296295166
0.12027566134929657 -0.17849977314472198 1.2138804197311401
0.12465782463550568 0.03207474201917648 1.558333158493042
0.1169956773519516 -0.002535056322813034 1.597002387046814
0.19308780133724213 0.2197745144367218 0.18786050379276276
0.2049063742160797 0.20381423830986023 0.16515108942985535
0.13843277096748352 0.020819339901208878 1.5185813903808594
0.1419476419687271 0.04408342391252518 1.4893853664398193
0.15109649300575256 0.05293192341923714 1.4435151815414429
0.14795836806297302 0.07571416348218918 1.4278212785720825
0.13618645071983337 -0.2508341670036316 1.1243500709533691
0.17108727991580963 -0.15126833319664001 0.8354663848876953
0.1545575112104416 -0.22515740990638733 1.1440539360046387
0.15300783514976501 -0.250548392534256 1.1257661581039429
0.19887033104896545 -0.1090545579791069 0.8521638512611389
0.19894011318683624 -0.08692512661218643 0.8334499001502991
0.20898273587226868 -0.052197881042957306 0.8455209136009216
-0.21962112188339233 -0.13045459985733032 1.1637160778045654
-0.15200190246105194 -0.15091903507709503 1.246721863746643
-0.1628846824169159 -0.14544261991977692 1.229327917098999
-0.15214529633522034 -0.13865041732788086 1.239949345588684
-0.14717525243759155 -0.1395227015018463 1.2585422992706299
-0.2053849846124649 -5.6531280279159546e-05 0.8341512680053711
-0.11989253014326096 -0.10305897891521454 1.2897871732711792
-0.13817143440246582 -0.06353176385164261 1.0834276676177979
-0.14900580048561096 0.03353217989206314 1.568571925163269
-0.12236491590738297 -0.10787302255630493 1.1980727910995483
-0.12615308165550232 -0.08818267285823822 1.1491974592208862
-0.1274869292974472 0.06528428941965103 1.4635376930236816
-0.125266432762146 0.07854440063238144 1.413957953453064
-0.11700472980737686 -0.14342164993286133 1.047651767730713
-0.08461344242095947 -0.17183029651641846 1.0072224140167236
-0.12164861708879471 -0.06667397171258926 0.748784601688385
-0.08701105415821075 0.2222823053598404 1.2677083015441895
-0.09230503439903259 0.07241276651620865 1.6655902862548828
-0.10461387038230896 -0.20346428453922272 0.0695834532380104
-0.11930736899375916 -0.19032618403434753 0.058557696640491486
-0.08932512253522873 0.023277871310710907 0.8441485166549683
-0.015256216749548912 0.09817132353782654 0.8398370742797852
-0.06142754852771759 -0.021082770079374313 0.8263579607009888
0.0006879735738039017 0.1181304007768631 1.3366756439208984
-0.026015615090727806 -0.11695230007171631 0.7647706270217896
-0.03569520264863968 -0.200693741440773 1.6385347843170166
-0.01615339331328869 0.018771490082144737 0.8612948656082153
-0.0072939591482281685 -0.02266688272356987 0.8415567874908447
0.007786269299685955 -0.11558499932289124 0.843731701374054
-0.07753465324640274 -0.16799581050872803 0.8573049306869507
0.0006889626383781433 -0.2275988906621933 0.8451818227767944
0.0211015697568655 -0.10635717958211899 0.810740053653717
-0.005374710075557232 -0.1636999547481537 0.856702446937561
0.008073262870311737 -0.03213562071323395 1.5079995393753052
0.016289135441184044 -0.03233201801776886 0.8351741433143616
0.02024408057332039 -0.04678550362586975 0.8105040192604065
0.01741209253668785 -0.016871560364961624 1.5877488851547241
0.022132404148578644 -0.010056976228952408 1.5605548620224
0.030379798263311386 -0.11985945701599121 0.8292961120605469
0.12087906897068024 0.0643400251865387 0.8381065726280212
0.08644269406795502 0.12671756744384766 0.3056013584136963
0.04066109284758568 -0.03288083150982857 0.7985984683036804
0.06349591165781021 0.19905635714530945 1.2013883590698242
0.11555236577987671 0.04008091241121292 0.3930998146533966
0.11317342519760132 0.08622591942548752 0.35005325078964233
0.1289633810520172 0.05994638800621033 0.3526862859725952
0.12671972811222076 0.05276145040988922 0.28891274333000183
0.10385014861822128 0.047229450196027756 1.5303252935409546
0.07029805332422256 -0.012739130295813084 0.834608256816864
0.09578129649162292 -0.034555744379758835 0.8112196922302246
0.11141689121723175 -0.08095680177211761 1.2513539791107178
0.14574913680553436 0.006363540887832642 0.4273762106895447
0.09607664495706558 0.009700249880552292 1.6337690353393555
0.09761612117290497 -0.053402651101350784 1.312319040298462
0.16031381487846375 0.05805118381977081 0.35493865609169006
0.08267611265182495 0.2681856155395508 1.1989398002624512
0.11371583491563797 -0.048690348863601685 1.229100227355957
0.16983363032341003 0.16972383856773376 0.29118722677230835
0.13336259126663208 0.2863064110279083 1.109277367591858
0.1533542275428772 0.16253501176834106 0.3203003406524658
0.16970981657505035 0.05956908315420151 0.26544713973999023
0.13491210341453552 0.1275615394115448 1.3239312171936035
0.12753722071647644 -0.11305028200149536 1.475454330444336
0.1375749111175537 -0.09902487695217133 1.444088101387024
0.12649646401405334 -0.11130459606647491 1.475376844406128
0.15729846060276031 -0.07182130217552185 1.4296722412109375
0.1432524472475052 -0.20136836171150208 1.1942188739776611
0.1280493289232254 -0.21289318799972534 1.1836225986480713
0.15246964991092682 0.17748969793319702 1.2217178344726562
0.17081955075263977 0.22939836978912354 1.1556164026260376
0.16702613234519958 0.22748377919197083 1.118514895439148
0.16988833248615265 -0.06511344015598297 1.2629398107528687
0.16106221079826355 -0.11530070006847382 1.25520658493042
0.15618084371089935 -0.17709892988204956 0.8493407368659973
0.17147058248519897 -0.13829724490642548 1.2573273181915283
0.22212941944599152 -0.12226681411266327 1.1493444442749023
0.20440985262393951 -0.03545196354389191 1.1676313877105713
0.22380627691745758 -0.08332569897174835 1.1306076049804688
0.3070864975452423 -0.11801659315824509 1.1669948101043701
0.33095890283584595 -0.020567283034324646 1.0611320734024048
0.33544427156448364 -0.10467469692230225 1.0831190347671509
-0.13140341639518738 -0.2517211139202118 1.1185706853866577
-0.13201949000358582 -0.18929758667945862 1.1839048862457275
-0.14160674810409546 -0.18151964247226715 1.2058824300765991
-0.12006592005491257 -0.2359827607870102 1.1245360374450684
-0.14369013905525208 0.05797078460454941 1.4955370426177979
-0.15076510608196259 0.050636447966098785 1.4776549339294434
-0.15855254232883453 0.08066461980342865 1.4313275814056396
-0.16047403216362 -0.0773308128118515 1.7240113019943237
-0.154852956533432 -0.11443179845809937 1.6374623775482178
-0.1578701138496399 -0.26340028643608093 0.3344922959804535
-0.12847372889518738 -0.06704714149236679 0.832858681678772
-0.12616999447345734 -0.09792566299438477 0.8240008354187012
-0.15513531863689423 0.27004364132881165 0.9680135846138
-0.07943977415561676 -0.15701815485954285 1.2433383464813232
-0.11198930442333221 -0.040336962789297104 0.7969286441802979
-0.1086791530251503 -0.0906660407781601 1.7758995294570923
-0.07809054106473923 -0.12512314319610596 1.1316051483154297
-0.03897997736930847 -0.1854913830757141 1.1245448589324951
-0.08891506493091583 0.23021955788135529 1.0890885591506958
-0.0020609458442777395 0.23284393548965454 1.0861045122146606
-0.06217975169420242 -0.019828487187623978 1.1623111963272095
-0.05029808729887009 -0.11392013728618622 0.8438000082969666
-0.03605102747678757 -0.19006063044071198 1.0668243169784546
-0.05443040654063225 0.025321446359157562 1.0588136911392212
-0.031822625547647476 -0.19023491442203522 1.7385540008544922
0.02071128971874714 -0.0924483984708786 0.7431051731109619
-0.06556199491024017 0.1308060884475708 1.3045151233673096
0.10039150714874268 0.22417858242988586 0.14704501628875732
0.11547915637493134 0.31617504358291626 1.0391979217529297
0.07791644334793091 0.23742587864398956 1.1084574460983276
0.04785551875829697 0.3275138735771179 1.0518848896026611
0.08859454095363617 0.09530063718557358 0.8455734252929688
0.16570770740509033 0.2465490996837616 0.2011871039867401
0.1119973212480545 -0.03638368099927902 0.8318251371383667
0.1497240662574768 0.03380640596151352 0.3970317244529724
0.1325221061706543 -0.13913539052009583 1.3889410495758057
0.13626918196678162 -0.1387830525636673 1.299166202545166
0.1935247778892517 0.0025170091539621353 0.8415850400924683
0.2005104422569275 -0.04855995625257492 0.9045110940933228
0.3422105610370636 -0.06475882232189178 1.0605641603469849
-0.2784789502620697 -0.1328035295009613 1.1044766902923584
-0.20397651195526123 -0.0780060663819313 0.9067279100418091
-0.21902859210968018 -0.07259471714496613 0.8502694368362427
-0.15818987786769867 0.062022026628255844 1.4260064363479614
-0.16939817368984222 0.13576625287532806 1.257988691329956
-0.14059419929981232 -0.05745166167616844 1.5486676692962646
-0.13624736666679382 -0.05384037643671036 1.0463680028915405
-0.1333341747522354 -0.08480389416217804 1.0892724990844727
-0.14136642217636108 -0.05224332958459854 1.549484133720398
-0.13602851331233978 -0.0705510601401329 1.536210536956787
-0.13873429596424103 -0.0631633922457695 1.5446473360061646
-0.1389436274766922 -0.06447827070951462 1.5483399629592896
-0.1421484351158142 -0.0795845091342926 1.536355972290039
-0.1451989710330963 -0.317391037940979 0.17597374320030212
-0.14918404817581177 -0.15508076548576355 1.6937729120254517
-0.02635306678712368 -0.024282699450850487 1.2191176414489746
-0.09672848880290985 -0.31261134147644043 0.06872405856847763
-0.04058767110109329 -0.04367508739233017 1.2606898546218872
0.00047025131061673164 -0.020379872992634773 1.1720393896102905
-0.04857970401644707 0.0955948531627655 0.9172698259353638
-0.03931904584169388 -0.09488453716039658 1.793076753616333
-0.032585300505161285 -0.1483062505722046 0.7029125094413757
-0.039098504930734634 0.14761203527450562 1.2649880647659302
0.022445350885391235 -0.19065546989440918 1.010927677154541
-0.011387117207050323 -0.20664644241333008 1.2105154991149902
0.009052644483745098 0.2104899287223816 1.1328495740890503
0.10291039943695068 0.16391053795814514 0.26344034075737
0.08048509806394577 -0.17087432742118835 0.9879941940307617
0.1260676383972168 -0.16626742482185364 0.9567873477935791
0.08126748353242874 0.015634696930646896 1.5529978275299072
0.08940582722425461 -0.16159000992774963 1.1651217937469482
0.04706516116857529 -0.0231239702552557 1.1696126461029053
0.10286933183670044 -0.011749520897865295 1.0745940208435059
0.08238564431667328 0.06373904645442963 0.9460219144821167
0.17037305235862732 0.23743079602718353 0.12103090435266495
0.14398297667503357 0.24197247624397278 0.1252819299697876
0.19778287410736084 0.2361409068107605 0.13807445764541626
0.18879297375679016 0.08189931511878967 0.25688880681991577
0.12429305166006088 -0.11040797829627991 1.4716925621032715
0.12463172525167465 -0.11075713485479355 1.4726707935333252
0.11282453685998917 -0.10068920999765396 1.3220317363739014
0.13406074047088623 -0.1254103034734726 1.2932991981506348
0.18345029652118683 0.2688044309616089 1.0456231832504272
0.18379512429237366 0.2567608952522278 0.9935778379440308
0.1940908581018448 0.2637910544872284 0.9904674887657166
0.3397088050842285 -0.00715821236371994 1.0694029331207275
0.3639068007469177 -0.07266875356435776 1.0319583415985107
0.38869285583496094 -0.08997762203216553 1.0142394304275513
-0.26318976283073425 -0.04670577496290207 1.0382782220840454
-0.14224623143672943 -0.21976305544376373 1.1650753021240234
-0.12864838540554047 -0.26304033398628235 0.3663387596607208
-0.10796117037534714 0.2644360363483429 0.9408249258995056
-0.08905264735221863 -0.14213964343070984 1.0845248699188232
-0.03254789486527443 -0.04182544723153114 0.8337888121604919
-0.04872399941086769 -0.04374079033732414 0.7879260182380676
-0.04252501577138901 -0.09348924458026886 0.8081156611442566
-0.002578609623014927 0.02342742308974266 1.1034890413284302
0.027555573731660843 -0.20800191164016724 0.8305932283401489
0.08907347172498703 0.01998918317258358 0.8508317470550537
0.09979907423257828 0.2449648380279541 1.0692050457000732
0.10932973027229309 -0.02791234478354454 1.571476936340332
0.11818788945674896 0.002450801432132721 1.5476950407028198
0.18765150010585785 -0.11606969684362411 0.9021562933921814
-0.14612852036952972 -0.22545447945594788 1.1299382448196411
-0.15067170560359955 -0.0005634129047393799 1.5837689638137817
-0.08115003257989883 0.2690800726413727 0.9931195378303528
-0.1323576718568802 0.028344057500362396 1.6160576343536377
-0.09948129951953888 -0.00763968750834465 1.6025294065475464
-0.06090998649597168 -0.014748632907867432 1.5803049802780151
0.05111251026391983 -0.18649719655513763 1.0659794807434082
0.0765666663646698 -0.16333439946174622 1.2487223148345947
0.1225724145770073 0.12783852219581604 0.1969040483236313
0.11654499173164368 -0.13135157525539398 1.2139750719070435
0.12470728158950806 -0.10499398410320282 1.1643550395965576
0.13087986409664154 0.07009942829608917 1.4488153457641602
0.10750190168619156 0.10382357984781265 1.4567509889602661
0.12533174455165863 -0.058566492050886154 1.1772884130477905
0.11567812412977219 -0.07407104969024658 0.8165007829666138
0.10628221184015274 -0.20031537115573883 1.2135887145996094
0.13795655965805054 0.13849341869354248 1.3481380939483643
-0.15298984944820404 0.11472705751657486 1.3546892404556274
-0.12186902016401291 -0.18888668715953827 0.35993248224258423
0.03754547983407974 -0.08659432828426361 0.7027918100357056
0.030053790658712387 -0.18546074628829956 1.7185330390930176
-0.1722666472196579 0.2470424920320511 1.0464897155761719
-0.13962940871715546 -0.14236490428447723 1.2625713348388672
-0.07998203486204147 -0.21988095343112946 0.40145015716552734
0.0001388266682624817 0.12863999605178833 1.4895970821380615
0.12192116677761078 0.23344328999519348 0.12258394807577133
0.10978777706623077 -0.09516844153404236 1.5289125442504883
0.10952328145503998 -0.0951213389635086 1.5261386632919312
0.12105140835046768 -0.10233858227729797 1.427433967590332
0.1807756870985031 0.1077740490436554 0.23993787169456482
0.1922222077846527 0.14272864162921906 0.2523892819881439
0.21382194757461548 -0.1431027352809906 1.196230411529541
-0.18051403760910034 -0.15227976441383362 0.9254220128059387
-0.15612664818763733 0.09004384279251099 1.3899683952331543
-0.15467706322669983 0.0875781774520874 1.391281247138977
-0.15986458957195282 0.08444474637508392 1.391284465789795
-0.09003421664237976 -0.26572951674461365 0.21168649196624756
-0.0315227136015892 -0.09430588781833649 0.8375046253204346
0.09686391800642014 0.15745380520820618 0.2105373591184616
0.26636379957199097 -0.1404978185892105 1.1504857540130615
0.09252898395061493 -0.12678179144859314 1.6728570461273193
0.1317848414182663 -0.09243712574243546 0.7672649621963501
0.14527833461761475 0.08204520493745804 1.404219627380371
0.14086975157260895 0.11275041103363037 1.364251732826233
0.0989033505320549 0.24325484037399292 0.1753690540790558
0.38414904475212097 -0.5033789277076721 0.8999670147895813
0.3742557466030121 -0.4584125280380249 0.8910212516784668
0.3760123550891876 -0.47338372468948364 0.8892211318016052
0.36694470047950745 -0.47647982835769653 0.8961341381072998
0.3765075206756592 -0.5004552602767944 0.8903258442878723
0.3801284730434418 -0.491707980632782 0.9077836871147156
0.37744927406311035 -0.3155595660209656 0.9446435570716858
0.3611564338207245 -0.3225269913673401 0.9360584616661072
0.3767324984073639 -0.3459453582763672 0.9353736639022827
0.37630340456962585 -0.35688090324401855 0.9341256022453308
0.35751232504844666 -0.11357147246599197 0.9410146474838257
0.35433429479599 -0.13717123866081238 0.9530096054077148
0.3556368947029114 -0.12678669393062592 0.9280338883399963
0.36890608072280884 -0.32903558015823364 0.8967336416244507
0.3718627095222473 -0.3480110168457031 0.9042201042175293
0.38287073373794556 -0.39162659645080566 0.9459806680679321
0.3805883228778839 -0.373041033744812 0.9388774633407593
0.35651764273643494 -0.16402922570705414 0.8958247900009155
0.35878223180770874 -0.17951838672161102 0.9159702062606812
0.3807699680328369 -0.23877769708633423 0.9656590223312378
0.3706616759300232 -0.2278541922569275 0.9628104567527771
0.38991108536720276 -0.47442418336868286 0.9246425032615662
0.3784842789173126 -0.4446046054363251 0.8855456709861755
0.36475223302841187 -0.1206619068980217 0.9188877940177917
0.3595160245895386 -0.1282697468996048 0.9125019907951355
0.36844661831855774 0.07446593046188354 1.0799808502197266
0.3657867908477783 0.05975789576768875 1.0727940797805786
0.3637961149215698 0.07983708381652832 1.0589765310287476
0.3856649696826935 -0.41873204708099365 0.9299570322036743
0.38688600063323975 -0.44543811678886414 0.9257141351699829
0.3632914423942566 -0.12288060784339905 0.9106613397598267
0.36276888847351074 -0.11769150197505951 0.9017041921615601
0.3810043931007385 -0.5080532431602478 0.8436122536659241
0.3815248906612396 -0.5288887023925781 0.8458813428878784
0.36981356143951416 0.08861439675092697 1.0773335695266724
0.36982402205467224 0.07068856060504913 1.0845439434051514
0.3647729754447937 0.09058636426925659 1.071905255317688
0.3690643012523651 0.08389091491699219 1.0581170320510864
0.3910674452781677 -0.5792829990386963 0.8836663961410522
0.399187833070755 -0.6032859086990356 0.8867812156677246
0.3907683193683624 -0.6004677414894104 0.8685468435287476
0.37107300758361816 -0.25284039974212646 0.8954871892929077
0.37841272354125977 -0.2733393609523773 0.8879028558731079
0.3714839518070221 -0.2943587899208069 0.8753232955932617
0.37642303109169006 -0.29148775339126587 0.8711947798728943
0.3759746551513672 0.0674305111169815 1.0878722667694092
0.3689972758293152 0.0960107371211052 1.068145513534546
0.39447399973869324 -0.4174079895019531 0.9458237886428833
0.40106338262557983 -0.41574326157569885 0.9465532302856445
0.39136457443237305 -0.4345192313194275 0.9404693841934204
0.40248405933380127 -0.4568535089492798 0.9374361038208008
0.37101468443870544 -0.20229211449623108 0.8993775248527527
0.3728814125061035 -0.21939516067504883 0.8884902000427246
0.3687985837459564 -0.22568240761756897 0.8920977115631104
0.37386471033096313 0.09117776900529861 1.0710573196411133
0.38020846247673035 0.06454292684793472 1.0828721523284912
0.3728458285331726 0.08015970885753632 1.0589256286621094
0.3612445592880249 -0.07665202021598816 0.8835567235946655
0.3611105680465698 -0.08331427723169327 0.873753547668457
0.36149510741233826 -0.1043870747089386 0.8921009302139282
0.3649018406867981 -0.09315839409828186 0.8851302266120911
0.3572527766227722 -0.08796707540750504 0.8835824131965637
0.3772118389606476 -0.3162078857421875 0.8570833802223206
0.37700337171554565 -0.2980519235134125 0.859947919845581
0.3744312524795532 -0.29992908239364624 0.8461676836013794
0.3753039240837097 -0.3070707321166992 0.8441514372825623
0.3800264000892639 0.07205962389707565 1.0652542114257812
0.40461260080337524 -0.6145299077033997 0.8898703455924988
0.40443888306617737 -0.6046431660652161 0.8729047775268555
0.4071146547794342 -0.6195068359375 0.8836989998817444
0.4045880436897278 -0.6267729997634888 0.8834590911865234
0.39896082878112793 -0.5950908660888672 0.8623930215835571
0.3871023654937744 -0.1115880236029625 0.9332379698753357
0.3750675320625305 -0.12197613716125488 0.914833128452301
0.38863351941108704 -0.48419731855392456 0.8414186835289001
0.3929981589317322 -0.5155229568481445 0.8394232988357544
0.3943753242492676 -0.5439651012420654 0.8465598821640015
0.3953627645969391 -0.22131049633026123 0.9683541655540466
0.3920019567012787 -0.24404335021972656 0.9619758129119873
0.40093833208084106 -0.2539222836494446 0.9523868560791016
0.4070678949356079 -0.40779557824134827 0.9513047337532043
0.40257519483566284 -0.4167103171348572 0.9400445818901062
0.4048285484313965 -0.47648370265960693 0.9278866052627563
0.3959015905857086 -0.3731735348701477 0.9469505548477173
0.3970069885253906 -0.45978841185569763 0.8691453337669373
0.3967074453830719 -0.4991146922111511 0.8558990955352783
0.4003687798976898 -0.2189611941576004 0.9631901383399963
0.40886998176574707 -0.37925004959106445 0.9252692461013794
0.4064772427082062 -0.3577325940132141 0.9231729507446289
0.4090263843536377 -0.39817672967910767 0.9224326014518738
0.4072074592113495 -0.5634899139404297 0.8752763867378235
0.4066920876502991 -0.5495016574859619 0.8673677444458008
0.38851094245910645 -0.35274773836135864 0.8773303627967834
0.4029349982738495 -0.35779625177383423 0.8915786743164062
0.3957173228263855 -0.3789646029472351 0.8881731033325195
0.4032784700393677 -0.38248133659362793 0.8966944813728333
0.40081986784935 -0.30030322074890137 0.9391554594039917
0.40189504623413086 -0.3410971164703369 0.9296342730522156
0.40928900241851807 -0.46728622913360596 0.9073851108551025
0.41088834404945374 -0.48955458402633667 0.8954370617866516
0.40531259775161743 -0.5016931295394897 0.8997857570648193
0.40639743208885193 -0.44804486632347107 0.8855343461036682
0.40860921144485474 -0.4575730562210083 0.8772278428077698
0.3959064185619354 -0.30907142162323 0.8957401514053345
0.39775100350379944 -0.3277042508125305 0.8902209997177124
0.39298924803733826 -0.29333874583244324 0.8852099776268005
0.39604756236076355 -0.3172687888145447 0.8841065168380737
0.3968370258808136 -0.3395462930202484 0.8884182572364807
0.3976104259490967 -0.28938114643096924 0.9111472964286804
0.4042721092700958 -0.27294644713401794 0.9227200150489807
0.38844937086105347 -0.2543230354785919 0.8998153209686279
0.3974818289279938 -0.2708510160446167 0.9108409881591797
0.4088928699493408 -0.46933871507644653 0.8805718421936035
0.4130636155605316 -0.4931865930557251 0.8796356916427612
0.40529340505599976 -0.4828498065471649 0.8761890530586243
0.41992759704589844 -0.4831569194793701 0.8775984048843384
0.39798256754875183 -0.13200107216835022 0.9400671720504761
0.3639829158782959 -0.44725456833839417 0.9153124094009399
0.3602169454097748 -0.4587988257408142 0.9014028906822205
0.3665149509906769 -0.36886605620384216 0.9247995615005493
0.3645480275154114 -0.3652334213256836 0.9219107627868652
0.3635099232196808 -0.38718515634536743 0.9263159036636353
0.36435022950172424 -0.3716539740562439 0.9165096282958984
0.3618296682834625 -0.38921740651130676 0.9197983741760254
0.36595073342323303 -0.3233853876590729 0.9163855314254761
0.36643093824386597 -0.3371065855026245 0.9122708439826965
0.36751678586006165 -0.29790300130844116 0.9210500717163086
0.37387973070144653 -0.38634419441223145 0.9292224049568176
0.38016456365585327 -0.46688827872276306 0.864676833152771
0.37376779317855835 -0.4919918179512024 0.8859360218048096
0.3705587387084961 -0.35911738872528076 0.8974630832672119
0.38086387515068054 -0.5224056243896484 0.8850532174110413
0.3815332055091858 -0.5453539490699768 0.8754131197929382
0.3769957721233368 -0.5246537923812866 0.8747415542602539
0.3850371539592743 -0.5664221048355103 0.8802141547203064
0.3661564290523529 -0.11017674952745438 0.9618734121322632
0.38255441188812256 -0.18588843941688538 1.0103225708007812
0.37873542308807373 -0.1931532323360443 0.9992926716804504
0.38482409715652466 -0.19811105728149414 1.0037548542022705
0.36529141664505005 -0.2030063271522522 0.9088230133056641
0.36238354444503784 0.07654671370983124 1.0462514162063599
0.37371382117271423 0.042159490287303925 1.0796327590942383
0.3743906021118164 0.03091380000114441 1.0694003105163574
0.367072731256485 0.03656885772943497 1.0628429651260376
0.3882525563240051 -0.3244630694389343 0.9475958943367004
0.3967423439025879 -0.49652421474456787 0.9315129518508911
0.3870460093021393 -0.5662238001823425 0.8564180731773376
0.36524829268455505 0.003132648766040802 1.0137031078338623
0.3724329471588135 -0.02712968736886978 0.9914759397506714
0.39110520482063293 -0.2975826859474182 0.9621080756187439
0.38905370235443115 -0.30585598945617676 0.9522876739501953
0.3888002932071686 -0.35336363315582275 0.9406269788742065
0.39356163144111633 -0.5734414458274841 0.8572680950164795
0.40253379940986633 -0.6202092170715332 0.8934550881385803
0.3990970551967621 -0.6282805800437927 0.8938623070716858
0.39922794699668884 -0.6180688738822937 0.8762350082397461
0.37114134430885315 -0.07898053526878357 0.9717747569084167
0.3778679370880127 -0.10578696429729462 0.9623196125030518
0.396771639585495 -0.35283228754997253 0.938416063785553
0.36093491315841675 -0.11008751392364502 0.9397065043449402
0.3874451518058777 -0.5376957654953003 0.8432594537734985
0.39130303263664246 -0.14362891018390656 1.0411617755889893
0.3938632607460022 -0.14232298731803894 1.0385031700134277
0.39145493507385254 -0.14961636066436768 1.0234025716781616
0.39722365140914917 -0.1621495634317398 1.0298577547073364
0.3996363878250122 -0.17615383863449097 1.028160810470581
0.3816022574901581 -0.1422039419412613 1.0024529695510864
0.39061808586120605 -0.14627398550510406 1.0048904418945312
0.40594348311424255 -0.6314631700515747 0.8950124382972717
0.38875553011894226 -0.3680660128593445 0.8761820197105408
0.3890560567378998 -0.3831018805503845 0.8789187073707581
0.38460537791252136 -0.3878328800201416 0.878426730632782
0.3782433569431305 -0.34206247329711914 0.8710591793060303
0.39800217747688293 -0.15964657068252563 1.028700828552246
0.40380746126174927 -0.17256614565849304 1.0246906280517578
0.37628304958343506 -0.1233813464641571 0.901502251625061
