-0.5215139389038086 0.16839814186096191 1.1781437397003174
-0.5171084403991699 0.16302122175693512 1.1295298337936401
-0.547148585319519 0.17515215277671814 1.2451562881469727
-0.5294982194900513 0.19543854892253876 1.2580735683441162
-0.5672785043716431 0.19849364459514618 1.32864511013031
-0.5728015303611755 0.17720964550971985 1.3229036331176758
-0.5573614239692688 0.1982579380273819 1.3207249641418457
-0.5324087142944336 0.1885330229997635 1.3126959800720215
-0.5395118594169617 0.1825193464756012 1.3186850547790527
-0.5460224747657776 0.18051964044570923 1.2935688495635986
-0.5463148951530457 0.18400704860687256 1.3585059642791748
-0.5305145382881165 0.17400959134101868 1.2086642980575562
-0.49897342920303345 0.18007823824882507 1.2460108995437622
-0.5548735857009888 0.20337241888046265 1.4073559045791626
-0.561000645160675 0.19497960805892944 1.4089120626449585
-0.525355339050293 0.16057612001895905 1.4140777587890625
-0.5276480317115784 0.1895388513803482 1.3960881233215332
-0.5431227087974548 0.19075168669223785 1.440363883972168
-0.5274111032485962 0.16950811445713043 1.393197774887085
-0.5305671691894531 0.19944733381271362 1.4342164993286133
-0.5271872878074646 0.19467517733573914 1.4742799997329712
-0.5329704284667969 0.17959989607334137 1.4649549722671509
-0.5335502624511719 0.17269395291805267 1.5092859268188477
-0.5507866740226746 0.1746431291103363 1.5416514873504639
-0.5471280813217163 0.18212711811065674 1.531178593635559
-0.5488421320915222 0.17301198840141296 1.5208821296691895
-0.529650866985321 0.1787903904914856 1.5183707475662231
-0.5246924161911011 0.17158180475234985 1.5794438123703003
-0.5066118240356445 0.14805978536605835 1.5404146909713745
-0.49827077984809875 0.16685941815376282 1.5716233253479004
-0.5491060018539429 0.16374772787094116 1.5988185405731201
-0.5421534776687622 0.17888177931308746 1.5990209579467773
-0.5268882513046265 0.16105735301971436 1.5762423276901245
-0.5052327513694763 0.14615318179130554 1.6384687423706055
-0.5052556395530701 0.13885369896888733 1.6284582614898682
-0.49098631739616394 0.15940970182418823 1.6385998725891113
-0.45556703209877014 0.12652722001075745 1.6182568073272705
-0.46983301639556885 0.15234480798244476 1.6728637218475342
-0.4374614357948303 0.1232583150267601 1.6684391498565674
-0.45051705837249756 0.15139956772327423 1.6212387084960938
-0.41189271211624146 0.13369467854499817 1.6720999479293823
-0.39784279465675354 0.1144164428114891 1.679422378540039
-0.3908357322216034 0.13996271789073944 1.6466585397720337
-0.3849971890449524 0.147417813539505 1.6750307083129883
-0.3723265528678894 0.12340167909860611 1.6667695045471191
-0.35361775755882263 0.12194180488586426 1.6196465492248535
-0.36424121260643005 0.09185487031936646 1.6621804237365723
-0.34781742095947266 0.0984644666314125 1.5458722114562988
-0.334087997674942 0.08919656276702881 1.6109557151794434
-0.28260594606399536 0.0981682538986206 1.5449151992797852
-0.30570703744888306 0.09007413685321808 1.5840474367141724
-0.32295092940330505 0.10245993733406067 1.6161993741989136
-0.2822035551071167 0.0726088136434555 1.5366864204406738
-0.2401997148990631 0.0873546302318573 1.5018763542175293
-0.23397786915302277 0.06574064493179321 1.4770987033843994
-0.26651373505592346 0.07341104745864868 1.5340081453323364
-0.2677067518234253 0.1077985167503357 1.4895789623260498
-0.1486363261938095 0.02963241934776306 1.364628553390503
-0.20131570100784302 0.06864482164382935 1.4490739107131958
-0.17848247289657593 0.05028869956731796 1.4093797206878662
-0.13677000999450684 0.0622248500585556 1.33254075050354
-0.13953252136707306 0.04208612069487572 1.369568943977356
-0.13051676750183105 0.04924621805548668 1.358447551727295
-0.13079938292503357 0.05608165264129639 1.3121603727340698
-0.08866503834724426 0.01421080157160759 1.3203566074371338
-0.06807006895542145 0.028064783662557602 1.3234187364578247
-0.07516312599182129 0.03618239611387253 1.3464772701263428
-0.073137067258358 0.01399565115571022 1.3400671482086182
0.03203783929347992 0.005641639232635498 1.3564441204071045
0.04550947621464729 -0.0034628547728061676 1.327134132385254
0.03927386552095413 -0.014671530574560165 1.3449729681015015
0.041114166378974915 0.012448757886886597 1.3415014743804932
0.07406666874885559 -0.005624622106552124 1.3742141723632812
0.07585327327251434 0.008507657796144485 1.3691825866699219
0.10254278779029846 -0.012516355141997337 1.3179205656051636
0.11615656316280365 -0.014939622953534126 1.3889155387878418
0.10585203766822815 -0.018689705058932304 1.3210203647613525
0.10451741516590118 -0.007261104881763458 1.4061203002929688
0.11302444338798523 0.0016440823674201965 1.3237411975860596
0.10862357169389725 0.00957312062382698 1.399283528327942
0.11855073273181915 0.015312787145376205 1.4558931589126587
0.12017463147640228 0.014421027153730392 1.519977331161499
0.16498462855815887 -0.022023910656571388 1.379075527191162
0.12220655381679535 0.006383340805768967 1.5507862567901611
0.14914128184318542 -0.016070757061243057 1.4612984657287598
0.13525530695915222 0.023733429610729218 1.5412100553512573
0.13495869934558868 0.023428555577993393 1.6193699836730957
0.1439700573682785 0.03421982005238533 1.6245670318603516
0.14212261140346527 0.036989837884902954 1.6621084213256836
0.13706433773040771 0.027584202587604523 1.6907652616500854
0.1483452320098877 0.018058810383081436 1.6986663341522217
0.1665484458208084 0.02423252910375595 1.7231248617172241
0.19489002227783203 0.04607275873422623 1.7062995433807373
0.16959357261657715 0.04152106121182442 1.7249054908752441
0.20460045337677002 0.011152908205986023 1.6919490098953247
0.2687290906906128 0.010707259178161621 1.599434494972229
0.19731566309928894 0.02420368790626526 1.7221888303756714
0.2439424842596054 0.03247518837451935 1.732829213142395
0.2411525994539261 0.01655963808298111 1.7331860065460205
0.2987271547317505 -0.001716911792755127 1.7071850299835205
0.2658224105834961 -0.0030444450676441193 1.6705647706985474
0.30140823125839233 -0.037971653044223785 1.5665695667266846
0.3158280551433563 -0.011497394181787968 1.5078184604644775
0.2942679822444916 0.020279549062252045 1.7176501750946045
0.39100855588912964 -0.029879143461585045 1.656311273574829
0.3069656491279602 0.011815693229436874 1.7203118801116943
0.3462909758090973 -0.007760889828205109 1.7062715291976929
0.3288804292678833 0.003906905651092529 1.6677228212356567
0.3497728705406189 0.007430393248796463 1.7087578773498535
0.38970091938972473 -0.008530942723155022 1.6651196479797363
0.39150935411453247 -0.009455293416976929 1.6385811567306519
0.3453153371810913 -0.01852250099182129 1.645622730255127
0.3562065362930298 -0.007215101271867752 1.6820279359817505
0.38963228464126587 -0.024389255791902542 1.630517840385437
0.4245494604110718 -0.0143335722386837 1.5903425216674805
0.4261300563812256 -0.02829138934612274 1.5900025367736816
0.4409995675086975 -0.024652956053614616 1.5507735013961792
0.45127442479133606 -0.04662895202636719 1.5488325357437134
0.48190873861312866 -0.02193198911845684 1.5687105655670166
0.4738321900367737 -0.035412974655628204 1.569261074066162
0.48687782883644104 -0.03688028082251549 1.5233820676803589
0.46557125449180603 -0.038308825343847275 1.5490895509719849
0.4916110336780548 -0.046950750052928925 1.4789530038833618
0.4920804500579834 -0.05961800366640091 1.480956792831421
0.5387022495269775 -0.05409984290599823 1.4473599195480347
0.5297493934631348 -0.06491707265377045 1.4120038747787476
0.5072784423828125 -0.07687036693096161 1.4173860549926758
0.537766695022583 -0.0752301886677742 1.370660424232483
0.4858638644218445 -0.055790361016988754 1.5194145441055298
0.5218777656555176 -0.04856428503990173 1.501947283744812
0.523729681968689 -0.06774725019931793 1.4529447555541992
0.5084496736526489 -0.07013607770204544 1.5039666891098022
0.6031584143638611 -0.09304653853178024 1.3704493045806885
0.5548389554023743 -0.09549605846405029 1.3989858627319336
0.5740071535110474 -0.08690200001001358 1.3730289936065674
0.5675821900367737 -0.07964598387479782 1.4272842407226562
0.5572879314422607 -0.09425949305295944 1.374185562133789
0.5756564140319824 -0.08855807036161423 1.3416485786437988
0.5656692981719971 -0.10298913717269897 1.3432539701461792
0.6080688834190369 -0.09494148194789886 1.3804680109024048
0.5995578169822693 -0.10411124676465988 1.3683509826660156
0.5989871025085449 -0.09863711148500443 1.3883047103881836
0.6053094863891602 -0.10950076580047607 1.3152068853378296
0.655738353729248 -0.11624982953071594 1.2781703472137451
0.6124911308288574 -0.10377249121665955 1.2896333932876587
0.6586027145385742 -0.11586160957813263 1.2555208206176758
0.6417583227157593 -0.12906639277935028 1.25407874584198
0.6915075182914734 -0.1525050550699234 1.0617148876190186
0.6664867401123047 -0.16565187275409698 1.0838829278945923
0.6851133108139038 -0.18157175183296204 1.0360639095306396
0.6972435712814331 -0.16193319857120514 1.0639095306396484
0.6379377841949463 -0.19383421540260315 1.0484539270401
0.6909816265106201 -0.215872123837471 1.0025615692138672
0.6823704242706299 -0.22719956934452057 1.006515622138977
-0.4040837287902832 0.06294314563274384 0.7986016869544983
-0.37255150079727173 0.047138385474681854 0.7685664892196655
-0.3656903803348541 0.030312389135360718 0.7366365790367126
-0.37062662839889526 0.03274456784129143 0.7769932746887207
-0.3290674686431885 0.031578075140714645 0.7110196352005005
-0.319420725107193 0.010501086711883545 0.7103342413902283
-0.4240722358226776 0.12246391177177429 0.8497297167778015
-0.4151652455329895 0.08038796484470367 0.9065335988998413
-0.39544469118118286 0.06906133890151978 0.8510885238647461
-0.38013404607772827 0.061909258365631104 0.849621057510376
-0.34673839807510376 0.04354624077677727 0.7790501713752747
-0.3258742094039917 0.013086456805467606 0.7577816247940063
-0.33382776379585266 -0.003328487277030945 0.7218462228775024
-0.27680492401123047 -0.012824403122067451 0.6306032538414001
-0.2833362817764282 -0.02516338974237442 0.6534541845321655
-0.2493770569562912 -0.0582900308072567 0.6252709627151489
-0.33722108602523804 0.02807660773396492 0.8218541145324707
-0.3152494728565216 0.023057129234075546 0.7518746852874756
-0.2590714693069458 -0.006114892661571503 0.6272470355033875
-0.3106226921081543 0.009025022387504578 0.7432535886764526
-0.3158760666847229 0.02339618280529976 0.7683748006820679
-0.30806756019592285 -0.002349838614463806 0.7235653400421143
-0.29301637411117554 -0.028036605566740036 0.7326658964157104
-0.40533778071403503 0.10661771148443222 1.0471359491348267
-0.21688178181648254 -0.11615167558193207 0.6179141998291016
-0.18035507202148438 -0.13270258903503418 0.5387051105499268
-0.44354379177093506 0.0967579036951065 1.159583330154419
-0.43662673234939575 0.09859257191419601 1.0745627880096436
-0.3870561420917511 0.09488141536712646 1.024479627609253
-0.46605873107910156 0.10969135165214539 1.1779829263687134
-0.4480457901954651 0.15184849500656128 1.1111379861831665
-0.29690584540367126 -0.05630476027727127 0.8200898170471191
-0.49093788862228394 0.17251630127429962 1.313395619392395
-0.44422483444213867 0.14260712265968323 1.2578465938568115
-0.17611616849899292 -0.012792186811566353 0.6647949814796448
-0.1453186422586441 -0.025571143254637718 0.5774810314178467
-0.25560224056243896 0.02437169849872589 0.8016032576560974
-0.12196922302246094 -0.05161970481276512 0.5726593732833862
-0.3058154284954071 0.03564850613474846 0.9761574268341064
-0.30524465441703796 0.00811050459742546 0.9086904525756836
-0.25995248556137085 0.024681415408849716 0.8700394630432129
-0.2530219554901123 0.027791298925876617 0.9217797517776489
-0.2473507821559906 0.04871030151844025 0.923416793346405
-0.2990734577178955 0.038685888051986694 1.001427412033081
-0.44692128896713257 0.11946213990449905 1.384957194328308
-0.4753158688545227 0.16422349214553833 1.4077428579330444
-0.27122658491134644 0.06817469745874405 1.0246366262435913
-0.36514371633529663 0.1130758672952652 1.183995246887207
-0.3751335144042969 0.08059216290712357 1.1630725860595703
-0.4304150938987732 0.11953426897525787 1.4996895790100098
-0.41210582852363586 0.1108318567276001 1.3766541481018066
-0.4505157768726349 0.15496578812599182 1.4745330810546875
-0.3017318546772003 0.06865823268890381 1.1157997846603394
-0.3030600845813751 0.0972517877817154 1.1305875778198242
-0.28604671359062195 0.06651939451694489 1.0804369449615479
-0.276663213968277 0.07349853217601776 1.0723419189453125
-0.3597526550292969 0.13289427757263184 1.3201578855514526
-0.32283294200897217 0.11946016550064087 1.2600934505462646
-0.3268090486526489 0.09645991027355194 1.43600332736969
-0.20550397038459778 0.06902572512626648 1.0805675983428955
-0.384694367647171 0.1422671675682068 1.518609642982483
-0.25589051842689514 0.07638706266880035 1.416487216949463
-0.2880338728427887 0.11944213509559631 1.4073081016540527
-0.2355799525976181 0.07053801417350769 1.3485139608383179
-0.22009673714637756 0.0995904952287674 1.3429110050201416
-0.18749353289604187 0.08140981942415237 1.2567942142486572
-0.15705326199531555 0.060384102165699005 1.2232275009155273
0.19832973182201385 -0.006446030922234058 1.1975891590118408
0.17494404315948486 -0.024275053292512894 1.2091164588928223
0.21097519993782043 -0.025098051875829697 1.1631934642791748
0.21912908554077148 -0.0038796309381723404 1.3392711877822876
0.1868971884250641 -0.03327324241399765 1.2659624814987183
0.20031726360321045 -0.008562874048948288 1.2733154296875
0.25430941581726074 -0.019299941137433052 1.2261369228363037
0.2596159279346466 -0.049486659467220306 1.2199487686157227
0.2730071246623993 -0.03237844258546829 1.129880428314209
0.2864287197589874 -0.03973570838570595 1.102985143661499
0.2667640149593353 -0.04544651880860329 1.1331145763397217
0.2849210798740387 -0.05085252597928047 1.1126883029937744
0.3136571943759918 -0.04200810194015503 1.1186988353729248
0.2516549229621887 0.0017871595919132233 1.49692702293396
0.24650153517723083 -0.02985023520886898 1.4597291946411133
0.352787047624588 -0.05251319706439972 1.099715232849121
0.32787907123565674 -0.07161448150873184 1.1111793518066406
0.3093055486679077 -0.05099732428789139 1.1241941452026367
0.3412323594093323 -0.05901288241147995 1.0944151878356934
0.37470543384552 -0.07121309638023376 1.0616061687469482
0.281040221452713 -0.04553976655006409 1.3689377307891846
0.39530298113822937 -0.0604233518242836 1.1930599212646484
0.3394833207130432 -0.08321918547153473 1.1326544284820557
0.34881365299224854 -0.06091560795903206 1.1460264921188354
0.3679029941558838 -0.0406414195895195 1.3285222053527832
0.3701413571834564 -0.07976893335580826 1.1852365732192993
0.41852331161499023 -0.07865768671035767 1.107114553451538
0.4066341817378998 -0.06291743367910385 1.1545158624649048
0.40230709314346313 -0.07983655482530594 1.1262966394424438
0.394936203956604 -0.10400614142417908 1.153873324394226
0.37706226110458374 -0.044055938720703125 1.3755908012390137
0.4020078480243683 -0.06351981312036514 1.2620112895965576
0.37655651569366455 -0.0859920084476471 1.2823882102966309
0.35737431049346924 -0.05751267820596695 1.5115325450897217
0.4304666817188263 -0.08573126047849655 1.1492468118667603
0.389753520488739 -0.03469899296760559 1.4852925539016724
0.4056147336959839 -0.05788401886820793 1.4254957437515259
0.40657418966293335 -0.07418590784072876 1.4765526056289673
0.49984803795814514 -0.1589241921901703 0.9513897895812988
0.4354441165924072 -0.09435869008302689 1.4093623161315918
0.4660009443759918 -0.10112980753183365 1.367497205734253
0.4615596830844879 -0.0725187212228775 1.3175625801086426
0.4634823799133301 -0.1254919320344925 1.2212129831314087
0.47948622703552246 -0.09466923773288727 1.219892978668213
0.48594534397125244 -0.07644248753786087 1.32887864112854
0.4991261959075928 -0.09230758249759674 1.2659419775009155
0.522087574005127 -0.118813656270504 1.2022340297698975
0.5193253755569458 -0.0791352242231369 1.355067491531372
0.5187717080116272 -0.10799562186002731 1.3270992040634155
0.524228572845459 -0.27932050824165344 0.8061641454696655
0.550841748714447 -0.30439263582229614 0.6670968532562256
0.5991048812866211 -0.2574670910835266 0.6535791754722595
0.5630006790161133 -0.2567727565765381 0.6876136660575867
0.5587647557258606 -0.1900353580713272 1.0094685554504395
0.5633348226547241 -0.19146226346492767 0.9672822952270508
0.5673362016677856 -0.12185250967741013 1.1958541870117188
0.6427657008171082 -0.1999940574169159 0.6908456683158875
0.6247790455818176 -0.1953209489583969 0.7620251774787903
0.6418172121047974 -0.19924317300319672 0.9608039259910583
0.6650587916374207 -0.22702190279960632 0.8635365962982178
0.6152371168136597 -0.22079922258853912 0.8724825382232666
0.6392958164215088 -0.2439628392457962 0.884087324142456
-0.355475515127182 0.01309116929769516 0.6819204092025757
-0.3537297248840332 -0.003616105765104294 0.6961203813552856
-0.4831598103046417 0.14868120849132538 1.0410910844802856
-0.4788053631782532 0.1612619161605835 1.0490039587020874
-0.45103710889816284 0.13688111305236816 1.0040087699890137
-0.39264973998069763 0.08697587251663208 0.9128056764602661
-0.3910924196243286 0.08651161193847656 0.9655148386955261
-0.38859236240386963 0.05078744888305664 0.8720809817314148
-0.34916412830352783 0.059820350259542465 0.8817088603973389
-0.4115200638771057 0.07108166068792343 1.0177143812179565
-0.47903338074684143 0.13050204515457153 1.1785216331481934
-0.465387225151062 0.12688590586185455 1.139809250831604
-0.20890724658966064 -0.0021634846925735474 0.7058640122413635
-0.24165281653404236 0.0024011842906475067 0.6447423100471497
-0.18204820156097412 -0.019848909229040146 0.5842861533164978
-0.45172426104545593 0.14518555998802185 1.1862609386444092
-0.49744147062301636 0.14094315469264984 1.2270007133483887
-0.28288328647613525 -0.030907392501831055 0.777670681476593
-0.27058616280555725 -0.04405662417411804 0.7622896432876587
-0.19602645933628082 -0.08197738230228424 0.6039222478866577
-0.17283304035663605 -0.11011089384555817 0.5595892071723938
-0.3044985234737396 0.04935242608189583 0.8945477604866028
-0.5244214534759521 0.16526389122009277 1.3313237428665161
-0.3249478340148926 0.05691376328468323 0.936632513999939
-0.27905356884002686 0.04970709607005119 0.8681946992874146
-0.3540494441986084 0.03428313136100769 0.9669451713562012
-0.34532973170280457 0.02505546063184738 0.944595217704773
-0.29708385467529297 0.06035933643579483 0.9583278894424438
-0.3788376450538635 0.06354746222496033 1.0570554733276367
-0.24825125932693481 0.022237055003643036 0.8260054588317871
-0.2169571816921234 -0.002568040043115616 0.7625026702880859
-0.40986764430999756 0.11774405837059021 1.1244615316390991
-0.35162967443466187 0.08779990673065186 1.0739797353744507
-0.348102867603302 0.058208972215652466 1.0393130779266357
-0.4848516583442688 0.15188737213611603 1.3981401920318604
-0.44416946172714233 0.09803437441587448 1.2090893983840942
-0.35274073481559753 0.06938706338405609 1.124953031539917
-0.47813624143600464 0.13931962847709656 1.4620985984802246
-0.40401363372802734 0.14685559272766113 1.3629496097564697
-0.40682244300842285 0.10013973712921143 1.250222086906433
-0.28539347648620605 0.07681058347225189 1.0680303573608398
-0.31231868267059326 0.05905595421791077 1.0813603401184082
-0.38683074712753296 0.13047894835472107 1.2508354187011719
-0.34680646657943726 0.11547903716564178 1.192814588546753
-0.3656843602657318 0.13986662030220032 1.4354320764541626
-0.3376128673553467 0.09051177650690079 1.2609994411468506
-0.28278523683547974 0.0691797286272049 1.1837692260742188
-0.2673569321632385 0.0909653976559639 1.179787039756775
-0.24748727679252625 0.07759905606508255 1.1157341003417969
-0.25411128997802734 0.06367258727550507 1.2192001342773438
-0.2249245047569275 0.08091351389884949 1.1249744892120361
-0.33061981201171875 0.1298045665025711 1.3493601083755493
-0.29189714789390564 0.08928830921649933 1.3187835216522217
-0.18641310930252075 0.06534426659345627 1.1221576929092407
-0.17135214805603027 0.06629682332277298 1.1484912633895874
-0.2159879505634308 0.09360835701227188 1.4162358045578003
-0.2024245262145996 0.054680150002241135 1.2624058723449707
0.2366143763065338 -0.043288249522447586 1.1477162837982178
0.16798490285873413 0.006131920963525772 1.4209845066070557
0.29630714654922485 -0.025460071861743927 1.1864689588546753
0.285376638174057 -0.04859574884176254 1.1806161403656006
0.2945120930671692 -0.03198318928480148 1.1184736490249634
0.31935423612594604 -0.032705310732126236 1.2968593835830688
0.32276588678359985 -0.06697705388069153 1.2193702459335327
0.38548630475997925 -0.06392699480056763 1.0665764808654785
0.3461666703224182 -0.026020966470241547 1.4462409019470215
0.38617855310440063 -0.09777164459228516 1.1830333471298218
0.43514734506607056 -0.06511376053094864 1.3900909423828125
0.5173929333686829 -0.16940386593341827 0.8620269894599915
0.5365635752677917 -0.16551297903060913 0.8425965905189514
0.5442481637001038 -0.18516875803470612 0.7296465039253235
0.5527188777923584 -0.1921745240688324 0.6536129713058472
0.5391697287559509 -0.2077341079711914 0.6689813137054443
0.5101351141929626 -0.11941622197628021 1.1378337144851685
0.5641825199127197 -0.1753523051738739 0.7337170839309692
0.5672301054000854 -0.18427419662475586 0.6594160199165344
0.5010480880737305 -0.2134867161512375 0.9204132556915283
0.4931321442127228 -0.22173011302947998 0.9711438417434692
0.4791521430015564 -0.24096497893333435 0.9422143697738647
0.5106491446495056 -0.23158639669418335 0.87151700258255
0.5909073948860168 -0.18166357278823853 0.7596312761306763
0.5951284170150757 -0.19793979823589325 0.6766840219497681
0.5655969977378845 -0.17745083570480347 0.9315792322158813
0.5205147862434387 -0.22020629048347473 0.914924144744873
0.5456382036209106 -0.2433394342660904 0.860231339931488
0.510714054107666 -0.23877421021461487 0.9233884811401367
0.5240035057067871 -0.27179157733917236 0.8525359034538269
0.5253248810768127 -0.19957444071769714 0.9887792468070984
0.5656976699829102 -0.21837718784809113 0.937462329864502
0.5795181393623352 -0.2654413878917694 0.6980952024459839
0.5608951449394226 -0.29491180181503296 0.6404275894165039
0.6147016882896423 -0.22733773291110992 0.6435577273368835
0.5725332498550415 -0.1704034060239792 1.0071607828140259
0.5889372825622559 -0.20598721504211426 0.7943437099456787
0.5570330023765564 -0.2766270041465759 0.7685725092887878
0.5827183127403259 -0.27064085006713867 0.7586685419082642
0.6159965395927429 -0.2671701908111572 0.6753219366073608
0.6238686442375183 -0.1943855881690979 0.9400527477264404
0.643634021282196 -0.19509723782539368 0.906977653503418
0.6491085290908813 -0.2400127649307251 0.7340298891067505
0.6418778896331787 -0.24857714772224426 0.7548457384109497
0.567943811416626 -0.14581748843193054 1.1081570386886597
0.6604313850402832 -0.15184953808784485 1.0586388111114502
0.6207154989242554 -0.1685951203107834 1.054927945137024
0.6167095899581909 -0.12669219076633453 1.2480500936508179
0.614267110824585 -0.13077576458454132 1.2022099494934082
0.6115055084228516 -0.12722015380859375 1.1979074478149414
0.6113315224647522 -0.14697019755840302 1.1844240427017212
0.6465604305267334 -0.1474362462759018 1.1174919605255127
0.6347867846488953 -0.15266171097755432 1.1376067399978638
-0.41388553380966187 0.09326042234897614 0.8446544408798218
-0.41449248790740967 0.07161638140678406 0.861788809299469
-0.40789294242858887 0.047314390540122986 0.8332317471504211
-0.19433867931365967 -0.06311802566051483 0.5728941559791565
-0.1852961927652359 -0.11114291846752167 0.5414119958877563
-0.2681841552257538 -0.041359543800354004 0.758676290512085
-0.2678717076778412 -0.05381814017891884 0.7029275894165039
-0.2804023027420044 -0.07676193863153458 0.7463881969451904
-0.24668121337890625 -0.08859895914793015 0.6343706846237183
-0.21424280107021332 -0.07374502718448639 0.6463990211486816
-0.20129701495170593 -0.10449453443288803 0.6181960105895996
-0.3283405601978302 0.004908807575702667 0.8960734605789185
-0.3043093681335449 -0.029355764389038086 0.8531404137611389
-0.3143705129623413 -0.011598866432905197 0.8488996028900146
-0.23444364964962006 -0.08934483677148819 0.6858307123184204
-0.2274208664894104 -0.06630773842334747 0.6847591996192932
-0.27262088656425476 -0.06140084192156792 0.780726432800293
-0.2562125325202942 -0.048815008252859116 0.7322479486465454
-0.36924898624420166 0.0928661972284317 1.033225178718567
-0.2583402991294861 0.04017817601561546 0.8886219263076782
-0.2341148555278778 0.030575968325138092 0.9349724054336548
-0.23020708560943604 0.05094502866268158 0.9303939938545227
-0.3364259600639343 0.055003996938467026 1.075692057609558
-0.26994192600250244 0.05427156016230583 1.0231069326400757
-0.24135541915893555 0.05688032880425453 0.9652096033096313
-0.23843646049499512 0.03692511096596718 0.9587083458900452
-0.3314974904060364 0.09484732896089554 1.3169469833374023
-0.2489796280860901 0.07350780069828033 1.0574575662612915
-0.24796231091022491 0.05016808211803436 1.1054185628890991
-0.22392380237579346 0.07387570291757584 1.064542531967163
-0.19116105139255524 0.05032200366258621 1.114753246307373
-0.19878733158111572 0.06765391677618027 1.0823760032653809
-0.16555914282798767 0.05557199567556381 1.1773180961608887
0.43800652027130127 -0.09103132039308548 1.0617221593856812
0.4052383005619049 -0.048654377460479736 1.553091049194336
0.5056172609329224 -0.13250665366649628 1.0246423482894897
0.4618511497974396 -0.09878702461719513 1.0051207542419434
0.47388628125190735 -0.1399950236082077 1.0012321472167969
0.4859890937805176 -0.12658295035362244 0.9942424893379211
0.46151506900787354 -0.09624568372964859 1.200059175491333
0.47670090198516846 -0.17474111914634705 1.0267808437347412
0.4917046129703522 -0.19116879999637604 0.9712522029876709
0.47245389223098755 -0.21115362644195557 0.9949964880943298
0.47906121611595154 -0.21298252046108246 0.9653948545455933
0.49910351634025574 -0.20379571616649628 0.9113225936889648
0.5403256416320801 -0.22877076268196106 0.7096500992774963
0.5531730055809021 -0.23672974109649658 0.6576348543167114
0.582332193851471 -0.22824621200561523 0.6459653377532959
0.5280666947364807 -0.16209298372268677 1.0058183670043945
0.5405641198158264 -0.16639839112758636 0.9684017896652222
0.5160594582557678 -0.21941009163856506 0.9441876411437988
0.5085956454277039 -0.22863808274269104 0.9045721888542175
0.49366629123687744 -0.2557521462440491 0.8741159439086914
0.485096275806427 -0.12286368757486343 1.3140485286712646
0.5856918692588806 -0.1906435638666153 0.9376457929611206
0.6115669012069702 -0.2089446485042572 0.8910012245178223
0.5729306936264038 -0.18139275908470154 1.064145565032959
0.6333997845649719 -0.2777245342731476 0.7175294756889343
0.6431812047958374 -0.2409667670726776 0.6809839010238647
0.6044942736625671 -0.22049875557422638 0.9215197563171387
0.6102627515792847 -0.23665232956409454 0.8701163530349731
0.6856693029403687 -0.18264304101467133 1.0488585233688354
0.6379942893981934 -0.2175162434577942 1.0111852884292603
0.6587783694267273 -0.1995505541563034 1.0044864416122437
0.6714450120925903 -0.23702041804790497 0.8743225932121277
0.6755264401435852 -0.21792909502983093 0.8829545378684998
-0.4641376733779907 0.13596674799919128 1.0082772970199585
-0.20293647050857544 -0.05608667433261871 0.5137069821357727
-0.33315032720565796 -0.0014054030179977417 0.8300043344497681
-0.3117927610874176 -0.024906720966100693 0.8050670623779297
-0.3543732464313507 0.03221048787236214 0.8704027533531189
-0.4900083541870117 0.14415797591209412 1.3221397399902344
-0.33664971590042114 0.066391222178936 0.905964732170105
-0.32245755195617676 0.04444346949458122 0.8800616264343262
-0.15310977399349213 -0.07090383023023605 0.558455228805542
-0.13940592110157013 -0.04587576165795326 0.5541557669639587
-0.28965967893600464 -0.012231513857841492 0.8546820878982544
-0.27188724279403687 -0.036158546805381775 0.8027621507644653
-0.28655755519866943 -0.030094515532255173 0.8459703922271729
-0.46991896629333496 0.1209193766117096 1.2771003246307373
-0.41522863507270813 0.12555721402168274 1.1757129430770874
-0.21476227045059204 0.08624604344367981 1.1827843189239502
0.15215928852558136 -0.006521163508296013 1.2334256172180176
0.1374841183423996 -0.018543003126978874 1.241472840309143
0.2394781857728958 -0.04789121821522713 1.186766266822815
0.24772602319717407 -0.035428486764431 1.113981008529663
0.3118821978569031 -0.03565482795238495 1.2298818826675415
0.3727068305015564 -0.06640893220901489 1.1140379905700684
0.36393043398857117 -0.08067458868026733 1.0994060039520264
0.4145318865776062 -0.09824115037918091 1.249009132385254
0.43101364374160767 -0.10548529028892517 1.3297346830368042
0.45361581444740295 -0.13081717491149902 1.145268201828003
0.48996758460998535 -0.24745795130729675 0.8783931136131287
0.5271574854850769 -0.24344629049301147 0.8280825614929199
0.5154103636741638 -0.27225831151008606 0.7863293886184692
0.5387291312217712 -0.25576484203338623 0.7322953343391418
0.5288870334625244 -0.17615890502929688 1.0696910619735718
0.5665695667266846 -0.3027941584587097 0.6627871990203857
-0.40209484100341797 0.05697479099035263 0.8577735424041748
-0.19816908240318298 -0.028918493539094925 0.7113521099090576
-0.16976521909236908 -0.04421856254339218 0.6594139337539673
-0.5036710500717163 0.15057389438152313 1.4285179376602173
-0.24424180388450623 0.06778067350387573 1.0459507703781128
-0.23015877604484558 0.0641864538192749 1.016581654548645
-0.21967080235481262 0.05756932124495506 1.0487565994262695
-0.1830184906721115 0.06545227020978928 1.0920476913452148
-0.14428916573524475 0.04680044203996658 1.2465587854385376
-0.15270060300827026 0.029713809490203857 1.2477476596832275
0.355008065700531 -0.07006493210792542 1.3796565532684326
0.37836596369743347 -0.07675158977508545 1.4295680522918701
0.5274155139923096 -0.1491258591413498 1.035686731338501
0.5262796878814697 -0.14840230345726013 0.9598198533058167
0.47990596294403076 -0.1513490080833435 1.1423428058624268
0.5093387365341187 -0.21312880516052246 0.8546571731567383
0.5441951155662537 -0.16459152102470398 1.1120529174804688
0.5335794687271118 -0.14544691145420074 1.1989659070968628
0.6160888075828552 -0.19291970133781433 1.03519868850708
0.6152567863464355 -0.20870545506477356 0.9720240235328674
0.6250494122505188 -0.25748327374458313 0.805448591709137
0.5806211233139038 -0.2748118042945862 0.7218279242515564
0.6417483687400818 -0.2372395545244217 0.7953388690948486
-0.2029036283493042 -0.07388138771057129 0.5421013236045837
-0.16163787245750427 -0.05297645553946495 0.5424996614456177
-0.27098605036735535 -0.0436328649520874 0.7534869313240051
-0.2044818103313446 -0.07352803647518158 0.6052645444869995
-0.1643182933330536 -0.0718301385641098 0.6034842729568481
-0.278800904750824 0.02314622327685356 0.9111990928649902
-0.2342035472393036 0.06241896376013756 1.193739891052246
-0.218857079744339 0.060710158199071884 1.14012610912323
-0.2159627079963684 0.07007249444723129 1.1129177808761597
-0.20211529731750488 0.04949437826871872 1.1893607378005981
-0.17209896445274353 0.034919872879981995 1.1241168975830078
-0.16671377420425415 0.04989350587129593 1.1123336553573608
0.25218531489372253 -0.019726857542991638 1.119464635848999
0.460801362991333 -0.1473306119441986 1.0719249248504639
0.4908653199672699 -0.18149907886981964 1.0677634477615356
0.5020706653594971 -0.19789181649684906 1.0250909328460693
0.594638466835022 -0.2509180009365082 0.8561193943023682
-0.2672644257545471 -0.029865022748708725 0.6066623330116272
-0.2561437487602234 -0.056884195655584335 0.57674640417099
-0.2497565746307373 -0.0461805984377861 0.5710971355438232
-0.30054306983947754 0.03501858934760094 0.7934362888336182
-0.2535388469696045 -0.026615194976329803 0.77284175157547
-0.27032339572906494 -0.026418328285217285 0.8250625729560852
-0.17043614387512207 0.04206784814596176 1.2089897394180298
-0.14492744207382202 0.039510130882263184 1.3162016868591309
-0.13309833407402039 0.04318121075630188 1.3047398328781128
0.1379820704460144 -0.02709791250526905 1.2542389631271362
0.18647754192352295 0.007101170718669891 1.630736231803894
0.3470425605773926 -0.012434074655175209 1.5721781253814697
0.36779624223709106 -0.03276074677705765 1.58964204788208
0.4199082851409912 -0.05205901339650154 1.5206170082092285
0.5733886957168579 -0.11607745289802551 1.2710788249969482
0.5980164408683777 -0.11498911678791046 1.30592942237854
0.5987120270729065 -0.10117798298597336 1.2459200620651245
0.6006354093551636 -0.1283881664276123 1.2302212715148926
0.6280639171600342 -0.11468382924795151 1.2462735176086426
-0.4537404179573059 0.1162693053483963 0.9392905235290527
-0.4345431625843048 0.12534640729427338 0.922436535358429
-0.519476592540741 0.17236407101154327 1.1863845586776733
-0.49754053354263306 0.17357951402664185 1.174133062362671
-0.20165228843688965 -0.02044311724603176 0.559047520160675
-0.1817106157541275 -0.037846967577934265 0.5191459059715271
-0.2385486662387848 -0.06911898404359818 0.6431096196174622
-0.2766501307487488 0.019439682364463806 0.747342586517334
-0.3499622344970703 0.07994738221168518 0.9565845727920532
-0.5008783340454102 0.15664684772491455 1.4794602394104004
0.24838349223136902 -0.023744365200400352 1.1845052242279053
0.26705610752105713 -0.01135944202542305 1.40812087059021
0.3885672092437744 -0.07193107903003693 1.1308847665786743
0.3749881982803345 -0.04635666310787201 1.256666660308838
0.4262133836746216 -0.09856210649013519 1.0634280443191528
0.442901074886322 -0.11490533500909805 1.0130776166915894
0.4283822476863861 -0.12862874567508698 1.0939980745315552
0.5282464027404785 -0.18939410150051117 0.8102013468742371
0.5331624150276184 -0.20611101388931274 0.8001819849014282
0.5327792167663574 -0.24879680573940277 0.8671736121177673
0.6022335886955261 -0.1768842190504074 1.0331413745880127
0.6333299875259399 -0.20216701924800873 0.8154770135879517
-0.22271814942359924 -0.061482399702072144 0.5463751554489136
-0.17527616024017334 -0.06327171623706818 0.5112432837486267
-0.21704009175300598 0.07685995101928711 1.0192798376083374
-0.19230595231056213 0.07744232565164566 1.111375093460083
-0.17238327860832214 0.04685676097869873 1.1658872365951538
0.6061645150184631 -0.1954476237297058 0.8503039479255676
0.6308907866477966 -0.25182047486305237 0.6190473437309265
0.636121392250061 -0.2553499639034271 0.6337358951568604
-0.298114538192749 -0.029378699138760567 0.7886501550674438
-0.22178837656974792 -0.028465062379837036 0.7234587669372559
-0.2033766210079193 -0.052607469260692596 0.6817958354949951
0.4554465711116791 -0.0736393928527832 1.4438562393188477
0.6455025672912598 -0.2327520102262497 0.6256621479988098
0.648552656173706 -0.22439241409301758 0.9368343353271484
-0.23668281733989716 0.09606500715017319 1.257465124130249
0.6315914392471313 -0.18969838321208954 1.025595784187317
-0.23396627604961395 -0.0022590160369873047 0.7974889278411865
0.5418463349342346 -0.28208059072494507 0.6789231300354004
0.6189444065093994 -0.1870383620262146 1.0138071775436401
-0.2879558205604553 -0.0557401217520237 0.7544993162155151
-0.3603072166442871 -0.1283264458179474 0.9661412835121155
-0.3661922514438629 -0.12465183436870575 0.9764201641082764
-0.3484307527542114 -0.1460869461297989 0.9755194187164307
-0.35738053917884827 -0.1438111662864685 0.9850630164146423
-0.3358432948589325 -0.09793965518474579 1.033132553100586
-0.34181809425354004 -0.11256071925163269 1.0123181343078613
-0.33266276121139526 -0.10304225981235504 0.982856273651123
-0.33051908016204834 -0.07472210377454758 1.0145883560180664
-0.33146172761917114 -0.12756991386413574 1.0175453424453735
-0.33405253291130066 -0.1551075279712677 1.0069944858551025
-0.31869837641716003 -0.06506982445716858 1.0921390056610107
-0.31458643078804016 -0.1540413200855255 1.0093026161193848
-0.3286443054676056 -0.12111477553844452 1.0082685947418213
-0.3163680136203766 -0.13638684153556824 1.0451579093933105
-0.31717658042907715 -0.11349830776453018 1.0379400253295898
-0.30819955468177795 -0.054152362048625946 1.0619926452636719
-0.31106239557266235 -0.10421863943338394 1.036797046661377
-0.3106069266796112 -0.11069047451019287 1.0612986087799072
-0.3146752715110779 -0.0885889083147049 1.0889856815338135
-0.33041325211524963 -0.049942344427108765 1.1227524280548096
-0.3220263123512268 -0.09925778955221176 1.1186925172805786
-0.2972918748855591 -0.001372660044580698 1.1482774019241333
-0.3051431179046631 -0.01341913640499115 1.1054420471191406
-0.3202275037765503 -0.050249017775058746 1.1572037935256958
-0.2736572027206421 -0.011027064174413681 1.0943931341171265
-0.2766176462173462 -0.033294543623924255 1.2067385911941528
-0.29126137495040894 -0.09301649034023285 1.1659270524978638
-0.27340787649154663 0.00822487659752369 1.1373181343078613
-0.24383480846881866 0.0011909129098057747 1.147487998008728
-0.246246337890625 0.009329086169600487 1.2038313150405884
-0.223799929022789 0.00929931178689003 1.2023074626922607
-0.2180515080690384 -0.04064803570508957 1.2744907140731812
-0.2564311623573303 -0.07147807627916336 1.2103163003921509
-0.2137058526277542 0.01553371176123619 1.2462362051010132
-0.24035485088825226 -0.011534444987773895 1.2543789148330688
-0.2012389600276947 0.012532275170087814 1.2843799591064453
-0.186529740691185 0.010613176971673965 1.3191477060317993
-0.18084873259067535 -0.036273740231990814 1.3263558149337769
-0.21162836253643036 -0.07947966456413269 1.2333036661148071
-0.18714094161987305 0.05413036793470383 1.7070095539093018
-0.12782439589500427 0.10334272682666779 1.384745478630066
-0.12877020239830017 0.06621042639017105 0.8654714822769165
-0.17481426894664764 0.016686884686350822 0.8744062185287476
-0.15170642733573914 -0.07565833628177643 0.8780028820037842
-0.19507314264774323 -0.10359598696231842 0.8698650598526001
-0.16900385916233063 0.06755636632442474 1.6173360347747803
-0.19578588008880615 0.04315881058573723 1.7281869649887085
-0.16291536390781403 0.04828798025846481 1.6797406673431396
-0.1426437646150589 0.07825133204460144 1.6330852508544922
-0.15238507091999054 0.059487927705049515 1.5818499326705933
-0.11520278453826904 -0.001715186983346939 1.0314226150512695
-0.15273255109786987 -0.04973315820097923 0.996088445186615
-0.15932394564151764 -0.1179056316614151 0.983504593372345
-0.15038879215717316 0.0410868301987648 1.5148191452026367
-0.2911689579486847 -0.06400318443775177 0.06421596556901932
-0.3071596026420593 -0.12362927198410034 0.029091976583003998
-0.3114626705646515 -0.14839555323123932 0.046210918575525284
-0.15394212305545807 -0.024863047525286674 1.3734362125396729
-0.14374496042728424 0.015148770064115524 1.320733904838562
-0.1381530463695526 -0.011179909110069275 1.3015508651733398
-0.16219326853752136 -0.03585491701960564 1.3617780208587646
-0.1455000787973404 -0.07953165471553802 1.3177075386047363
-0.228455051779747 -0.028636734932661057 0.47981706261634827
-0.22919447720050812 -0.056674230843782425 0.3956020772457123
-0.2417919635772705 -0.004160881042480469 0.3340754210948944
-0.24761222302913666 -0.030908754095435143 0.3622344434261322
-0.15620669722557068 0.05759511515498161 1.6493715047836304
-0.14040736854076385 -0.051418762654066086 1.2704969644546509
-0.1433543860912323 -0.06129435449838638 1.228668212890625
-0.14646610617637634 -0.08549816906452179 1.2593657970428467
-0.17019420862197876 -0.09864675998687744 1.260428786277771
-0.2377447932958603 0.006207549013197422 0.2597729563713074
-0.1536116749048233 -0.02251065894961357 1.5097980499267578
-0.13739584386348724 0.046326298266649246 1.515696406364441
-0.1463279128074646 0.017388716340065002 1.5078192949295044
-0.19672980904579163 -0.06525435298681259 0.5780013799667358
-0.11076350510120392 0.038324639201164246 1.7412339448928833
-0.1299590915441513 -0.10682939738035202 1.1977661848068237
-0.11755603551864624 -0.035294368863105774 1.1465270519256592
-0.1368713676929474 -0.12399490922689438 0.7458540797233582
-0.11151032894849777 0.0881628692150116 1.6932380199432373
-0.13330551981925964 -0.0553683340549469 1.385331153869629
-0.10429666936397552 -0.11841902136802673 0.8502143621444702
-0.138861283659935 -0.13044802844524384 0.8718879222869873
-0.1227458268404007 -0.19729605317115784 0.910392165184021
-0.10633102059364319 -0.21298456192016602 0.8480836153030396
-0.28484728932380676 -0.18726176023483276 0.06355433911085129
-0.07438468188047409 0.10597309470176697 1.6927658319473267
-0.10429509729146957 0.04829555004835129 1.7263821363449097
-0.1517171561717987 0.00034505128860473633 1.4234321117401123
-0.13492339849472046 -0.024973660707473755 1.4683865308761597
-0.20660290122032166 0.01749882474541664 0.3286750614643097
-0.23523972928524017 -0.007658473215997219 0.2112358808517456
-0.273967444896698 -0.1848912090063095 0.10695254057645798
-0.24082469940185547 -0.0030370503664016724 0.07075915485620499
-0.11293472349643707 -0.007979042828083038 1.3062671422958374
-0.17771445214748383 -0.09177923202514648 0.5506280660629272
-0.24021612107753754 -0.14570286870002747 0.006507755257189274
-0.2809326648712158 -0.14598852396011353 0.0030081956647336483
-0.10380333662033081 0.03714738413691521 1.5310667753219604
-0.10971413552761078 0.008548427373170853 1.488551378250122
-0.032849736511707306 -0.2152223289012909 0.9020456671714783
-0.0780760869383812 0.08889120817184448 0.8616819977760315
-0.23448006808757782 -0.10950358957052231 0.2721557021141052
-0.21205313503742218 -0.10734756290912628 0.1963658332824707
-0.2193658947944641 -0.012043483555316925 0.11265058070421219
-0.09747299551963806 -0.007907632738351822 1.2716844081878662
-0.1059921458363533 -0.02771497145295143 1.2315223217010498
-0.07972986996173859 -0.12629519402980804 1.2996503114700317
-0.1421598345041275 -0.02543196827173233 0.6702350974082947
-0.12018399685621262 -0.1259654462337494 0.7376813888549805
-0.07530057430267334 -0.11766837537288666 0.8111560940742493
-0.20338617265224457 -0.11595587432384491 0.16261601448059082
-0.22785750031471252 -0.1785554587841034 0.07148522138595581
-0.12967780232429504 -0.0763016790151596 1.4611097574234009
-0.09711375087499619 0.0017077326774597168 1.3407647609710693
-0.06753288209438324 -0.0047069936990737915 1.2777163982391357
-0.14721576869487762 -0.09383732080459595 0.5729587078094482
-0.12492456287145615 -0.07441626489162445 0.5727470517158508
-0.1637892723083496 0.02192750945687294 0.5157889723777771
-0.1019640862941742 -0.06393139064311981 1.4323526620864868
-0.07525946199893951 -0.02674844115972519 1.4173446893692017
-0.1037990003824234 0.015938684344291687 1.3801853656768799
-0.13668903708457947 -0.01558283157646656 0.5208417177200317
-0.0623120479285717 0.05944553762674332 1.7314118146896362
-0.12544967234134674 -0.11682175099849701 1.590921401977539
-0.03805148974061012 -0.18805457651615143 0.9806197881698608
-0.08060675859451294 -0.03701655566692352 1.4302873611450195
-0.06042806804180145 -0.06587277352809906 1.415314793586731
-0.080307736992836 -0.0498170480132103 1.4093736410140991
-0.07381555438041687 -0.11672016233205795 1.5247384309768677
-0.11023995280265808 -0.107211172580719 1.472970962524414
-0.05511685460805893 -0.007327135652303696 1.4405924081802368
-0.10623718053102493 -0.03999510779976845 0.6397597193717957
-0.022533845156431198 0.013165190815925598 1.7509589195251465
-0.03086918592453003 0.1140131726861 1.6641628742218018
-0.06291201710700989 -0.13325397670269012 1.4756970405578613
-0.07549197971820831 -0.10868905484676361 1.4314171075820923
-0.03858131170272827 -0.017566218972206116 1.4168425798416138
-0.04958999529480934 -0.11333315074443817 1.432576298713684
-0.010003592818975449 0.00030282512307167053 1.3944562673568726
-0.028225993737578392 -0.019251681864261627 1.2707419395446777
-0.01723654568195343 0.06581932306289673 1.729369878768921
-0.020318234339356422 -0.018968330696225166 1.4441982507705688
-0.025594916194677353 -0.060328543186187744 1.4299890995025635
0.012162018567323685 0.07914093881845474 1.6926733255386353
-0.009975749999284744 0.022710978984832764 1.7346550226211548
-0.020685501396656036 -0.052072905004024506 1.4191744327545166
0.007325910031795502 -0.08279135823249817 1.453952670097351
-0.014797737821936607 -0.03278075531125069 1.4240741729736328
0.07894366979598999 -0.09142671525478363 0.5929733514785767
0.011369921267032623 0.0040116384625434875 1.4754202365875244
0.11530908197164536 -0.11167514324188232 0.5099025964736938
-0.006598855368793011 -0.165113165974617 1.2590795755386353
0.043587006628513336 -0.04958944395184517 1.2504584789276123
0.04617244750261307 -0.07451216876506805 1.140778660774231
0.14912687242031097 -0.13946084678173065 0.07332146167755127
0.16431450843811035 -0.13231529295444489 0.05287322402000427
0.13513903319835663 -0.007199600338935852 0.08174766600131989
0.007991958409547806 -0.1496763676404953 1.2451424598693848
-0.0016292929649353027 -0.1893053650856018 1.1708077192306519
0.07305263727903366 -0.14085187017917633 0.7325918674468994
0.13152876496315002 -0.05944708362221718 0.05616950988769531
0.03774102404713631 0.012737445533275604 1.6947529315948486
-0.007902231067419052 -0.1294422596693039 1.5990829467773438
-0.010142631828784943 -0.11256742477416992 1.5155038833618164
-0.008822917938232422 -0.11288681626319885 1.47260582447052
0.09747067093849182 -0.16203507781028748 0.8785876035690308
0.08503574132919312 0.002552427351474762 1.723109483718872
0.01668347232043743 0.0025808699429035187 1.5266664028167725
0.01481673400849104 -0.01771833375096321 1.4975017309188843
0.13806156814098358 -0.023099232465028763 0.3293651342391968
0.13028158247470856 -0.0151151642203331 0.26710566878318787
0.14738231897354126 0.0016641691327095032 0.06377425789833069
0.02933799847960472 -0.0009683966636657715 1.7777378559112549
0.04831642657518387 -0.019591741263866425 1.3957116603851318
0.09814538806676865 -0.21951547265052795 0.8650296926498413
0.0886804535984993 -0.13262635469436646 0.8656121492385864
0.1290338784456253 -0.1961284577846527 0.8672775030136108
0.09732309728860855 -0.04017362371087074 0.753474771976471
0.19088731706142426 -0.1322556585073471 0.0650506466627121
0.04759693890810013 0.001567162573337555 1.7056365013122559
0.03337074816226959 -0.1617579609155655 1.1385774612426758
0.03598613291978836 -0.13685034215450287 1.261878252029419
0.03617701306939125 -0.15314693748950958 1.2594679594039917
0.12439754605293274 -0.19008003175258636 0.9342048764228821
0.03458789736032486 -0.0703919529914856 1.5373868942260742
0.04556918144226074 0.0021318532526493073 1.5381253957748413
0.0409112423658371 -0.02306268736720085 1.5241152048110962
0.046520546078681946 -0.038872092962265015 1.5194110870361328
0.0537550151348114 -0.05102024972438812 1.496281385421753
0.1382475644350052 -0.06595764309167862 0.6517800092697144
0.13626617193222046 -0.13136184215545654 0.6711916327476501
0.059478070586919785 -0.054859183728694916 1.3788886070251465
0.06497637927532196 -0.010695859789848328 1.3183064460754395
0.03408920764923096 -0.012569308280944824 1.3361563682556152
0.0431867390871048 -0.03308960795402527 1.3119018077850342
0.12528817355632782 -0.11932899057865143 0.8337951898574829
0.19207532703876495 -0.01638520509004593 0.0667915791273117
0.20490796864032745 -0.04068239405751228 0.06245371326804161
0.056549396365880966 -0.0064100101590156555 1.6600258350372314
0.07248580455780029 -0.03233110532164574 1.3707998991012573
0.2011321485042572 -0.06961468607187271 0.3148540258407593
0.08160624653100967 0.009592965245246887 1.636529564857483
0.06025596708059311 0.03665945306420326 1.6413671970367432
0.06792314350605011 0.007087700068950653 1.6053574085235596
0.20796428620815277 -0.04660539701581001 0.13892951607704163
0.21496321260929108 -0.09958107769489288 0.0661274790763855
0.2041216939687729 -0.12880828976631165 0.09304748475551605
0.15079952776432037 -0.01610361784696579 0.9741441011428833
0.15048320591449738 -0.0166995357722044 0.8756606578826904
0.08202005177736282 -0.014665685594081879 1.7187941074371338
0.16741716861724854 0.03663467615842819 0.8822381496429443
