0.3524021506309509 -0.05174538120627403 1.4028074741363525
0.36436206102371216 -0.10755886882543564 1.140932321548462
0.4332345724105835 -0.08328075706958771 1.341240644454956
0.4753621518611908 -0.15317842364311218 0.8234349489212036
0.49184250831604004 -0.14559301733970642 0.8047277331352234
0.49134117364883423 -0.15892750024795532 0.694548487663269
0.49606746435165405 -0.16134926676750183 0.6228067874908447
0.48506617546081543 -0.1781551092863083 0.6368646025657654
0.48620161414146423 -0.1189078763127327 1.0920721292495728
0.5116388201713562 -0.15061739087104797 0.7010714411735535
0.509050726890564 -0.15401093661785126 0.6273897886276245
0.46598660945892334 -0.19732791185379028 0.8756139278411865
0.4626988470554352 -0.20924128592014313 0.9261406660079956
0.4466690123081207 -0.2256712168455124 0.8957940936088562
0.4724675416946411 -0.2121366411447525 0.8280113935470581
0.5395652651786804 -0.15796691179275513 0.7247310876846313
0.5392316579818726 -0.1698032170534134 0.6441178917884827
0.5289583802223206 -0.16140039265155792 0.8889559507369995
0.4851221442222595 -0.20381149649620056 0.8702192306518555
0.5069336295127869 -0.22239835560321808 0.8166378140449524
0.4773285984992981 -0.22241520881652832 0.8764166831970215
0.4865770637989044 -0.2507372498512268 0.8059715032577515
0.49470415711402893 -0.18694186210632324 0.9433479309082031
0.5315974950790405 -0.1996559500694275 0.89159095287323
0.5306000709533691 -0.2339605838060379 0.6566034555435181
0.5089312791824341 -0.25963300466537476 0.6007604002952576
0.5590047836303711 -0.1933860033750534 0.6086336970329285
0.5410195589065552 -0.15972106158733368 0.9621535539627075
0.5426555871963501 -0.18207469582557678 0.7540044784545898
0.5118502378463745 -0.24938958883285522 0.7238479256629944
0.5376722812652588 -0.24332626163959503 0.7165671586990356
0.5649803280830383 -0.23508422076702118 0.636711061000824
0.5865275263786316 -0.17479413747787476 0.8950812816619873
0.6042208671569824 -0.1753542423248291 0.8604806065559387
0.6008307933807373 -0.2064179629087448 0.6918345093727112
0.5965051651000977 -0.2202526479959488 0.7124987244606018
0.5431912541389465 -0.1394612044095993 1.0598963499069214
0.6301717758178711 -0.14111195504665375 1.011705756187439
0.5920637845993042 -0.15769916772842407 1.0054203271865845
0.6037497520446777 -0.1294347047805786 1.1942167282104492
0.5971082448959351 -0.12868675589561462 1.1509754657745361
0.592856228351593 -0.12499517947435379 1.146606683731079
0.5931515693664551 -0.1430615484714508 1.133484959602356
0.6231697797775269 -0.13893452286720276 1.0684478282928467
0.6126541495323181 -0.1448877900838852 1.0871057510375977
-0.43810439109802246 0.08518591523170471 0.8757177591323853
-0.4363436698913574 0.06371773034334183 0.8908495903015137
-0.43392324447631836 0.03936056047677994 0.8617213368415833
-0.25121548771858215 -0.054789379239082336 0.5938501954078674
-0.24381554126739502 -0.10139928758144379 0.5617750287055969
-0.30561286211013794 -0.043851420283317566 0.774339497089386
-0.3102850317955017 -0.052080780267715454 0.7203954458236694
-0.317776083946228 -0.07710804045200348 0.7605487704277039
-0.29380467534065247 -0.08365564048290253 0.6525568962097168
-0.2628246247768402 -0.07103510946035385 0.6624945402145386
-0.25288820266723633 -0.09774268418550491 0.6332359313964844
-0.35164129734039307 -0.004912395030260086 0.9106889963150024
-0.33213263750076294 -0.035803914070129395 0.8661677837371826
-0.34141796827316284 -0.01895195245742798 0.8640611171722412
-0.27847111225128174 -0.08647650480270386 0.6981119513511658
-0.2719830870628357 -0.06423553824424744 0.6996578574180603
-0.30699193477630615 -0.06346788257360458 0.7920072078704834
-0.29814520478248596 -0.048956260085105896 0.7474761009216309
-0.38124412298202515 0.075471892952919 1.0497556924819946
-0.28522396087646484 0.03099069371819496 0.9022735357284546
-0.2569442689418793 0.019323397427797318 0.9445960521697998
-0.25556209683418274 0.039227209985256195 0.9406531453132629
-0.34396517276763916 0.036643270403146744 1.0829651355743408
-0.28410089015960693 0.037007007747888565 1.030829906463623
-0.2631421685218811 0.04446908459067345 0.9738379716873169
-0.26103919744491577 0.025282923132181168 0.966437816619873
-0.3204127252101898 0.06482897698879242 1.3173303604125977
-0.259188711643219 0.05397434160113335 1.063593864440918
-0.25382131338119507 0.03051154315471649 1.1078139543533325
-0.23437565565109253 0.056409552693367004 1.0697404146194458
-0.1970970332622528 0.03202406316995621 1.115699291229248
-0.2074672281742096 0.04977656155824661 1.08647620677948
-0.16631121933460236 0.03728913515806198 1.1766036748886108
0.4064093828201294 -0.09272798150777817 1.024194598197937
0.4213826656341553 -0.07770892232656479 1.4979321956634521
0.47371137142181396 -0.12766800820827484 0.9827973246574402
0.4271255433559418 -0.09571115672588348 0.967608630657196
0.4422140419483185 -0.13481611013412476 0.9608578681945801
0.45088666677474976 -0.12255529314279556 0.9547802209854126
0.4420397877693176 -0.10422587394714355 1.1547174453735352
0.44740575551986694 -0.16911175847053528 0.9805916547775269
0.45915669202804565 -0.18112589418888092 0.9257647395133972
0.44308537244796753 -0.202997088432312 0.9480277299880981
0.44791626930236816 -0.20102562010288239 0.920003354549408
0.46273571252822876 -0.1885949820280075 0.868476152420044
0.4894334673881531 -0.20077577233314514 0.6735304594039917
0.4990657567977905 -0.2058975249528885 0.623698353767395
0.5276548862457275 -0.19715692102909088 0.6109575629234314
0.497102826833725 -0.1530301570892334 0.9619443416595459
0.5061192512512207 -0.15361689031124115 0.9269049167633057
0.48393765091896057 -0.2037370204925537 0.898612380027771
0.4726930558681488 -0.21167996525764465 0.8606296181678772
0.45870012044906616 -0.23558175563812256 0.8282355666160583
0.47915148735046387 -0.13493330776691437 1.2621452808380127
0.5496731996536255 -0.1723669022321701 0.893215537071228
0.5721234679222107 -0.18813824653625488 0.8466063737869263
0.5474323630332947 -0.17083604633808136 1.016066551208496
0.5841675400733948 -0.24432501196861267 0.6741083264350891
0.5906155705451965 -0.20820049941539764 0.6417471170425415
0.5679723024368286 -0.20178468525409698 0.8744930028915405
0.5714357495307922 -0.21366667747497559 0.8240259289741516
0.6579857468605042 -0.16831231117248535 0.998586893081665
0.6092973351478577 -0.20234820246696472 0.9594396352767944
0.6269439458847046 -0.18403847515583038 0.9551078677177429
0.6318724155426025 -0.21052254736423492 0.8263464570045471
0.6370517611503601 -0.19644327461719513 0.8385084271430969
-0.4744713306427002 0.12137525528669357 1.0383591651916504
-0.26338544487953186 -0.04412137344479561 0.5412988662719727
-0.3616883456707001 -0.0073662735521793365 0.8481481671333313
-0.3430393934249878 -0.02943429909646511 0.8219852447509766
-0.3786814212799072 0.023198146373033524 0.8911360502243042
-0.4748762845993042 0.11073889583349228 1.3343865871429443
-0.35914182662963867 0.05562501400709152 0.9277673959732056
-0.34887707233428955 0.03687606379389763 0.9007138013839722
-0.21130803227424622 -0.061235662549734116 0.5781391859054565
-0.19977666437625885 -0.036092303693294525 0.5746367573738098
-0.31803518533706665 -0.021109484136104584 0.8682690858840942
-0.3045029640197754 -0.04116359353065491 0.8156291246414185
-0.31602585315704346 -0.03864630311727524 0.856380045413971
-0.45861783623695374 0.08953449130058289 1.2890112400054932
-0.4135270118713379 0.09909787029027939 1.1903001070022583
-0.21612650156021118 0.06472475081682205 1.184627890586853
0.13916625082492828 -0.02674514427781105 1.2215042114257812
0.12510520219802856 -0.038156650960445404 1.2283899784088135
0.21770785748958588 -0.06230086088180542 1.1620402336120605
0.21928903460502625 -0.04561222717165947 1.0948266983032227
0.2938993573188782 -0.04992326721549034 1.1991993188858032
0.34412214159965515 -0.07263777405023575 1.0814645290374756
0.333924800157547 -0.08501376211643219 1.0671212673187256
0.4002237319946289 -0.110319584608078 1.203466773033142
0.4258369207382202 -0.11997109651565552 1.2795259952545166
0.43231990933418274 -0.13584253191947937 1.0989136695861816
0.4527072310447693 -0.2290463000535965 0.8338991403579712
0.48736485838890076 -0.22284846007823944 0.7853508591651917
0.47317174077033997 -0.2454906404018402 0.7424037456512451
0.49328386783599854 -0.2283654808998108 0.6927807927131653
0.5020418167114258 -0.16866841912269592 1.0227686166763306
0.5164100527763367 -0.2685849666595459 0.6214118599891663
-0.4252249002456665 0.04876001924276352 0.8856394290924072
-0.24219439923763275 -0.02953983284533024 0.7279106974601746
-0.2190297394990921 -0.04257582873106003 0.6779536008834839
-0.4803360402584076 0.11144620180130005 1.437652349472046
-0.2568049430847168 0.05042041838169098 1.0520602464675903
-0.24521267414093018 0.04821951314806938 1.0231657028198242
-0.23104767501354218 0.04221880063414574 1.0511387586593628
-0.19208288192749023 0.04957589507102966 1.0943057537078857
-0.14065873622894287 0.027617832645773888 1.2445645332336426
-0.146907776594162 0.00971902534365654 1.2441792488098145
0.352885901927948 -0.09180811047554016 1.335152506828308
0.3827463388442993 -0.09908079355955124 1.379522442817688
0.49651938676834106 -0.1426553726196289 0.9915072917938232
0.4901333749294281 -0.13800565898418427 0.9194071292877197
0.4592452347278595 -0.15256090462207794 1.0943901538848877
0.46765878796577454 -0.19443242251873016 0.8142631649971008
0.5213963985443115 -0.16023874282836914 1.0616260766983032
0.5166584253311157 -0.14636431634426117 1.148415446281433
0.5880845785140991 -0.18034206330776215 0.9862893223762512
0.5845820903778076 -0.19183367490768433 0.9247698783874512
0.5833399891853333 -0.2310759723186493 0.7606539726257324
0.5328218936920166 -0.2440113127231598 0.6804478764533997
0.5963007807731628 -0.20956549048423767 0.7513483166694641
-0.2604353427886963 -0.06350809335708618 0.5640232563018799
-0.22193537652492523 -0.042739495635032654 0.5650572776794434
-0.3073979914188385 -0.04413896054029465 0.7689680457115173
-0.25671103596687317 -0.06657255440950394 0.6244416236877441
-0.21949262917041779 -0.06331637501716614 0.6211068630218506
-0.30190229415893555 0.011233340948820114 0.923380434513092
-0.2327648103237152 0.04030599817633629 1.1932893991470337
-0.22184142470359802 0.04215740039944649 1.1411805152893066
-0.2216845154762268 0.050823405385017395 1.114209532737732
-0.20129942893981934 0.028534628450870514 1.1877578496932983
-0.17573583126068115 0.01770251989364624 1.1225956678390503
-0.1726624220609665 0.034085892140865326 1.1118016242980957
0.222971573472023 -0.029267635196447372 1.1010091304779053
0.4341469407081604 -0.1450265645980835 1.0290930271148682
0.46612364053726196 -0.1769276112318039 1.0205625295639038
0.4742918014526367 -0.1901353895664215 0.9780482053756714
0.5559988021850586 -0.22835305333137512 0.8109886050224304
-0.3173777461051941 -0.024388715624809265 0.6353608965873718
-0.30822163820266724 -0.04742594435811043 0.6029024720191956
-0.30297374725341797 -0.03739926591515541 0.5971500873565674
-0.3332720994949341 0.03158620372414589 0.8149223327636719
-0.2895973324775696 -0.028843455016613007 0.7878780961036682
-0.3026241660118103 -0.03202902153134346 0.8372918367385864
-0.1689487099647522 0.021697811782360077 1.2060911655426025
-0.1350732445716858 0.01765429601073265 1.315002202987671
-0.12450516223907471 0.021656768396496773 1.3040755987167358
0.12742260098457336 -0.0474168062210083 1.2394545078277588
0.213597372174263 -0.03363635390996933 1.588654637336731
0.3647957444190979 -0.04624947905540466 1.522510290145874
0.3879774808883667 -0.0671439841389656 1.5362122058868408
0.43179357051849365 -0.07943471521139145 1.464979887008667
0.5621117353439331 -0.12313011288642883 1.218381643295288
0.5885565280914307 -0.11959581077098846 1.2510989904403687
0.5827840566635132 -0.10415592789649963 1.195689082145691
0.5852996110916138 -0.12977097928524017 1.17777681350708
0.6140121221542358 -0.11652929335832596 1.1948435306549072
-0.470318078994751 0.10378240048885345 0.9693412184715271
-0.4510119557380676 0.11402535438537598 0.9561481475830078
-0.5128769874572754 0.14518845081329346 1.2122433185577393
-0.49378037452697754 0.1473267674446106 1.1965597867965698
-0.2585746645927429 -0.010628275573253632 0.5861557126045227
-0.24280919134616852 -0.02549424022436142 0.5475412011146545
-0.28666675090789795 -0.06548098474740982 0.6620505452156067
-0.31679296493530273 0.01718292385339737 0.7702898383140564
-0.3693588376045227 0.06644627451896667 0.9763318300247192
-0.4760436713695526 0.116983562707901 1.4857431650161743
0.22559665143489838 -0.03928109258413315 1.164313554763794
0.2675364017486572 -0.03712417185306549 1.3766714334487915
0.3607840836048126 -0.07781821489334106 1.0949691534042358
0.3577856421470642 -0.06172334402799606 1.2203253507614136
0.3950955867767334 -0.09939596056938171 1.0253169536590576
0.4099034070968628 -0.11292802542448044 0.9747109413146973
0.40349316596984863 -0.1305907666683197 1.0520399808883667
0.4839373826980591 -0.17043882608413696 0.7725577354431152
0.48829829692840576 -0.18310172855854034 0.7630794048309326
0.495770126581192 -0.22808660566806793 0.8217599987983704
0.57306969165802 -0.16566407680511475 0.9861841201782227
0.5871606469154358 -0.17707936465740204 0.7742257118225098
-0.2794305682182312 -0.05228056386113167 0.5708777904510498
-0.2371012568473816 -0.05099741742014885 0.5367365479469299
-0.23130840063095093 0.06196945533156395 1.0263134241104126
-0.1993412971496582 0.05988931655883789 1.1137406826019287
-0.17376959323883057 0.02832147479057312 1.1645958423614502
0.5635398626327515 -0.17197328805923462 0.8096494674682617
0.5753253102302551 -0.21465469896793365 0.584011971950531
0.5808898210525513 -0.21895021200180054 0.5974553823471069
-0.33266884088516235 -0.03335929661989212 0.8042508959770203
-0.26468995213508606 -0.02804466523230076 0.7385178208351135
-0.24963608384132385 -0.05046433210372925 0.6971300840377808
0.4588446021080017 -0.09329348802566528 1.3893024921417236
0.588664174079895 -0.19519785046577454 0.5909287333488464
0.6121339201927185 -0.20500580966472626 0.8891881704330444
-0.23091009259223938 0.07181858271360397 1.2590909004211426
0.6030070781707764 -0.1775486171245575 0.9765304327011108
-0.2682317793369293 -0.005150884389877319 0.8121421337127686
0.49294909834861755 -0.2505817413330078 0.638467013835907
0.5891563892364502 -0.1719534695148468 0.9666633605957031
-0.3240815997123718 -0.05878511071205139 0.7714554071426392
-0.3491988778114319 -0.09674158692359924 0.9434576630592346
-0.3562709093093872 -0.09341520071029663 0.9534927010536194
-0.3392830491065979 -0.11776792258024216 0.9510788321495056
-0.3503793776035309 -0.11457516252994537 0.9595571160316467
-0.32478010654449463 -0.07672096788883209 1.01254141330719
-0.3316921293735504 -0.08825581520795822 0.9907359480857849
-0.3200947642326355 -0.07742912322282791 0.9622544050216675
-0.3160400986671448 -0.052122343331575394 0.9963712692260742
-0.323777437210083 -0.10631193220615387 0.9927369356155396
-0.3280419111251831 -0.13165755569934845 0.9800055027008057
-0.30688488483428955 -0.05312477797269821 1.072208285331726
-0.30921000242233276 -0.1325010508298874 0.983182966709137
-0.31995031237602234 -0.09848800301551819 0.9862351417541504
-0.31249740719795227 -0.11976894736289978 1.018775224685669
-0.30945003032684326 -0.09562621265649796 1.0161900520324707
-0.29398858547210693 -0.04011194035410881 1.0458580255508423
-0.303116112947464 -0.08605260401964188 1.0149015188217163
-0.30301520228385925 -0.0962352380156517 1.0390846729278564
-0.3051353394985199 -0.07621657848358154 1.0684680938720703
-0.31761062145233154 -0.04205916076898575 1.1043901443481445
-0.3161148130893707 -0.09133274108171463 1.0945395231246948
-0.2797636091709137 0.0033624074421823025 1.134490728378296
-0.2861664295196533 -0.005562102422118187 1.092943549156189
-0.3082886040210724 -0.04633112624287605 1.1377060413360596
-0.2555283308029175 -0.0027255527675151825 1.0835460424423218
-0.2656075060367584 -0.03713636472821236 1.1888887882232666
-0.2871462404727936 -0.09273521602153778 1.14301598072052
-0.25399383902549744 0.012047908268868923 1.1271148920059204
-0.2261030524969101 0.0012148013338446617 1.138187050819397
-0.22876940667629242 0.002701863646507263 1.1937071084976196
-0.2059338390827179 0.002394862473011017 1.1940855979919434
-0.20795747637748718 -0.057216957211494446 1.258986473083496
-0.25060153007507324 -0.08077341318130493 1.189816951751709
-0.1976923793554306 0.0017151683568954468 1.2372337579727173
-0.2275407463312149 -0.024137135595083237 1.239713191986084
-0.18840698897838593 -0.005439385771751404 1.274496078491211
-0.17530743777751923 -0.010754607617855072 1.3098828792572021
-0.17268064618110657 -0.05766715854406357 1.3120133876800537
-0.2056003212928772 -0.09388981759548187 1.2154685258865356
-0.1695619821548462 0.01530298963189125 1.6905657052993774
-0.11355477571487427 0.076353058218956 1.3852801322937012
-0.12821745872497559 0.06530661880970001 0.8550362586975098
-0.17365944385528564 0.015163924545049667 0.8602864146232605
-0.14904749393463135 -0.07801614701747894 0.8647849559783936
-0.19209171831607819 -0.10576194524765015 0.8554689884185791
-0.1522064208984375 0.03349672630429268 1.6045536994934082
-0.17791616916656494 0.004716791212558746 1.7110188007354736
-0.14552266895771027 0.011273622512817383 1.6643493175506592
-0.12578342854976654 0.04331716150045395 1.6216890811920166
-0.13622112572193146 0.025523420423269272 1.5692713260650635
-0.11587511003017426 -0.005265897139906883 1.0273561477661133
-0.1550021469593048 -0.05005241185426712 0.9886660575866699
-0.16218651831150055 -0.11701229214668274 0.9740559458732605
-0.13728319108486176 0.009438619017601013 1.5044269561767578
-0.25950056314468384 -0.07152051478624344 0.04476998746395111
-0.2729374170303345 -0.13655158877372742 0.018428985029459
-0.27820301055908203 -0.15834341943264008 0.039220135658979416
-0.14508187770843506 -0.05030916631221771 1.3608372211456299
-0.13387058675289154 -0.00799499824643135 1.313878059387207
-0.12972062826156616 -0.03253515809774399 1.2926325798034668
-0.15412722527980804 -0.060992222279310226 1.3479317426681519
-0.13829918205738068 -0.10100582242012024 1.3009718656539917
-0.2037440538406372 -0.0376213863492012 0.46338850259780884
-0.20283278822898865 -0.06539265811443329 0.37827783823013306
-0.21529047191143036 -0.012623759917914867 0.3188776671886444
-0.22168004512786865 -0.04062051326036453 0.3450838327407837
-0.13896889984607697 0.0215778686106205 1.6346402168273926
-0.1327475756406784 -0.07048166543245316 1.2589876651763916
-0.13772808015346527 -0.07635968923568726 1.2187973260879517
-0.14049406349658966 -0.10169404000043869 1.2461445331573486
-0.16403616964817047 -0.11472368240356445 1.2441481351852417
-0.20931047201156616 -0.0028529148548841476 0.24418863654136658
-0.14020481705665588 -0.052450992166996 1.4953868389129639
-0.12301186472177505 0.0151139535009861 1.5050535202026367
-0.1325308233499527 -0.014673642814159393 1.4959052801132202
-0.17543214559555054 -0.07488968223333359 0.5619944930076599
-0.09391123056411743 7.557868957519531e-05 1.7224549055099487
-0.12651327252388 -0.11863633990287781 1.185396432876587
-0.11564561724662781 -0.045250821858644485 1.1424500942230225
-0.12468000501394272 -0.13053113222122192 0.7337489724159241
-0.09317523241043091 0.049729831516742706 1.6805877685546875
-0.12412358075380325 -0.07972053438425064 1.3694117069244385
-0.09951002895832062 -0.1210937649011612 0.8417737483978271
-0.13617390394210815 -0.13166368007659912 0.8622998595237732
-0.12258695811033249 -0.19606360793113708 0.9037665128707886
-0.10420404374599457 -0.21262237429618835 0.8434523344039917
-0.2511785924434662 -0.19393344223499298 0.060651667416095734
-0.05834582448005676 0.06512043625116348 1.6807174682617188
-0.08772507309913635 0.010110408067703247 1.7076425552368164
-0.13958555459976196 -0.028701409697532654 1.4124451875686646
-0.12263846397399902 -0.05372136831283569 1.4541674852371216
-0.18178366124629974 0.007639734074473381 0.3133716881275177
-0.2066085785627365 -0.014724324457347393 0.19760461151599884
-0.24205201864242554 -0.18714115023612976 0.10204291343688965
-0.20947067439556122 -0.0026209410279989243 0.04840841889381409
-0.10466225445270538 -0.0292540043592453 1.2988452911376953
-0.15588261187076569 -0.10093043744564056 0.535372257232666
-0.20579980313777924 -0.15928736329078674 -0.000682084821164608
-0.24578385055065155 -0.16111476719379425 -0.0037838059943169355
-0.08967333287000656 0.004844989627599716 1.5192179679870605
-0.09812655299901962 -0.02201991155743599 1.4762630462646484
-0.03294002264738083 -0.21425703167915344 0.8989207148551941
-0.07801280170679092 0.08823160827159882 0.8560827970504761
-0.2067013382911682 -0.11860382556915283 0.25531670451164246
-0.1831938624382019 -0.11258773505687714 0.17887145280838013
-0.18815535306930542 -0.009758055210113525 0.09356757253408432
-0.0910973995923996 -0.02738163433969021 1.266054630279541
-0.1010172963142395 -0.044288355857133865 1.2259294986724854
-0.07498356699943542 -0.14578497409820557 1.280747890472412
-0.12701350450515747 -0.03224794939160347 0.6558681726455688
-0.10759890079498291 -0.13269782066345215 0.7276041507720947
-0.06806673109531403 -0.12152521312236786 0.8051343560218811
-0.17324118316173553 -0.11907129734754562 0.14478498697280884
-0.19415068626403809 -0.182660773396492 0.06583819538354874
-0.11804094910621643 -0.10351596772670746 1.4452069997787476
-0.08816985785961151 -0.022395670413970947 1.3326913118362427
-0.06103125959634781 -0.024880459532141685 1.273555874824524
-0.12549495697021484 -0.10212603211402893 0.5582805871963501
-0.10531448572874069 -0.08297576010227203 0.5579931735992432
-0.1414305567741394 0.0131625235080719 0.5011757612228394
-0.09351584315299988 -0.0906323567032814 1.416808009147644
-0.06602859497070312 -0.0549466647207737 1.4037163257598877
-0.09403537958860397 -0.009087104350328445 1.3728461265563965
-0.11593730747699738 -0.024429185315966606 0.507326066493988
-0.04596782103180885 0.019912853837013245 1.7146854400634766
-0.11416967213153839 -0.14714840054512024 1.5691606998443604
-0.03977956995368004 -0.18825823068618774 0.9717909097671509
-0.07130034267902374 -0.06472945958375931 1.4164793491363525
-0.0528840646147728 -0.09336862713098526 1.4002987146377563
-0.07251885533332825 -0.07710546255111694 1.3936574459075928
-0.06426627188920975 -0.14558562636375427 1.505070686340332
-0.09920710325241089 -0.13333961367607117 1.4555909633636475
-0.04508429020643234 -0.03686529025435448 1.4286189079284668
-0.0890156626701355 -0.04694288596510887 0.6281100511550903
-0.007714591920375824 -0.025431077927350998 1.7292912006378174
-0.014246359467506409 0.0755232721567154 1.6544976234436035
-0.055295493453741074 -0.1607496738433838 1.4551115036010742
-0.06746789067983627 -0.1346738189458847 1.412994384765625
-0.030227744951844215 -0.0459732785820961 1.4042021036148071
-0.04238053411245346 -0.14148923754692078 1.4149237871170044
-0.0019997023046016693 -0.028846804052591324 1.3842219114303589
-0.02252238057553768 -0.039051931351423264 1.2652339935302734
-0.002466641366481781 0.02632272243499756 1.7120155096054077
-0.012212587520480156 -0.04777484014630318 1.4307012557983398
-0.019165974110364914 -0.08908076584339142 1.4148507118225098
0.027425643056631088 0.038826875388622284 1.6783270835876465
0.003415502607822418 -0.016204331070184708 1.7142976522445679
-0.016566861420869827 -0.08148211985826492 1.4050724506378174
0.015247512608766556 -0.11117224395275116 1.4371896982192993
-0.008525680750608444 -0.06304783374071121 1.410252332687378
0.06640037149190903 -0.09146611392498016 0.579766035079956
0.020597100257873535 -0.02663269452750683 1.464297890663147
0.10171538591384888 -0.11349206417798996 0.49598363041877747
-0.009086924605071545 -0.18328441679477692 1.240502953529358
0.044882338494062424 -0.07081897556781769 1.2410801649093628
0.04435376077890396 -0.08474153280258179 1.1346299648284912
0.13157011568546295 -0.1753009855747223 0.06363046914339066
0.14896264672279358 -0.17232686281204224 0.03965386003255844
0.1190318614244461 -0.027146078646183014 0.05571172758936882
0.004574574530124664 -0.16765770316123962 1.228796362876892
-0.004001660272479057 -0.1990145444869995 1.1531870365142822
0.06252031773328781 -0.14063063263893127 0.7182437777519226
0.1150786355137825 -0.08875733613967896 0.029401354491710663
0.048958729952573776 -0.02439102903008461 1.674499273300171
-0.00020350515842437744 -0.16029474139213562 1.5751408338546753
-0.0012406110763549805 -0.1414167433977127 1.4955815076828003
-0.0026121102273464203 -0.14060215651988983 1.4531950950622559
0.09265752136707306 -0.16193237900733948 0.8661280870437622
0.09652837365865707 -0.036271899938583374 1.7021212577819824
0.02639385685324669 -0.028367063030600548 1.5113106966018677
0.023370057344436646 -0.04914417862892151 1.4824451208114624
0.12328265607357025 -0.03217664733529091 0.3108827769756317
0.11611492186784744 -0.025708170607686043 0.24809430539608002
0.13265320658683777 -0.021276459097862244 0.03516657277941704
0.042005088180303574 -0.040162086486816406 1.7546112537384033
0.05410468578338623 -0.05180487036705017 1.380084753036499
0.0941736251115799 -0.21932536363601685 0.853998064994812
0.08180513978004456 -0.13253076374530792 0.8515214920043945
0.12440790235996246 -0.1960049271583557 0.8529491424560547
0.08843263983726501 -0.03956031799316406 0.7400331497192383
0.1733478605747223 -0.17299434542655945 0.05331328883767128
0.06100962311029434 -0.03468184918165207 1.6851543188095093
0.03052327036857605 -0.17116232216358185 1.1241376399993896
0.03102479875087738 -0.16063717007637024 1.2442567348480225
0.030191244557499886 -0.17776215076446533 1.2414854764938354
0.12473142147064209 -0.19107623398303986 0.9201363921165466
0.043486472219228745 -0.10041812807321548 1.5180516242980957
0.05490976199507713 -0.028326617553830147 1.524446725845337
0.05072271451354027 -0.05292255058884621 1.5075910091400146
0.05501890927553177 -0.06787639856338501 1.5031346082687378
0.05938418582081795 -0.08089219778776169 1.4797437191009521
0.12666715681552887 -0.06623682379722595 0.6373610496520996
0.12418828904628754 -0.131636843085289 0.6561023592948914
0.06087547540664673 -0.09347032010555267 1.362540364265442
0.06828112155199051 -0.0512559711933136 1.3047293424606323
0.038966864347457886 -0.05052104592323303 1.325232744216919
0.045400917530059814 -0.06762902438640594 1.2996063232421875
0.11693187057971954 -0.11947660893201828 0.8185506463050842
0.1775713562965393 -0.04676130414009094 0.037670865654945374
0.18930862843990326 -0.07347453385591507 0.03560337796807289
0.06619148701429367 -0.041337206959724426 1.6406053304672241
0.07695239782333374 -0.06324325501918793 1.355458378791809
0.18566489219665527 -0.08078768849372864 0.29616469144821167
0.0923384428024292 -0.025316555052995682 1.619079351425171
0.07114999741315842 0.0009811148047447205 1.625618815422058
0.07878367602825165 -0.026237728074193 1.5884742736816406
0.19231969118118286 -0.07303562015295029 0.11501163244247437
0.1985689401626587 -0.1386035531759262 0.04904072359204292
0.18556812405586243 -0.16424156725406647 0.08180507272481918
0.15401527285575867 -0.018463507294654846 0.9585314989089966
0.14563646912574768 -0.017820877954363823 0.8583287596702576
0.09322980791330338 -0.050988733768463135 1.6961013078689575
0.1642826795578003 0.03519711643457413 0.8646008968353271
0.17921367287635803 -0.0017684027552604675 0.9260790944099426
0.08968596160411835 -0.06420989334583282 1.2982041835784912
0.09564723074436188 -0.08764924854040146 1.2840549945831299
0.06980924308300018 -0.09654640406370163 1.333625078201294
0.09643051028251648 -0.07752415537834167 1.2438185214996338
0.08595073223114014 -0.07852505892515182 1.2241588830947876
0.08935175836086273 -0.1541719287633896 1.214419960975647
0.10601048171520233 -0.11279361695051193 1.2446410655975342
0.12237382680177689 -0.09502282738685608 1.1774300336837769
0.12964534759521484 -0.10405272245407104 1.1017634868621826
0.153909370303154 -0.11724595725536346 1.1134581565856934
0.1460515409708023 -0.12845148146152496 1.166238784790039
0.11810566484928131 -0.15941162407398224 1.1877084970474243
0.1540563404560089 -0.1438896358013153 1.0630549192428589
0.172795832157135 -0.19871246814727783 1.1169978380203247
0.17883211374282837 -0.18087011575698853 1.0965481996536255
0.16924947500228882 -0.15714991092681885 1.070650577545166
0.12784317135810852 -0.2336331605911255 1.105514645576477
0.15026605129241943 -0.20663580298423767 1.0720829963684082
0.15017536282539368 -0.1895083785057068 1.0565389394760132
0.179376021027565 -0.2700546979904175 0.9633083343505859
0.12948687374591827 -0.22081734240055084 1.0732430219650269
0.13061828911304474 -0.24052643775939941 1.0455901622772217
0.16737031936645508 -0.22173789143562317 0.989879310131073
0.13305607438087463 -0.22939956188201904 1.020354986190796
0.12661626935005188 -0.2549366354942322 1.0242724418640137
0.14829793572425842 -0.25282561779022217 0.9961504936218262
0.16315221786499023 -0.2571004331111908 0.9925329685211182
0.1222899854183197 -0.27314451336860657 1.0013444423675537
0.14260289072990417 -0.27037277817726135 0.9925355315208435
0.13217538595199585 -0.2696777880191803 1.001021146774292
0.1729126125574112 -0.2743542790412903 0.9445432424545288
0.13699981570243835 -0.2842915654182434 0.9888784885406494
0.15787839889526367 -0.2580200135707855 0.9586329460144043
0.15911945700645447 -0.2890872657299042 0.9577234387397766
0.1727566421031952 -0.283944308757782 0.9603720307350159
-0.2931838631629944 -0.03390742838382721 1.0693045854568481
-0.29115602374076843 -0.08675259351730347 1.0531790256500244
-0.2749485671520233 -0.07122025638818741 1.0521883964538574
-0.29776617884635925 -0.10587011277675629 1.086266279220581
-0.24127717316150665 -0.03595036268234253 1.0674349069595337
-0.273616224527359 -0.1094505712389946 1.0705130100250244
-0.1876111775636673 -0.02134495973587036 1.2150450944900513
-0.19277514517307281 -0.07230164855718613 1.1873459815979004
-0.17417871952056885 -0.09532302618026733 0.9514850378036499
-0.17814555764198303 -0.014251064509153366 0.9306690692901611
-0.1278393566608429 0.05111921206116676 0.9193920493125916
-0.07628732174634933 0.1186344176530838 1.2616479396820068
-0.07183016836643219 0.11892114579677582 1.2050034999847412
-0.0664488822221756 0.14344261586666107 1.1836885213851929
-0.15316875278949738 -0.010357845574617386 0.9530123472213745
-0.1803452968597412 0.001175668090581894 1.680349349975586
-0.14248128235340118 -0.019262507557868958 1.3321316242218018
-0.1613273024559021 -0.013756435364484787 1.267857313156128
-0.006660735234618187 0.1385846883058548 1.0931296348571777
-0.027747565880417824 0.14402535557746887 1.0180268287658691
-0.2624376118183136 -0.08116056770086288 0.10562444478273392
-0.27979645133018494 -0.13930927217006683 0.06295236945152283
-0.15900273621082306 -0.012512769550085068 1.6647253036499023
-0.14503136277198792 0.0025998130440711975 1.6126952171325684
-0.1527915745973587 -0.13538385927677155 1.2187799215316772
-0.1528858095407486 -0.1485082507133484 1.1936222314834595
-0.15834935009479523 -0.16790202260017395 1.186781406402588
-0.08543981611728668 0.078092560172081 1.3637360334396362
-0.07660578191280365 0.0716615840792656 1.3606992959976196
-0.13444994390010834 -0.1401975154876709 1.234844446182251
-0.1420607566833496 -0.06805135309696198 1.1876301765441895
-0.234391450881958 -0.10224565118551254 0.16946309804916382
-0.24274469912052155 -0.05711919441819191 0.18098051846027374
-0.03119627758860588 0.0985717922449112 1.2554759979248047
-0.14661213755607605 -0.041825633496046066 1.423148274421692
-0.14493663609027863 -0.035613980144262314 1.4032762050628662
-0.13249659538269043 -0.03701522946357727 1.3857390880584717
-0.14725017547607422 -0.03288769721984863 1.3836076259613037
-0.14860761165618896 -0.04833277687430382 1.371497631072998
-0.14092674851417542 -0.11402523517608643 0.7803359627723694
-0.15397240221500397 -0.07538900524377823 0.7738759517669678
0.006093049421906471 0.19016879796981812 1.107599139213562
0.0033495156094431877 0.18588365614414215 1.1541521549224854
-0.12544964253902435 -0.13380318880081177 1.2300124168395996
-0.12308334559202194 -0.11181516945362091 0.8540668487548828
-0.23531153798103333 -0.01733233779668808 0.09954724460840225
-0.24023911356925964 -0.019790571182966232 0.05994260683655739
-0.1359335482120514 -0.18505367636680603 0.8429787158966064
-0.028340185061097145 0.1565546840429306 1.243297815322876
-0.14796201884746552 -0.11649669706821442 1.5681992769241333
-0.11486165225505829 -0.008722823113203049 1.500271201133728
-0.07683879137039185 0.07123434543609619 1.48341965675354
-0.07917214930057526 0.03642489016056061 1.532106637954712
-0.10040652006864548 0.03731425851583481 1.5073649883270264
-0.08577538281679153 0.05787687748670578 1.432309627532959
-0.03341143950819969 0.08919282257556915 1.5282282829284668
-0.10936227440834045 -0.04055960103869438 1.451956868171692
-0.08588023483753204 0.04411938041448593 0.9666731357574463
-0.1223108321428299 -0.008719421923160553 1.758882761001587
-0.129471093416214 -0.01376228779554367 1.75187349319458
-0.13804641366004944 -0.02306024730205536 1.7388554811477661
-0.006250916048884392 0.03902619704604149 1.429041862487793
-0.05441519618034363 0.08964084088802338 1.4073673486709595
-0.1776392161846161 -0.08945298939943314 0.028784403577446938
-0.004087725654244423 0.12677167356014252 1.3600658178329468
-0.11709436029195786 -0.11571234464645386 1.4841642379760742
-0.15487061440944672 -0.06583449989557266 0.3821936845779419
-0.04742952808737755 0.03621770069003105 1.4800910949707031
-0.07278284430503845 -0.003053661435842514 1.4569754600524902
-0.012371729128062725 0.09829287230968475 1.4548559188842773
-0.03239811584353447 0.04978245496749878 0.8512222766876221
-0.1631929576396942 -0.0038895003963261843 0.3339187502861023
0.049571797251701355 0.15587234497070312 1.0243035554885864
-0.029617954045534134 0.03145527094602585 1.0299067497253418
-0.10812434554100037 -0.16307051479816437 1.2276660203933716
-0.10526500642299652 -0.1592218279838562 1.134083867073059
-0.15092983841896057 -0.032414212822914124 0.3111099600791931
-0.13567401468753815 -0.046494677662849426 0.24919773638248444
-0.16649708151817322 0.001632558647543192 0.24480858445167542
-0.05279857665300369 0.0181497223675251 1.4931132793426514
-0.07715766131877899 -0.10841219127178192 0.6787614822387695
-0.10323239862918854 -0.03493291884660721 0.6486585736274719
0.05376801639795303 0.18841588497161865 1.147491216659546
0.05872473865747452 0.18596947193145752 1.0705695152282715
-0.0610254742205143 -0.19415220618247986 1.155853271484375
-0.16127806901931763 -0.0690561980009079 0.11228619515895844
0.04647527262568474 0.1398089975118637 1.0562725067138672
0.03551703691482544 0.11630316078662872 1.0893197059631348
0.011235341429710388 0.014043232426047325 1.488614559173584
-0.0877317413687706 -0.10890182852745056 1.3622264862060547
0.04674410820007324 0.12871071696281433 1.3457807302474976
0.03752956911921501 0.03091539442539215 1.4194223880767822
0.0010081566870212555 0.007211573421955109 1.4858503341674805
0.0915750190615654 0.12883664667606354 1.0670732259750366
0.10834784805774689 0.11954349279403687 1.0231038331985474
-0.02920972742140293 -0.12611764669418335 1.3572707176208496
0.015417130663990974 0.028630316257476807 1.0279113054275513
-0.03546001389622688 -0.20650210976600647 1.0890347957611084
0.10305772721767426 0.10019718110561371 1.367836356163025
0.012924752198159695 -0.03930786997079849 1.2804336547851562
0.07139144092798233 0.0704982578754425 1.4600746631622314
0.036823201924562454 0.029717475175857544 1.4579081535339355
0.02382705546915531 -0.051961928606033325 1.196089506149292
0.046632375568151474 0.09148816764354706 0.9157081842422485
-0.0030595622956752777 -0.05765863507986069 1.6939549446105957
0.11037568002939224 -0.13843512535095215 0.06728923320770264
0.10586249083280563 -0.15483398735523224 0.03936160355806351
0.10531343519687653 -0.07285425812005997 0.07380262017250061
-0.04144708439707756 -0.1612778902053833 1.5695438385009766
0.060052141547203064 -0.06256408989429474 0.7034239172935486
0.09003649652004242 0.014665789902210236 1.4286617040634155
0.02476334758102894 -0.07936985790729523 1.4476613998413086
0.061229072511196136 -0.06931246072053909 1.3972358703613281
0.023397162556648254 -0.04117923974990845 1.3802175521850586
0.10275189578533173 -0.04421300068497658 0.37882137298583984
0.12030865252017975 -0.13630187511444092 0.22584408521652222
0.12213277071714401 -0.048825666308403015 0.18193985521793365
0.14983879029750824 0.11576282978057861 1.0729687213897705
0.1469271183013916 0.14049428701400757 1.046012043952942
0.09649834036827087 -0.14587296545505524 0.7298809289932251
0.10201624780893326 -0.05211009085178375 0.6471682786941528
-0.0069696418941020966 -0.10263693332672119 1.6760247945785522
0.03327522426843643 -0.11377248167991638 1.6347967386245728
0.1164308488368988 -0.13132673501968384 0.5403811931610107
0.019610684365034103 -0.05136829614639282 1.7074525356292725
0.043103426694869995 -0.06581767648458481 1.6580243110656738
0.0558275505900383 -0.11039116978645325 1.1277971267700195
0.06213412433862686 -0.09820885956287384 1.1036299467086792
0.05146326497197151 -0.1676534116268158 1.0826975107192993
0.013910714536905289 -0.14659450948238373 1.5679383277893066
0.038807470351457596 -0.08034490048885345 1.4782755374908447
0.028423301875591278 -0.12027984857559204 1.4719517230987549
0.1870349794626236 0.0971665233373642 1.0379748344421387
0.045750800520181656 -0.12745392322540283 1.273160696029663
0.04997561126947403 -0.18587073683738708 1.2347397804260254
0.058093249797821045 -0.12679262459278107 1.2183606624603271
0.16131016612052917 -0.03974703699350357 0.13235293328762054
0.17104163765907288 -0.12730349600315094 0.16001714766025543
0.185061514377594 -0.11588980257511139 0.1447400003671646
0.05672422796487808 -0.04902256280183792 1.683744192123413
0.05256377533078194 -0.1393498182296753 1.2762353420257568
0.17714308202266693 -0.0461311936378479 0.4197207987308502
0.15661320090293884 -0.09855780005455017 0.4751042425632477
0.18392160534858704 -0.0636376440525055 0.36217981576919556
0.07182663679122925 -0.0869685709476471 1.3884936571121216
0.058442629873752594 -0.08486533164978027 1.3862308263778687
0.07720394432544708 -0.07391446828842163 1.34759521484375
0.11926081031560898 0.060808759182691574 0.9166025519371033
0.12302805483341217 -0.11732755601406097 0.853315532207489
0.1889163851737976 -0.05483989417552948 0.234794020652771
0.2041851431131363 -0.08491626381874084 0.24381810426712036
0.08081548660993576 -0.061379291117191315 1.339990496635437
0.16298943758010864 0.03990038484334946 1.285948634147644
0.1749017834663391 0.06600768864154816 1.2675508260726929
0.050274401903152466 -0.2508378326892853 1.1319032907485962
0.15011709928512573 -0.06986168026924133 0.986662745475769
0.15155452489852905 -0.12643924355506897 0.9775317907333374
0.09149342775344849 -0.07765292376279831 1.1698994636535645
0.0892692282795906 -0.19071613252162933 1.070173978805542
0.10768256336450577 -0.15547972917556763 1.0477862358093262
0.09772225469350815 -0.2171134054660797 1.1370025873184204
-0.278679221868515 -0.04569872468709946 1.044012427330017
-0.29436734318733215 -0.09922102093696594 1.0247997045516968
-0.232060968875885 -0.0966230183839798 1.1179890632629395
-0.2454851269721985 -0.10039793699979782 1.1622047424316406
-0.2059132605791092 -0.06881469488143921 1.132420301437378
-0.1983531415462494 -0.030793987214565277 1.1533126831054688
-0.1874440312385559 -0.15130683779716492 0.8666559457778931
-0.05486185476183891 0.15197640657424927 1.0558648109436035
-0.0679994747042656 0.13759857416152954 1.148358702659607
-0.1700795441865921 -0.22433730959892273 1.0956225395202637
-0.14104220271110535 -0.15770885348320007 0.9446132183074951
-0.2489117532968521 -0.05060340464115143 0.2681048810482025
-0.22778072953224182 -0.09909019619226456 0.2826649844646454
-0.1798480600118637 0.004724170081317425 0.4865283966064453
-0.14663618803024292 -0.19112297892570496 0.8485469222068787
-0.16273021697998047 -0.054314594715833664 0.6280251145362854
-0.1553305983543396 -0.09725592285394669 0.6818583011627197
-0.1377653181552887 -0.04104398190975189 0.6896169185638428
-0.10175767540931702 -0.026736672967672348 1.0888378620147705
-0.11593381315469742 -0.08378714323043823 1.107300043106079
0.01324259303510189 0.1733284294605255 1.2168211936950684
-0.11039561033248901 -0.021230939775705338 0.8497348427772522
-0.1837170422077179 -0.10983430594205856 0.295797735452652
-0.11349749565124512 -0.038749996572732925 1.1896848678588867
-0.0933009684085846 -0.04854770377278328 1.1208301782608032
-0.16961583495140076 -0.08772683143615723 0.43574926257133484
-0.1265452653169632 -0.025868890807032585 1.6805109977722168
-0.1347176730632782 -0.058531634509563446 1.6633433103561401
-0.1010722666978836 -0.09466879069805145 1.6703484058380127
-0.12113852053880692 -0.12559479475021362 1.6288071870803833
-0.13565342128276825 -0.11810369789600372 1.5337059497833252
-0.1627817153930664 -0.06856975704431534 0.3277932405471802
-0.07230307906866074 -0.12020140886306763 0.7292569875717163
-0.13933990895748138 -0.0769701600074768 0.25618377327919006
-0.15785489976406097 -0.10642934590578079 0.2627483010292053
-0.17401123046875 -0.022969916462898254 0.1933799386024475
-0.0458698533475399 0.06396117061376572 0.958604097366333
-0.0829465240240097 -0.019160866737365723 1.7223694324493408
-0.10059534013271332 -0.02747742086648941 1.7091920375823975
0.07262032479047775 0.10011870414018631 1.2017337083816528
-0.0025157970376312733 0.11699483543634415 1.1951169967651367
0.04864337295293808 0.09083021432161331 1.249464750289917
-0.006456729024648666 -0.05341337248682976 1.2310075759887695
0.07403438538312912 0.15807506442070007 1.248811960220337
0.07737309485673904 0.11558054387569427 1.0944403409957886
0.132563978433609 0.16549894213676453 1.1800322532653809
0.025988247245550156 0.06495252996683121 1.6296617984771729
0.10596878081560135 0.09912759065628052 1.1038105487823486
0.037710629403591156 -0.21757987141609192 0.8991739153862
0.087404765188694 -0.09653220325708389 0.24353936314582825
0.11588143557310104 -0.11177660524845123 0.18291355669498444
0.05708424746990204 -0.12979602813720703 0.6864227652549744
0.034077420830726624 -0.0028389575891196728 1.0647468566894531
0.08233184367418289 -0.047722816467285156 0.555484414100647
0.10531983524560928 0.05634768307209015 1.3083683252334595
0.03870198875665665 -0.09891069680452347 1.3824915885925293
0.055152133107185364 0.04878387600183487 1.5938563346862793
0.04050450772047043 -0.01293710246682167 1.55399751663208
0.04566261172294617 0.003907483071088791 1.5358939170837402
0.013694848865270615 -0.047688789665699005 1.7524927854537964
0.03336566686630249 -0.12150152027606964 1.3221739530563354
0.14695462584495544 -0.021177247166633606 0.4847012162208557
0.11540324985980988 -0.008384944871068 0.47997212409973145
0.1419464498758316 -0.021426351740956306 0.3289647698402405
0.16432400047779083 -0.02738370932638645 0.29975438117980957
0.0621415376663208 -0.07940919697284698 1.4691884517669678
0.05108525976538658 -0.08754029870033264 1.4771555662155151
0.062129437923431396 -0.08043250441551208 1.4623262882232666
0.12220998853445053 -0.05304696410894394 0.7547616958618164
0.14007073640823364 -0.09572702646255493 0.6247711181640625
0.12075622379779816 0.020299050956964493 0.9572128653526306
0.09453563392162323 -0.087928906083107 1.0851528644561768
0.08568303287029266 -0.140342578291893 1.070648431777954
0.09774307161569595 -0.16217420995235443 1.0188307762145996
0.06661874800920486 -0.04836418107151985 1.586979627609253
0.07754985988140106 -0.049611374735832214 1.509421467781067
0.044766757637262344 -0.1779623180627823 1.2161332368850708
0.10284393280744553 0.01660441979765892 1.5036284923553467
0.08774764835834503 -0.012624157592654228 1.539512038230896
0.1914115995168686 -0.04780955612659454 0.06453867256641388
0.203570157289505 -0.09832601249217987 0.054594360291957855
0.11013643443584442 -0.0023421049118041992 1.4695454835891724
0.11756324768066406 0.01033563818782568 1.4437267780303955
0.12754890322685242 0.0029677022248506546 1.413365125656128
0.13048359751701355 0.014252748340368271 1.401059627532959
0.04927712306380272 -0.25324761867523193 1.1500787734985352
0.17091666162014008 -0.159161776304245 0.8647506833076477
0.06130600348114967 -0.23195412755012512 1.1621813774108887
0.056857407093048096 -0.25629284977912903 1.1513686180114746
0.19850407540798187 -0.11509671062231064 0.8826713562011719
0.19977757334709167 -0.09211046993732452 0.8632864356040955
0.20988821983337402 -0.057365015149116516 0.873391330242157
-0.21651193499565125 -0.09606220573186874 1.1714410781860352
-0.17553548514842987 -0.10300802439451218 1.2366503477096558
-0.18375641107559204 -0.10240934789180756 1.2211990356445312
-0.17518168687820435 -0.09446323662996292 1.2276636362075806
-0.16925078630447388 -0.09656879305839539 1.2453594207763672
-0.19421836733818054 0.0008876267820596695 0.8705686926841736
-0.14282505214214325 -0.06655879318714142 1.2661669254302979
-0.14649173617362976 -0.06793270260095596 1.0587923526763916
-0.11665622889995575 0.06508944928646088 1.513513445854187
-0.14598903059959412 -0.09368735551834106 1.1765269041061401
-0.14771799743175507 -0.08476632833480835 1.1241602897644043
-0.08619826287031174 0.07113594561815262 1.41641366481781
-0.07033731043338776 0.06531745940446854 1.3824284076690674
-0.1369834840297699 -0.14119863510131836 1.0173873901367188
-0.10296554863452911 -0.16505078971385956 0.9798524379730225
-0.13092906773090363 -0.03207586333155632 0.7759451270103455
0.004350769333541393 0.15000544488430023 1.2790381908416748
-0.058957289904356 0.08314825594425201 1.6065114736557007
-0.16650709509849548 -0.03561221435666084 0.053575299680233
-0.18093355000019073 -0.019119156524538994 0.043184056878089905
-0.08004473894834518 0.023650651797652245 0.8578243851661682
0.0008993018418550491 0.09329208731651306 0.8492199182510376
-0.06348422914743423 -0.023912418633699417 0.8363527059555054
0.03972937911748886 0.0576288104057312 1.3317155838012695
-0.04425709322094917 -0.08480656147003174 0.7563384771347046
-0.07395275682210922 -0.14893920719623566 1.5446406602859497
-0.006959658116102219 0.014083188958466053 0.8671280145645142
-0.005900431424379349 -0.028033656999468803 0.8454177975654602
0.013078935444355011 -0.11898811161518097 0.849392294883728
-0.07736272364854813 -0.16231714189052582 0.8514791131019592
-0.008524062111973763 -0.22325606644153595 0.844072699546814
0.029530560597777367 -0.11124815046787262 0.8247665166854858
-0.010631040669977665 -0.15926121175289154 0.8553053140640259
-0.010251875966787338 -0.009205721318721771 1.453460693359375
0.023786745965480804 -0.03809324651956558 0.8405674695968628
0.028098613023757935 -0.05053365230560303 0.8207760453224182
0.005274198949337006 -0.005205515772104263 1.530160903930664
0.009350638836622238 0.003729812800884247 1.5075603723526
0.0390934981405735 -0.12467870861291885 0.8414570093154907
0.12755802273750305 0.05496390163898468 0.850763201713562
0.08909361809492111 -0.06812076270580292 0.24042722582817078
0.04726788401603699 -0.035826172679662704 0.8089475631713867
0.10754997283220291 0.09099295735359192 1.2274303436279297
0.11835941672325134 -0.09392981976270676 0.36646759510040283
0.11612788587808609 -0.07970961183309555 0.3052612543106079
0.13197986781597137 -0.10036586225032806 0.32222527265548706
0.1278853863477707 -0.14036667346954346 0.2669687867164612
0.09096040576696396 0.03334412723779678 1.4758388996124268
0.07716372609138489 -0.017603881657123566 0.843544065952301
0.10145866870880127 -0.03654654696583748 0.8212265968322754
0.06088857725262642 -0.09922149777412415 1.2248493432998657
0.14979662001132965 -0.10727788507938385 0.4161372482776642
0.07488574832677841 0.006047379225492477 1.5749177932739258
0.04959695786237717 -0.06269130110740662 1.272022008895874
