-0.14714552462100983 -0.08439262956380844 1.571502447128296
-0.19023582339286804 -0.06089689955115318 0.347929984331131
-0.08604611456394196 -0.11516851931810379 0.7419018745422363
-0.16946573555469513 -0.07006245851516724 0.2766726016998291
-0.18761374056339264 -0.09859667718410492 0.2823212146759033
-0.20508608222007751 -0.019107842817902565 0.2116745561361313
-0.04582115635275841 0.06466950476169586 0.9663687944412231
-0.09931681305170059 0.024967599660158157 1.761022686958313
-0.11719585955142975 0.014272976666688919 1.7473188638687134
0.06378105282783508 0.1256345510482788 1.1878160238265991
-0.01800309494137764 0.14400388300418854 1.1853197813034058
0.038701534271240234 0.1160295158624649 1.242750883102417
-0.007795244455337524 -0.032379716634750366 1.2463306188583374
0.0588163286447525 0.19192680716514587 1.2370634078979492
0.06546874344348907 0.13875333964824677 1.0750977993011475
0.12134543061256409 0.19616645574569702 1.1608067750930786
0.010178400203585625 0.11059202253818512 1.650759220123291
0.09531495720148087 0.12381724268198013 1.084625005722046
0.03974740207195282 -0.2185133993625641 0.910627007484436
0.10722588002681732 -0.08220838010311127 0.26533153653144836
0.13855738937854767 -0.09122640639543533 0.20585329830646515
0.06943074613809586 -0.13010698556900024 0.7058266401290894
0.03197813034057617 0.007355107925832272 1.0704131126403809
0.09574415534734726 -0.04895514249801636 0.576373815536499
0.09473571181297302 0.08663740009069443 1.3101651668548584
0.043182507157325745 -0.055234141647815704 1.410270094871521
0.0407458133995533 0.09481564909219742 1.6148345470428467
0.030009444802999496 0.028667911887168884 1.583312749862671
0.03637576848268509 0.044400326907634735 1.559122085571289
0.003174997866153717 -0.0013910159468650818 1.795399785041809
0.04519044980406761 -0.0766143724322319 1.346551775932312
0.16076555848121643 -0.017587050795555115 0.5103161334991455
0.12729735672473907 -0.005366532132029533 0.5059957504272461
0.15698014199733734 -0.010545030236244202 0.35609370470046997
0.1790878176689148 -0.013343919068574905 0.3277101516723633
0.05764852836728096 -0.042102713137865067 1.4991240501403809
0.04461674019694328 -0.050745416432619095 1.5089764595031738
0.058231763541698456 -0.04737575352191925 1.492761254310608
0.13349699974060059 -0.05235859006643295 0.7743858695030212
0.15304242074489594 -0.09568401426076889 0.6444363594055176
0.11667502671480179 0.023764608427882195 0.9747552275657654
0.09601205587387085 -0.07833652943372726 1.0957838296890259
0.08863932639360428 -0.13217318058013916 1.0858159065246582
0.09846443682909012 -0.15698473155498505 1.0354325771331787
0.06075156480073929 -0.00691743940114975 1.6210367679595947
0.07280928641557693 -0.012902315706014633 1.5386254787445068
0.061986666172742844 -0.1451287865638733 1.2431092262268066
0.09436444193124771 0.05733209848403931 1.5271295309066772
0.08072363585233688 0.03061075508594513 1.5669867992401123
0.20798134803771973 -0.01077098399400711 0.09849981963634491
0.2220553308725357 -0.05293482914566994 0.08528681844472885
0.1035378947854042 0.035700757056474686 1.4933674335479736
0.11150277405977249 0.048156581819057465 1.4607458114624023
0.12097208201885223 0.0356137789785862 1.4269495010375977
0.12384384870529175 0.04847612977027893 1.4129036664962769
0.0717983990907669 -0.2272222936153412 1.1800975799560547
0.17781352996826172 -0.15765467286109924 0.8904796838760376
0.08654598146677017 -0.20235617458820343 1.1911413669586182
0.08323105424642563 -0.228627547621727 1.1802195310592651
0.20498773455619812 -0.11295059323310852 0.9112503528594971
0.20782168209552765 -0.09013065695762634 0.8916223645210266
0.21602970361709595 -0.055199794471263885 0.9021210074424744
-0.22179648280143738 -0.09042701125144958 1.199288010597229
-0.18191847205162048 -0.08870279788970947 1.2638592720031738
-0.18995334208011627 -0.0881430134177208 1.247868299484253
-0.1812361478805542 -0.07981768995523453 1.2537164688110352
-0.1770906150341034 -0.0785234272480011 1.2705967426300049
-0.19607305526733398 0.0024936143308877945 0.8909667134284973
-0.15173660218715668 -0.04454921931028366 1.2875233888626099
-0.14584881067276 -0.06375141441822052 1.0714409351348877
-0.13690075278282166 0.10493932664394379 1.5313506126403809
-0.14920823276042938 -0.0803050622344017 1.1941829919815063
-0.14709317684173584 -0.07646545767784119 1.1400691270828247
-0.10469485074281693 0.1058119609951973 1.4267100095748901
-0.08911269903182983 0.09901043027639389 1.388667106628418
-0.13465812802314758 -0.1396249234676361 1.0374584197998047
-0.10058384388685226 -0.16559578478336334 0.9983766078948975
-0.13888248801231384 -0.02681274153292179 0.7941296100616455
-0.015763118863105774 0.18404442071914673 1.270979404449463
-0.08042590320110321 0.12893813848495483 1.625108242034912
-0.2015669196844101 -0.03458360210061073 0.0785597562789917
-0.2149812877178192 -0.020773427560925484 0.0700458437204361
-0.08210771530866623 0.025379059836268425 0.8708347678184509
0.001377653330564499 0.09472274780273438 0.8558436632156372
-0.06736769527196884 -0.020335454493761063 0.8494994640350342
0.02630331553518772 0.08810599148273468 1.3329555988311768
-0.05408995971083641 -0.07931558042764664 0.7671562433242798
-0.08262688666582108 -0.11570031195878983 1.5868207216262817
-0.00691880751401186 0.014336478896439075 0.8751569986343384
-0.005805120803415775 -0.02649848908185959 0.854128897190094
0.01801227405667305 -0.11899187415838242 0.859590470790863
-0.07896023988723755 -0.1636456400156021 0.8592414855957031
-0.008108528330922127 -0.22489944100379944 0.8518953919410706
0.03814735263586044 -0.1109180748462677 0.8402540683746338
-0.008464992046356201 -0.16075308620929718 0.8635058403015137
-0.019090022891759872 0.028354506939649582 1.4772721529006958
0.02995871938765049 -0.0373668298125267 0.85188889503479
0.03491632640361786 -0.05046243965625763 0.8362118601799011
-0.00670531764626503 0.03601250797510147 1.5556045770645142
-0.0018620975315570831 0.04157930612564087 1.5306037664413452
0.04649605229496956 -0.12491055577993393 0.8559749126434326
0.1324053257703781 0.05683702230453491 0.8681493401527405
0.10848025232553482 -0.05347169563174248 0.265053391456604
0.056953124701976776 -0.035902682691812515 0.8257394433021545
0.09944164007902145 0.11775338649749756 1.2188735008239746
0.13699759542942047 -0.08518657088279724 0.3906191885471344
0.1337558925151825 -0.06436126679182053 0.3289809823036194
0.14998982846736908 -0.08655773103237152 0.34441739320755005
0.148794025182724 -0.12493108958005905 0.28821462392807007
0.0815277248620987 0.07162262499332428 1.4944486618041992
0.08315250277519226 -0.01718113198876381 0.8605926036834717
0.11126706004142761 -0.03633774444460869 0.8417835235595703
0.06585190445184708 -0.07421033084392548 1.2461395263671875
0.16734200716018677 -0.0988629013299942 0.4390418529510498
0.06566063314676285 0.047110412269830704 1.6023476123809814
0.05161652714014053 -0.02905694767832756 1.2946295738220215
0.18042908608913422 -0.086006760597229 0.34606871008872986
0.12789160013198853 0.17431262135505676 1.218914270401001
0.07333149760961533 -0.057614557445049286 1.2189652919769287
0.16717751324176788 -0.021969616413116455 0.22045868635177612
0.17202383279800415 0.16277526319026947 1.139691710472107
0.16472311317920685 -0.011539522558450699 0.25729215145111084
0.1926431804895401 -0.12531568109989166 0.2634085714817047
0.13180255889892578 0.06538765877485275 1.3315073251724243
0.06765319406986237 -0.029502149671316147 1.456749677658081
0.07584454119205475 -0.027498703449964523 1.4239336252212524
0.06540916115045547 -0.027807824313640594 1.4565496444702148
0.09007271379232407 -0.027465304359793663 1.4035205841064453
0.0792345479130745 -0.16915521025657654 1.230684757232666
0.06560183316469193 -0.178696870803833 1.2250388860702515
0.16291144490242004 0.08333420008420944 1.242417812347412
0.19130371510982513 0.11366783082485199 1.1836447715759277
0.1868284046649933 0.10751433670520782 1.1499899625778198
0.0850658193230629 -0.03757172450423241 1.2513076066970825
0.0773504376411438 -0.06839103996753693 1.2661746740341187
0.16042211651802063 -0.18266448378562927 0.899385392665863
0.08397393673658371 -0.07814547419548035 1.2767882347106934
0.08228030055761337 -0.10431714355945587 1.1752678155899048
0.1046067327260971 -0.04479056969285011 1.1549010276794434
0.09080979973077774 -0.08680382370948792 1.143481731414795
0.13881219923496246 -0.13598494231700897 1.1939725875854492
0.16730916500091553 -0.12773482501506805 1.065900206565857
0.13811911642551422 -0.1678715944290161 1.1189028024673462
-0.17236818373203278 -0.20940497517585754 1.1664012670516968
-0.16850131750106812 -0.14093953371047974 1.2118048667907715
-0.17519189417362213 -0.12682341039180756 1.2314844131469727
-0.16174936294555664 -0.19634974002838135 1.1671953201293945
-0.1224764809012413 0.11100147664546967 1.4556684494018555
-0.1280578374862671 0.09932977706193924 1.4396371841430664
-0.12363825738430023 0.11523023992776871 1.3968114852905273
-0.1676204651594162 0.016796663403511047 1.678313136100769
-0.17171068489551544 -0.017322465777397156 1.5944632291793823
-0.24771443009376526 -0.05867663770914078 0.34656697511672974
-0.1336575448513031 -0.06702480465173721 0.8628584146499634
-0.13733819127082825 -0.0913413017988205 0.8428913950920105
-0.061294544488191605 0.18495039641857147 1.0107253789901733
-0.11799931526184082 -0.11524827778339386 1.250509262084961
-0.12078981846570969 -0.02883000299334526 0.8386979103088379
-0.12234614789485931 -0.0009880438446998596 1.7267708778381348
-0.10817748308181763 -0.11947506666183472 1.1296074390411377
-0.07653512060642242 -0.18169662356376648 1.1273136138916016
-0.014139545150101185 0.1594478040933609 1.1142102479934692
0.0566227063536644 0.1407622992992401 1.1141107082366943
-0.07296527922153473 -0.023961246013641357 1.145117998123169
-0.05580471083521843 -0.11436906456947327 0.8525933623313904
-0.06372788548469543 -0.1874103546142578 1.0595121383666992
-0.0516706146299839 0.016762638464570045 1.055181622505188
-0.0737941712141037 -0.10386883467435837 1.6851119995117188
0.03794201463460922 -0.10257960855960846 0.7765579223632812
-0.018984420225024223 0.1076970249414444 1.3020451068878174
0.12051137536764145 -0.06808624416589737 0.061208970844745636
0.1631447672843933 0.17747454345226288 1.0783231258392334
0.11945454776287079 0.13135607540607452 1.136283278465271
0.11433901637792587 0.20340389013290405 1.0866520404815674
0.10107821971178055 0.0860484391450882 0.8685281276702881
0.17943349480628967 0.014699570834636688 0.08828277885913849
0.12521305680274963 -0.038291893899440765 0.8690563440322876
0.17042715847492218 -0.08921121805906296 0.39738553762435913
0.07299283891916275 -0.04900970682501793 1.3905980587005615
0.06917096674442291 -0.07188127934932709 1.3146165609359741
0.20103232562541962 -0.001148122362792492 0.8922327756881714
0.19692525267601013 -0.051730185747146606 0.9568482637405396
0.15561774373054504 -0.1551515758037567 1.0836877822875977
-0.25919121503829956 -0.11420579254627228 1.1634190082550049
-0.19431725144386292 -0.08317577838897705 0.945170521736145
-0.21320128440856934 -0.07218654453754425 0.8938554525375366
-0.12697145342826843 0.09934777021408081 1.391982913017273
-0.09862765669822693 0.12849339842796326 1.2572211027145386
-0.15008708834648132 0.028734799474477768 1.5149188041687012
-0.13870200514793396 -0.055557701736688614 1.0393763780593872
-0.14596021175384521 -0.08434322476387024 1.0780891180038452
-0.14934350550174713 0.03238898143172264 1.5156980752944946
-0.14993852376937866 0.01919695734977722 1.5024442672729492
-0.14994271099567413 0.025139857083559036 1.5104905366897583
-0.1514654904603958 0.022903434932231903 1.5136098861694336
-0.15687353909015656 0.012226790189743042 1.5030217170715332
-0.24310201406478882 -0.11902077496051788 0.19618046283721924
-0.17165935039520264 -0.052939578890800476 1.6447621583938599
-0.04694318026304245 -0.014987263828516006 1.1998891830444336
-0.20727303624153137 -0.13536466658115387 0.0690557211637497
-0.06484849750995636 -0.019021453335881233 1.2420423030853271
-0.0190366692841053 -0.02950701303780079 1.1573262214660645
-0.03492478281259537 0.09284532070159912 0.9293655157089233
-0.06331434100866318 -0.015101656317710876 1.7442247867584229
-0.07680153101682663 -0.06680618971586227 0.7072640657424927
0.00626039132475853 0.10821302980184555 1.2691446542739868
-0.00423857569694519 -0.19206282496452332 1.0089722871780396
-0.05775582045316696 -0.17859604954719543 1.2284560203552246
0.06006067991256714 0.12777279317378998 1.1563841104507446
0.12825006246566772 -0.055990010499954224 0.1948593407869339
0.05272941663861275 -0.1803852915763855 0.9974303245544434
0.10391369462013245 -0.17444659769535065 0.9863999485969543
0.05366809666156769 0.04524944722652435 1.5267386436462402
0.041051991283893585 -0.16525200009346008 1.1778607368469238
0.020672287791967392 -0.039495404809713364 1.157717227935791
0.07916799187660217 -0.032760389149188995 1.088157296180725
0.07741241157054901 0.05707121267914772 0.9644126296043396
0.16858893632888794 -0.09183217585086823 0.03146304935216904
0.14461620151996613 -0.08630792796611786 0.03125198557972908
0.1983560025691986 -0.06884101778268814 0.04089796915650368
0.21090999245643616 -0.10022508352994919 0.2495279163122177
0.06501919031143188 -0.028364166617393494 1.4537014961242676
0.06426374614238739 -0.028270173817873 1.4546083211898804
0.05703461542725563 -0.043778810650110245 1.3182086944580078
0.06829310953617096 -0.0669507384300232 1.3025414943695068
0.2078508734703064 0.12760870158672333 1.0854460000991821
0.20576100051403046 0.10686148703098297 1.040452003479004
0.2146999090909958 0.10974480211734772 1.0368921756744385
0.18034842610359192 -0.12109505385160446 1.0682092905044556
0.15488067269325256 -0.177483469247818 1.06466805934906
0.16017302870750427 -0.2040923833847046 1.0591577291488647
-0.2575286030769348 -0.07994154840707779 1.0892120599746704
-0.1787455528974533 -0.16891229152679443 1.2027032375335693
-0.217090904712677 -0.06370341777801514 0.3754444718360901
-0.026341475546360016 0.1625596433877945 0.9866446852684021
-0.11446774005889893 -0.14049839973449707 1.077406644821167
-0.037157122045755386 -0.042750682681798935 0.8469245433807373
-0.06293601542711258 -0.029927700757980347 0.8133143782615662
-0.05863213539123535 -0.08263504505157471 0.8142728805541992
-0.01080358400940895 0.006151106208562851 1.1006882190704346
0.023806128650903702 -0.2080378234386444 0.8424176573753357
0.09816469252109528 0.013521862216293812 0.8763161897659302
0.13677921891212463 0.1272343397140503 1.103623628616333
0.0700596421957016 0.007833901792764664 1.5419139862060547
0.08293397724628448 0.02815386652946472 1.520914912223816
0.1843503713607788 -0.12061512470245361 0.956528902053833
-0.18296284973621368 -0.18279299139976501 1.1725049018859863
-0.1455184668302536 0.07514418661594391 1.5478284358978271
-0.0003523491322994232 0.17047208547592163 1.0324537754058838
-0.12463665753602982 0.09939539432525635 1.5795183181762695
-0.10367528349161148 0.06218826398253441 1.568073034286499
-0.07380693405866623 0.051066577434539795 1.5481228828430176
0.016248710453510284 -0.19528642296791077 1.0680289268493652
0.028064141049981117 -0.1357707381248474 1.2636330127716064
0.16918548941612244 -0.10370957106351852 0.16793812811374664
0.06673502922058105 -0.12840840220451355 1.2222156524658203
0.0804702565073967 -0.12297248095273972 1.1694318056106567
0.10709776729345322 0.05604839697480202 1.424696683883667
0.09631165862083435 0.0849534273147583 1.4364465475082397
0.0862119197845459 -0.08054942637681961 1.174509882926941
0.13032788038253784 -0.0755763053894043 0.8525526523590088
0.05083330348134041 -0.16047340631484985 1.24946129322052
0.1353205442428589 0.08050358295440674 1.3513498306274414
-0.0962756797671318 0.12378562241792679 1.3400499820709229
-0.20842982828617096 0.012317901477217674 0.3823332190513611
0.05301366373896599 -0.10248343646526337 0.7357989549636841
-0.021538235247135162 -0.11284730583429337 1.6663410663604736
-0.07652021944522858 0.18441878259181976 1.0760787725448608
-0.17083145678043365 -0.07959915697574615 1.2731913328170776
-0.1657620221376419 -0.028501324355602264 0.41526269912719727
0.018064960837364197 0.12973351776599884 1.4656263589859009
0.1273099184036255 -0.0953572541475296 0.038028500974178314
0.06081093102693558 -0.04696749895811081 1.4926986694335938
0.059844207018613815 -0.04665028676390648 1.4903842210769653
0.06297927349805832 -0.03370348736643791 1.4111754894256592
0.20308220386505127 -0.08408809453248978 0.22058641910552979
0.19942668080329895 -0.04957786947488785 0.20779474079608917
0.09078438580036163 -0.10196533799171448 1.2237634658813477
-0.1723482310771942 -0.1562497317790985 0.9403749108314514
-0.10790875554084778 0.11112004518508911 1.3679959774017334
-0.10815513879060745 0.10802989453077316 1.3683197498321533
-0.11235203593969345 0.10719084739685059 1.3687269687652588
-0.18642617762088776 -0.05795789882540703 0.21392911672592163
-0.035926710814237595 -0.09701712429523468 0.8480063676834106
0.14016808569431305 -0.08295617252588272 0.15659110248088837
0.10108929127454758 -0.13206277787685394 1.1855642795562744
0.040804460644721985 -0.07114632427692413 1.6258597373962402
0.14757061004638672 -0.09769564867019653 0.8030862808227539
0.12329866737127304 0.04539152979850769 1.3948270082473755
0.13035443425178528 0.0622524656355381 1.3621270656585693
0.12835125625133514 -0.019304096698760986 0.07005804032087326
-0.0529903769493103 -0.45731979608535767 1.1272814273834229
-0.04378816857933998 -0.4309868812561035 1.0988703966140747
-0.04741792380809784 -0.440883994102478 1.1033210754394531
-0.053448837250471115 -0.43277403712272644 1.1081737279891968
-0.057883407920598984 -0.45520666241645813 1.1146152019500732
-0.04695069417357445 -0.4474010169506073 1.1278635263442993
0.035791411995887756 -0.33488625288009644 1.0875983238220215
0.023293502628803253 -0.3360270857810974 1.082607388496399
0.021387584507465363 -0.35592231154441833 1.0924961566925049
0.012213105335831642 -0.3620463013648987 1.0959116220474243
0.10568303614854813 -0.21744683384895325 1.0021696090698242
0.09950694441795349 -0.2266899198293686 1.0207207202911377
0.09997191280126572 -0.22885426878929138 0.9957382678985596
0.010375519283115864 -0.3508807420730591 1.0504086017608643
0.004788084886968136 -0.36286991834640503 1.0660102367401123
0.009448563680052757 -0.3822561800479889 1.1204077005386353
0.012642620131373405 -0.3725411593914032 1.1070700883865356
0.0769934430718422 -0.2566618323326111 0.9824553728103638
0.07267845422029495 -0.26174676418304443 1.0061582326889038
0.07632923871278763 -0.2876460552215576 1.0752499103546143
0.07406046986579895 -0.28010642528533936 1.0683438777923584
-0.02817736566066742 -0.4354284107685089 1.136277675628662
-0.03268340602517128 -0.4249938726425171 1.0893100500106812
0.10326748341321945 -0.23267799615859985 0.9858774542808533
0.09518317878246307 -0.2363220453262329 0.9830545783042908
0.2323254942893982 -0.0927896499633789 1.0482850074768066
0.22450204193592072 -0.10201510041952133 1.047831416130066
0.22940519452095032 -0.09363402426242828 1.0276782512664795
-0.008361868560314178 -0.4017716646194458 1.1172133684158325
-0.020927418023347855 -0.4198218584060669 1.1235140562057495
0.1005011573433876 -0.23520371317863464 0.9798022508621216
0.09953881055116653 -0.23484362661838531 0.9704501032829285
-0.07044900208711624 -0.47701919078826904 1.0786192417144775
-0.07379482686519623 -0.4877106249332428 1.0902165174484253
0.24329090118408203 -0.08491945266723633 1.0404419898986816
0.23902669548988342 -0.09187690168619156 1.0537433624267578
0.23804323375225067 -0.08467897772789001 1.0340821743011475
0.23346096277236938 -0.09277750551700592 1.025254249572754
-0.08111245185136795 -0.5097054243087769 1.1450337171554565
-0.08756589889526367 -0.5258468389511108 1.1581883430480957
-0.09218898415565491 -0.5250468850135803 1.1404342651367188
0.042584728449583054 -0.31115975975990295 1.0209773778915405
0.03752186521887779 -0.3267001509666443 1.0222587585449219
0.021906666457653046 -0.3421381413936615 1.0185236930847168
0.028697026893496513 -0.34171923995018005 1.0155370235443115
0.23801836371421814 -0.09949891269207001 1.0589308738708496
0.24234500527381897 -0.08650888502597809 1.0293550491333008
0.005582092329859734 -0.39999258518218994 1.132358193397522
0.011213511228561401 -0.4015517830848694 1.1332565546035767
-0.0049514006823301315 -0.40989118814468384 1.134798526763916
-0.011504845693707466 -0.4268033504486084 1.1425491571426392
0.0670275166630745 -0.2832055389881134 1.0028620958328247
0.057527728378772736 -0.29735904932022095 1.0001180171966553
0.0544901117682457 -0.29634401202201843 1.0066463947296143
0.24506181478500366 -0.0888499915599823 1.0344659090042114
0.23907428979873657 -0.10037963092327118 1.0565165281295776
0.23514950275421143 -0.09809292107820511 1.0285670757293701
0.10904816538095474 -0.2168291211128235 0.9386680722236633
0.10517603158950806 -0.22202789783477783 0.9319294691085815
0.10480993986129761 -0.22813978791236877 0.9566791653633118
0.10585086792707443 -0.22760239243507385 0.9465817213058472
0.10452103614807129 -0.2221161425113678 0.9422079920768738
0.01729695312678814 -0.3618614077568054 1.0132755041122437
0.017944416031241417 -0.34917813539505005 1.0075688362121582
0.015690678730607033 -0.35464322566986084 0.9971470832824707
0.012150852009654045 -0.3582277297973633 0.9988941550254822
0.23638954758644104 -0.1009998545050621 1.0368894338607788
-0.08564742654561996 -0.5337041616439819 1.1652753353118896
-0.08869259059429169 -0.5307826995849609 1.1477570533752441
-0.08891438692808151 -0.5424317121505737 1.163632869720459
-0.09722515940666199 -0.5426099300384521 1.1669559478759766
-0.09234768152236938 -0.525442361831665 1.1327972412109375
0.12661686539649963 -0.23274728655815125 0.996968686580658
0.10954935848712921 -0.23826712369918823 0.9850789308547974
-0.05444011464715004 -0.46765294671058655 1.0700334310531616
-0.07099463045597076 -0.4862403869628906 1.0817742347717285
-0.07674635946750641 -0.5026490688323975 1.0977915525436401
0.09318041801452637 -0.2867663502693176 1.0739493370056152
0.08084073662757874 -0.2985508441925049 1.076743721961975
0.07933741807937622 -0.31191638112068176 1.0735362768173218
0.01519658975303173 -0.4000542461872101 1.135610580444336
0.010140562430024147 -0.4068823754787445 1.1275968551635742
-0.017641719430685043 -0.4437617063522339 1.1416740417480469
0.024451594799757004 -0.37588584423065186 1.1167513132095337
-0.03179658204317093 -0.44835877418518066 1.0839457511901855
-0.053087268024683 -0.47310686111450195 1.0867067575454712
0.09628313034772873 -0.28736379742622375 1.0685267448425293
0.02311347797513008 -0.3920808434486389 1.1008363962173462
0.03267810866236687 -0.3772265315055847 1.0911660194396973
0.014459336176514626 -0.4042142629623413 1.1069605350494385
-0.07062719762325287 -0.5108150243759155 1.1326321363449097
-0.06465424597263336 -0.5026398301124573 1.1202009916305542
0.011575467884540558 -0.38032957911491394 1.0481243133544922
0.017072079703211784 -0.3851587176322937 1.0630887746810913
0.005027664825320244 -0.3949841856956482 1.068163275718689
0.010951601900160313 -0.39918798208236694 1.0777077674865723
0.057838715612888336 -0.33925870060920715 1.079085350036621
0.03325363248586655 -0.36425864696502686 1.0899227857589722
-0.018813222646713257 -0.44512492418289185 1.1215417385101318
-0.028174415230751038 -0.46267545223236084 1.120843529701233
-0.0396934449672699 -0.46376314759254456 1.1264398097991943
-0.018630143254995346 -0.44043269753456116 1.0951462984085083
-0.02370448037981987 -0.44744962453842163 1.0918951034545898
0.041644711047410965 -0.3552618622779846 1.0450910329818726
0.03053203597664833 -0.36745959520339966 1.0498003959655762
0.03687548637390137 -0.3457118272781372 1.029159665107727
0.030616000294685364 -0.3635515570640564 1.039920687675476
0.020667867735028267 -0.37250176072120667 1.0518192052841187
0.05387111380696297 -0.3422689437866211 1.0527344942092896
0.06439966708421707 -0.3322749137878418 1.0556981563568115
0.05965615063905716 -0.3187601864337921 1.0266399383544922
0.06019902974367142 -0.32965540885925293 1.0441455841064453
-0.02673773467540741 -0.45519179105758667 1.098689079284668
-0.034418437629938126 -0.46952253580093384 1.1081746816635132
-0.03571087867021561 -0.46151408553123474 1.1001267433166504
-0.02440459094941616 -0.46819645166397095 1.104254961013794
0.12592747807502747 -0.24546104669570923 1.0126588344573975
-0.0338078998029232 -0.4122007489204407 1.1133688688278198
-0.04637138172984123 -0.422210693359375 1.1068010330200195
0.0004363972693681717 -0.3665273189544678 1.0911619663238525
0.0011477218940854073 -0.3647664785385132 1.0863138437271118
-0.009987326338887215 -0.3756140470504761 1.0979458093643188
-0.004032525233924389 -0.370216429233551 1.0854703187942505
-0.00903148204088211 -0.37919366359710693 1.0953577756881714
0.020682167261838913 -0.34341561794281006 1.0654507875442505
0.01204659417271614 -0.3519010543823242 1.0676976442337036
0.031015921384096146 -0.32995110750198364 1.0592155456542969
-0.0035992078483104706 -0.3782089352607727 1.1025561094284058
-0.04680075868964195 -0.4443482756614685 1.0802009105682373
-0.05570218339562416 -0.4537743926048279 1.1072889566421509
-0.002470623701810837 -0.3698229193687439 1.0634198188781738
-0.06868743896484375 -0.469803124666214 1.1221731901168823
-0.07869037985801697 -0.4892500340938568 1.122804880142212
-0.06625458598136902 -0.47736668586730957 1.1122782230377197
-0.0818779468536377 -0.5021988749504089 1.1361579895019531
0.11993596702814102 -0.21579164266586304 1.0195419788360596
0.11509980261325836 -0.25132790207862854 1.0933634042739868
0.1020759791135788 -0.25397419929504395 1.0860614776611328
0.10889582335948944 -0.25716841220855713 1.0925443172454834
0.06653791666030884 -0.2792825698852539 1.0099844932556152
0.22065076231956482 -0.09741058945655823 1.0176329612731934
0.22387371957302094 -0.10945454239845276 1.060826301574707
0.2156628966331482 -0.11872084438800812 1.0566757917404175
0.21440187096595764 -0.11449840664863586 1.0485143661499023
0.04185236990451813 -0.34486275911331177 1.0958428382873535
-0.03434552624821663 -0.4497182369232178 1.152076005935669
-0.0850677341222763 -0.5048496723175049 1.1146259307861328
0.18177096545696259 -0.14397494494915009 1.0183625221252441
0.170755535364151 -0.16658033430576324 1.0123685598373413
0.05501881241798401 -0.3280552327632904 1.0982036590576172
0.04571719467639923 -0.33246031403541565 1.0924495458602905
0.0219544917345047 -0.36336836218833923 1.1009674072265625
-0.08818713575601578 -0.5145522952079773 1.117861270904541
-0.09008682519197464 -0.5349205732345581 1.1708358526229858
-0.09246692061424255 -0.5394552946090698 1.1741750240325928
-0.09555017948150635 -0.5382367968559265 1.155498743057251
0.13880115747451782 -0.19951030611991882 1.016371726989746
0.13127383589744568 -0.21835015714168549 1.019878625869751
0.03264167532324791 -0.3668162226676941 1.100857138633728
0.11628249287605286 -0.21938037872314453 0.9998020529747009
-0.07623565196990967 -0.4930022954940796 1.0925428867340088
0.14684107899665833 -0.22185781598091125 1.1038079261779785
0.14699091017246246 -0.225456103682518 1.1013574600219727
0.13770054280757904 -0.23164953291416168 1.090914011001587
0.1382385939359665 -0.23676122725009918 1.102269172668457
0.1326773762702942 -0.24755948781967163 1.1065635681152344
0.12493348121643066 -0.22900795936584473 1.0692472457885742
0.13383246958255768 -0.23272916674613953 1.0732821226119995
-0.09338192641735077 -0.5404994487762451 1.1758275032043457
-0.0012632599100470543 -0.387559175491333 1.052032709121704
-0.004912500269711018 -0.39658913016319275 1.0601028203964233
-0.010068429633975029 -0.3978036046028137 1.0626184940338135
0.008090786635875702 -0.3727666735649109 1.0352083444595337
0.1418205350637436 -0.23839950561523438 1.1008522510528564
0.1327095329761505 -0.24995169043540955 1.103621244430542
0.10535922646522522 -0.24235114455223083 0.9729952812194824
0.14396525919437408 -0.23293420672416687 1.0990679264068604
0.13840627670288086 -0.23765870928764343 1.0914349555969238
0.017714476212859154 -0.3912411034107208 1.1245782375335693
0.09714794903993607 -0.2455293834209442 0.9456992149353027
0.09547531604766846 -0.2437663972377777 0.9409068822860718
0.08569832146167755 -0.252675861120224 0.931581974029541
0.08144617080688477 -0.25976234674453735 0.9377017021179199
0.13672232627868652 -0.22857889533042908 1.018640160560608
0.12525184452533722 -0.2565818130970001 1.0896562337875366
0.005276264622807503 -0.4086725115776062 1.114628791809082
-0.0079822251573205 -0.4261096715927124 1.1231069564819336
0.09896979480981827 -0.25444895029067993 0.9729816913604736
0.09604600816965103 -0.2612868547439575 0.9728986620903015
0.09064674377441406 -0.2552512288093567 0.9589122533798218
-0.0035616885870695114 -0.4259360432624817 1.1142371892929077
0.006523389369249344 -0.4129876494407654 1.1039048433303833
-0.0035242270678281784 -0.4205290675163269 1.090286135673523
0.009451175108551979 -0.40659308433532715 1.0853208303451538
-0.05939500033855438 -0.4840241074562073 1.1012639999389648
-0.05631571263074875 -0.48977476358413696 1.1076648235321045
0.10972602665424347 -0.2561989426612854 0.9910295009613037
0.1200525313615799 -0.2596743106842041 1.0391249656677246
0.10653676837682724 -0.2762666344642639 1.0375720262527466
0.11037512123584747 -0.27133411169052124 1.0258632898330688
0.0979849249124527 -0.28734928369522095 1.0398237705230713
0.08662871271371841 -0.2927629053592682 1.032717227935791
-0.005169886630028486 -0.43498551845550537 1.098770260810852
0.0032430794090032578 -0.42708057165145874 1.0945229530334473
-0.01481826975941658 -0.4583855867385864 1.1151037216186523
0.039375029504299164 -0.38009482622146606 1.0813525915145874
0.020860671997070312 -0.4008176922798157 1.0918325185775757
0.03192969039082527 -0.38398417830467224 1.0817011594772339
0.023223038762807846 -0.3937142789363861 1.0800414085388184
0.022543834522366524 -0.39975473284721375 1.087579607963562
0.02366897463798523 -0.389125257730484 1.085999846458435
0.01856999658048153 -0.4037395715713501 1.0856940746307373
-0.020864946767687798 -0.4691507816314697 1.1127597093582153
-0.020991982892155647 -0.4621310830116272 1.102755069732666
-0.04365461692214012 -0.4275723695755005 1.1202292442321777
-0.05464667081832886 -0.44127708673477173 1.1204408407211304
-0.04714208468794823 -0.42697954177856445 1.102620244026184
-0.05748738348484039 -0.4418168067932129 1.1137669086456299
0.10129761695861816 -0.24151837825775146 1.074181318283081
0.09372222423553467 -0.23565241694450378 1.0076199769973755
0.08524210751056671 -0.24430011212825775 1.0055075883865356
0.11576291173696518 -0.22032222151756287 1.0463593006134033
-0.030010655522346497 -0.4222348928451538 1.1218812465667725
-0.02316635474562645 -0.4075172543525696 1.092652440071106
0.07097722589969635 -0.27069345116615295 1.0343035459518433
0.06622393429279327 -0.2784655690193176 1.0232421159744263
0.0905413031578064 -0.25591957569122314 1.0680679082870483
0.08318369835615158 -0.27105259895324707 1.0708039999008179
-0.017766959965229034 -0.40155738592147827 1.091965675354004
-0.03427917882800102 -0.4339381754398346 1.127489447593689
0.054256461560726166 -0.297524631023407 1.0356913805007935
0.03556280955672264 -0.3213909864425659 1.0515581369400024
0.0392635315656662 -0.3146345615386963 1.0312365293502808
-0.010113795287907124 -0.38503581285476685 1.0793832540512085
-0.07332667708396912 -0.4915735721588135 1.1391898393630981
-0.0890110656619072 -0.517310619354248 1.1457418203353882
-0.08874467015266418 -0.5160354971885681 1.1270965337753296
0.12246222794055939 -0.24222558736801147 1.1011414527893066
0.10076955705881119 -0.2681552767753601 1.0984607934951782
0.06794686615467072 -0.3016888499259949 1.0812289714813232
0.053541235625743866 -0.3197479844093323 1.089963674545288
0.03517068922519684 -0.3275393545627594 1.0272512435913086
0.0966523140668869 -0.2803534269332886 1.108330249786377
0.0948844626545906 -0.26545250415802 1.0745084285736084
0.09085724502801895 -0.2796719968318939 1.074683666229248
-0.045223429799079895 -0.4664742350578308 1.1514346599578857
-0.057947468012571335 -0.4834033250808716 1.1464817523956299
-0.012474218383431435 -0.3960817754268646 1.0667309761047363
0.16339899599552155 -0.17534321546554565 1.0402470827102661
0.16993843019008636 -0.16475722193717957 1.039705753326416
0.01586478389799595 -0.3476823568344116 1.0104570388793945
0.06577428430318832 -0.3181963860988617 1.0839442014694214
0.06135307252407074 -0.3295884132385254 1.1010184288024902
-0.03730976581573486 -0.46077078580856323 1.1518445014953613
-0.03679618239402771 -0.4666286110877991 1.1479771137237549
-0.04981415718793869 -0.47513043880462646 1.1481664180755615
0.08579620718955994 -0.2622625231742859 0.970496416091919
0.07640437036752701 -0.2732934355735779 0.9704774618148804
0.07235372066497803 -0.2715508043766022 0.9712862968444824
0.08138726651668549 -0.2549503445625305 0.9630587697029114
0.0855172872543335 -0.25804591178894043 0.9590521454811096
0.07974188774824142 -0.25852400064468384 0.9453593492507935
0.06714838743209839 -0.27711623907089233 0.9936483502388
0.07630131393671036 -0.25519800186157227 0.9396618604660034
0.06915593892335892 -0.2642296850681305 0.9327685832977295
0.13696107268333435 -0.22471770644187927 1.0455540418624878
0.13201850652694702 -0.2291429340839386 1.048327922821045
0.12600477039813995 -0.22069236636161804 1.016361951828003
0.12247390300035477 -0.25107595324516296 1.0981956720352173
0.1172289177775383 -0.25970590114593506 1.090849757194519
0.015013284049928188 -0.39975735545158386 1.1463629007339478
0.015547788701951504 -0.3943979740142822 1.1466374397277832
0.014148331247270107 -0.3895757794380188 1.1317882537841797
0.0781271904706955 -0.2637838125228882 0.9297549724578857
0.08106666058301926 -0.25003448128700256 0.9302983283996582
0.0717243179678917 -0.2786657214164734 0.9908135533332825
-0.029866904020309448 -0.43653595447540283 1.0756950378417969
-0.04493141174316406 -0.44987186789512634 1.075028896331787
0.1367357224225998 -0.24041041731834412 1.0761704444885254
0.14769840240478516 -0.2131301611661911 1.0432994365692139
-0.029016779735684395 -0.4588232636451721 1.1315689086914062
0.025465447455644608 -0.34900206327438354 1.013639211654663
0.21342112123966217 -0.12828664481639862 1.019951343536377
0.20597492158412933 -0.13900171220302582 1.019275426864624
0.028433244675397873 -0.35527992248535156 1.020847201347351
0.15196068584918976 -0.21090932190418243 1.0312100648880005
0.14273877441883087 -0.2242354154586792 1.0351455211639404
0.13786892592906952 -0.22196203470230103 1.023549199104309
-0.009517945349216461 -0.4317030906677246 1.0947657823562622
0.12222897261381149 -0.24005027115345 0.9939976334571838
0.04630446434020996 -0.34048911929130554 1.0343914031982422
0.13598531484603882 -0.23864686489105225 1.0364408493041992
0.12890568375587463 -0.2518117427825928 1.0404174327850342
0.1314336061477661 -0.25014975666999817 1.065325379371643
0.11837619543075562 -0.25992751121520996 1.050489902496338
0.13916125893592834 -0.23208186030387878 1.0246224403381348
0.13190071284770966 -0.23450055718421936 1.011167287826538
-0.0019030813127756119 -0.43374353647232056 1.1037100553512573
0.015530591830611229 -0.3461177349090576 1.0842504501342773
0.008649519644677639 -0.34567615389823914 1.080683946609497
0.006267352495342493 -0.35534465312957764 1.0914726257324219
0.01051936112344265 -0.3423738479614258 1.0743645429611206
0.0003610551357269287 -0.3571433424949646 1.0854458808898926
-0.02388887107372284 -0.4004693329334259 1.10882568359375
-0.0266248881816864 -0.4095410108566284 1.1165982484817505
0.0024472903460264206 -0.36579209566116333 1.0822683572769165
-0.004891614429652691 -0.37348681688308716 1.0754413604736328
-0.014049721881747246 -0.39007946848869324 1.093663215637207
-0.014163627289235592 -0.39321279525756836 1.1057785749435425
0.07869978249073029 -0.2580546736717224 1.0308513641357422
0.10975037515163422 -0.24160006642341614 1.0867466926574707
0.12125496566295624 -0.2290959656238556 1.074446678161621
0.1342448592185974 -0.1973126232624054 1.0386269092559814
0.13687960803508759 -0.19456547498703003 1.0273617506027222
0.00564005458727479 -0.37085649371147156 1.0443252325057983
0.02340914122760296 -0.33677127957344055 1.0331857204437256
0.007596716750413179 -0.35845595598220825 1.0095019340515137
0.014716379344463348 -0.34623876214027405 1.036273717880249
0.21162822842597961 -0.12402623891830444 1.0561394691467285
0.22551754117012024 -0.10273215919733047 1.0337995290756226
0.21553125977516174 -0.11228227615356445 1.040124535560608
0.21114489436149597 -0.1148611456155777 1.030073881149292
0.20152419805526733 -0.11974107474088669 1.0249152183532715
0.16245310008525848 -0.16835269331932068 1.0148321390151978
0.15131409466266632 -0.18134060502052307 1.0153332948684692
0.1385987550020218 -0.2233278453350067 1.101315975189209
0.011068019084632397 -0.395902156829834 1.1459306478500366
-0.015939394012093544 -0.42917078733444214 1.1407430171966553
-0.05765864998102188 -0.46246880292892456 1.0676796436309814
-0.05700991302728653 -0.4591231942176819 1.0720202922821045
0.09049508720636368 -0.24137753248214722 0.9397116899490356
0.0783611536026001 -0.24792391061782837 0.933931827545166
0.17612330615520477 -0.17201058566570282 1.0392098426818848
0.16698960959911346 -0.18475884199142456 1.0393214225769043
0.012506806291639805 -0.3936780095100403 1.1495838165283203
0.04968251287937164 -0.3191911578178406 1.0179786682128906
0.043808463960886 -0.33239150047302246 1.025895118713379
0.06295626610517502 -0.3254317045211792 1.089229941368103
0.0519433431327343 -0.336581289768219 1.0908256769180298
0.03996790573000908 -0.35068392753601074 1.0922931432724
0.09267604351043701 -0.2796068787574768 1.0011062622070312
0.20209529995918274 -0.14861762523651123 1.0316877365112305
0.1953105926513672 -0.158463716506958 1.0209213495254517
-0.06024395301938057 -0.49503034353256226 1.116266131401062
0.09607549011707306 -0.29085397720336914 1.0586328506469727
0.0873744934797287 -0.3063254952430725 1.049949049949646
0.09692259132862091 -0.27745532989501953 1.0159744024276733
0.09421488642692566 -0.27339303493499756 0.9894078373908997
0.07563340663909912 -0.28724542260169983 1.007126808166504
0.11275827884674072 -0.26939958333969116 1.0468428134918213
0.12055838108062744 -0.26775795221328735 1.0627217292785645
0.11151809990406036 -0.27499818801879883 1.0618555545806885
0.10593929886817932 -0.2799893021583557 1.047175407409668
0.09645441919565201 -0.24014225602149963 1.0486645698547363
0.10721702873706818 -0.22095173597335815 1.029378890991211
0.10107696056365967 -0.22871574759483337 1.0398057699203491
0.09257926046848297 -0.23659026622772217 1.0280640125274658
-0.03676594793796539 -0.4217758774757385 1.0999349355697632
0.08725633472204208 -0.23971113562583923 0.9969560503959656
-0.04778458923101425 -0.45556989312171936 1.1325311660766602
0.057334933429956436 -0.288662850856781 1.021533489227295
0.19051316380500793 -0.1335134506225586 1.0372039079666138
0.18212980031967163 -0.14219830930233002 1.0311561822891235
0.18458425998687744 -0.14056627452373505 1.0214139223098755
0.09826010465621948 -0.2641860544681549 1.075819969177246
0.09572993963956833 -0.27627044916152954 1.0991744995117188
0.09962216019630432 -0.26675230264663696 1.0836540460586548
0.08220690488815308 -0.2575821876525879 0.971464991569519
0.06775414943695068 -0.26005449891090393 0.9314531683921814
-0.020559975877404213 -0.4135938882827759 1.071014642715454
-0.02535681426525116 -0.4214552044868469 1.071716070175171
-0.03368929773569107 -0.4305713176727295 1.076904296875
0.12485621869564056 -0.22426633536815643 1.0496872663497925
0.10208297520875931 -0.2800467610359192 1.1028639078140259
0.09364737570285797 -0.28233250975608826 1.1012388467788696
0.09896323084831238 -0.2780790328979492 1.0889452695846558
0.09810575097799301 -0.2754231095314026 1.0721266269683838
-0.0726073607802391 -0.4834771752357483 1.0787336826324463
-0.08295371383428574 -0.5088748931884766 1.110849142074585
0.21915167570114136 -0.11655738949775696 1.0276834964752197
0.22469136118888855 -0.10543106496334076 1.0081413984298706
0.2240910530090332 -0.10546136647462845 1.0225608348846436
0.21888543665409088 -0.1150573268532753 1.02191162109375
0.21709281206130981 -0.1185288205742836 1.0141422748565674
0.2165130078792572 -0.10633572936058044 1.0050114393234253
0.2124393880367279 -0.1179264485836029 1.0096018314361572
0.07291384786367416 -0.2858101725578308 1.0008461475372314
0.20148049294948578 -0.1324777901172638 1.0047491788864136
0.178683340549469 -0.17198890447616577 1.0180829763412476
0.16556376218795776 -0.1827084720134735 1.0149807929992676
0.1653694212436676 -0.1919955313205719 1.0303550958633423
0.1372281014919281 -0.23562239110469818 1.0423849821090698
0.1342143565416336 -0.2394583523273468 1.0580806732177734
0.0851673036813736 -0.27341997623443604 0.9790307283401489
0.06740844249725342 -0.3324890434741974 1.0643495321273804
0.07497787475585938 -0.31691187620162964 1.0444663763046265
0.006483638193458319 -0.4250771701335907 1.1001754999160767
0.0564287006855011 -0.3532930910587311 1.0686843395233154
0.04679973050951958 -0.37028178572654724 1.0768080949783325
0.052084870636463165 -0.36505892872810364 1.0695040225982666
0.03596692904829979 -0.38133659958839417 1.0765663385391235
0.04533711075782776 -0.31270384788513184 1.073222041130066
0.030853722244501114 -0.3206915855407715 1.0722301006317139
0.058139119297266006 -0.29931482672691345 1.0732824802398682
0.03790406510233879 -0.31374260783195496 1.06130850315094
-0.06390170753002167 -0.46694415807724 1.093723177909851
0.135939359664917 -0.19890466332435608 1.0211808681488037
0.12439555674791336 -0.21103882789611816 1.0235838890075684
0.12367407977581024 -0.21068386733531952 1.037374496459961
0.15690933167934418 -0.1733044683933258 1.0331647396087646
0.15180233120918274 -0.18118664622306824 1.0385500192642212
0.0039582690224051476 -0.3885704278945923 1.1297301054000854
-0.00041127949953079224 -0.39568081498146057 1.1281160116195679
0.019555533304810524 -0.3793296217918396 1.1192761659622192
-0.04031122848391533 -0.4414113163948059 1.0751539468765259
0.10754100233316422 -0.21655601263046265 0.936316967010498
0.09946516901254654 -0.22588656842708588 0.9373344779014587
0.22972683608531952 -0.09601690620183945 1.0128624439239502
0.22186440229415894 -0.09876316785812378 1.0071969032287598
0.21177542209625244 -0.1360166072845459 1.0654270648956299
0.2112235128879547 -0.1432817280292511 1.0605902671813965
-0.05259060114622116 -0.48429229855537415 1.1435471773147583
-0.06576381623744965 -0.502791166305542 1.1388787031173706
-0.0498603954911232 -0.4846588969230652 1.115462303161621
0.05425605922937393 -0.310461163520813 1.0117180347442627
0.2262616753578186 -0.12037832289934158 1.042948842048645
0.2230706810951233 -0.12094604969024658 1.0471177101135254
0.21535758674144745 -0.12914687395095825 1.044500470161438
0.1245131865143776 -0.26028376817703247 1.0782936811447144
0.012296007946133614 -0.40376245975494385 1.0964810848236084
0.1133248433470726 -0.2486574947834015 0.9951767921447754
0.10677528381347656 -0.26009342074394226 1.0037922859191895
-0.02950700744986534 -0.402004599571228 1.1040276288986206
-0.031020963564515114 -0.4122677743434906 1.1059925556182861
0.11028691381216049 -0.23004023730754852 1.0599215030670166
0.06527514010667801 -0.2818261981010437 1.0391688346862793
0.054026294499635696 -0.2928880453109741 1.0505849123001099
0.12587574124336243 -0.21920624375343323 1.0460869073867798
0.20856843888759613 -0.11483423411846161 1.0123134851455688
0.19753751158714294 -0.12575937807559967 1.009804606437683
0.19756269454956055 -0.13063129782676697 1.0052170753479004
0.20911535620689392 -0.13270916044712067 1.0653772354125977
0.20418085157871246 -0.1323920637369156 1.063436508178711
0.1979164332151413 -0.13379384577274323 1.0480931997299194
-0.06853227317333221 -0.496358186006546 1.1429193019866943
0.010957811027765274 -0.3610144257545471 1.0233120918273926
0.010365930385887623 -0.35313671827316284 0.9997667074203491
0.21390102803707123 -0.10492882132530212 1.0066332817077637
-0.018102319911122322 -0.4352932274341583 1.1462785005569458
-0.023889753967523575 -0.4492480754852295 1.1558431386947632
0.153234601020813 -0.19898225367069244 1.0441430807113647
0.13690774142742157 -0.20977428555488586 1.047724962234497
0.07037075608968735 -0.2620357573032379 0.9269670248031616
0.21919558942317963 -0.12327764928340912 1.0549445152282715
0.2297380417585373 -0.1056843027472496 1.0342683792114258
0.21956555545330048 -0.11149614304304123 1.0355161428451538
0.10982668399810791 -0.22238552570343018 0.936305820941925
0.1035786122083664 -0.23561280965805054 0.9581445455551147
0.18986988067626953 -0.16400863230228424 1.0301926136016846
0.01212022639811039 -0.3685116171836853 1.0283243656158447
0.01629362814128399 -0.35858154296875 1.001218557357788
0.06400448083877563 -0.33292385935783386 1.0988510847091675
0.025200247764587402 -0.3772086799144745 1.065948247909546
0.030681094154715538 -0.3818289041519165 1.0745408535003662
0.04963760823011398 -0.34945136308670044 1.0577507019042969
0.041190844029188156 -0.361162394285202 1.062668800354004
0.07328463345766068 -0.27210715413093567 1.0556726455688477
0.05483844131231308 -0.3097226619720459 1.0815439224243164
0.0399826355278492 -0.3264121413230896 1.0815280675888062
-0.0033113937824964523 -0.3809477388858795 1.0502105951309204
0.09704235941171646 -0.23316869139671326 0.9575890302658081
0.08907653391361237 -0.23919187486171722 0.9455400109291077
0.08357071131467819 -0.24810996651649475 0.967621922492981
0.1077219694852829 -0.2695239782333374 1.0965332984924316
0.10372745245695114 -0.2687245011329651 1.078598141670227
-0.02152000181376934 -0.45116961002349854 1.1532057523727417
0.21190066635608673 -0.1335139125585556 1.0335922241210938
0.16011062264442444 -0.1974576711654663 1.0360220670700073
0.1555679440498352 -0.20250673592090607 1.0182044506072998
0.09972435235977173 -0.24228009581565857 1.0618079900741577
0.08644223213195801 -0.2522246241569519 1.0514615774154663
0.08292855322360992 -0.258014440536499 1.0537301301956177
0.08288941532373428 -0.24594905972480774 1.0383366346359253
0.11511804163455963 -0.21524980664253235 1.0267561674118042
0.16091763973236084 -0.16000092029571533 1.0226595401763916
0.1323813796043396 -0.2348683625459671 1.0999197959899902
0.13080815970897675 -0.23058752715587616 1.094847559928894
-0.010633151978254318 -0.4139332175254822 1.0733261108398438
0.11120457202196121 -0.26558783650398254 1.0724035501480103
0.10211604833602905 -0.2720804512500763 1.0713402032852173
0.10982991009950638 -0.2458505630493164 0.9853503704071045
0.06187300756573677 -0.3297974467277527 1.0838274955749512
0.05850398540496826 -0.3370908498764038 1.0890065431594849
0.08032253384590149 -0.2966453433036804 1.0260210037231445
0.022379279136657715 -0.39183980226516724 1.0731933116912842
0.08247800916433334 -0.2508412003517151 1.0112614631652832
-0.02084396407008171 -0.4125273823738098 1.0786516666412354
0.14681677520275116 -0.19655504822731018 1.0448132753372192
0.22554834187030792 -0.10350513458251953 1.0262477397918701
0.22770264744758606 -0.11515772342681885 1.0627071857452393
0.20267407596111298 -0.13760006427764893 1.0482046604156494
0.19764858484268188 -0.1455473005771637 1.0412639379501343
0.18891091644763947 -0.15559107065200806 1.0362398624420166
-0.07580704241991043 -0.5112115144729614 1.1451228857040405
-0.08777930587530136 -0.5268906354904175 1.1564921140670776
0.2061900496482849 -0.14106252789497375 1.046539545059204
-0.08569272607564926 -0.5216634273529053 1.1264050006866455
-0.07900633662939072 -0.5196213722229004 1.1440508365631104
0.10522077977657318 -0.2691780924797058 1.079012393951416
0.058538857847452164 -0.31041404604911804 1.0162105560302734
0.062202878296375275 -0.299106240272522 1.0027273893356323
-0.04374336823821068 -0.4785863161087036 1.1115061044692993
