0.255925714969635 0.02470678836107254 1.3733783960342407
0.22265999019145966 -0.007075762376189232 1.2931997776031494
0.2322903424501419 0.025986913591623306 1.3040492534637451
0.29931026697158813 0.017912469804286957 1.2536332607269287
0.31310445070266724 -0.009101742878556252 1.2517973184585571
0.32083001732826233 0.020504038780927658 1.1579577922821045
0.33935731649398804 0.015075123868882656 1.1321673393249512
0.31860482692718506 0.007545206230133772 1.1614991426467896
0.33797383308410645 0.004077766090631485 1.141274094581604
0.3716513216495514 0.017965231090784073 1.1484365463256836
0.3008384704589844 0.023432835936546326 1.5440455675125122
0.3063289523124695 -0.009810730814933777 1.5034695863723755
0.4144054055213928 0.013581505045294762 1.129678726196289
0.39817070960998535 -0.010186590254306793 1.1409913301467896
0.36592787504196167 0.006638970226049423 1.1513524055480957
0.4094463586807251 0.007289044559001923 1.1281391382217407
0.44906795024871826 0.0017677540890872478 1.0929778814315796
0.34223681688308716 -0.009469881653785706 1.408108115196228
0.4687339961528778 0.006759308278560638 1.2329280376434326
0.41852253675460815 -0.0237321387976408 1.1647992134094238
0.41850215196609497 -0.0004970484878867865 1.1811015605926514
0.43624386191368103 0.017509879544377327 1.3729795217514038
0.4542783498764038 -0.018585531041026115 1.2215291261672974
0.5058194398880005 0.0014851521700620651 1.1488548517227173
0.484573096036911 0.011092668399214745 1.196076512336731
0.4916131794452667 -0.009807216003537178 1.1696866750717163
0.4909127950668335 -0.03844147548079491 1.1945048570632935
0.4511781930923462 0.0063546039164066315 1.4270879030227661
0.48360466957092285 0.003619549795985222 1.3075785636901855
0.46557313203811646 -0.026994291692972183 1.3272334337234497
0.4381714463233948 -0.02244989573955536 1.5653656721115112
0.5264173150062561 -0.014702805317938328 1.191275715827942
0.46378010511398315 0.010767977684736252 1.5397324562072754
0.48684531450271606 0.003695099614560604 1.481825351715088
0.48999613523483276 -0.025687474757432938 1.5331186056137085
0.6278699040412903 -0.05427395924925804 1.0012972354888916
0.5294912457466125 -0.03730358928442001 1.460946798324585
0.5662568807601929 -0.035009145736694336 1.4237685203552246
0.5550233125686646 -0.003350025974214077 1.3647775650024414
0.5723068714141846 -0.05017048865556717 1.2747796773910522
0.5791478753089905 -0.013251678086817265 1.2686445713043213
0.5761035084724426 -0.002442500554025173 1.3849745988845825
0.597214937210083 -0.011332014575600624 1.3227779865264893
0.6290825605392456 -0.031503427773714066 1.2577229738235474
0.6067464351654053 -0.0012246076948940754 1.4132055044174194
0.6212306618690491 -0.026140235364437103 1.3848180770874023
0.6965088844299316 -0.16715572774410248 0.8593342304229736
0.7328553795814514 -0.1735142171382904 0.7201222777366638
0.7726781964302063 -0.1127011850476265 0.7057846784591675
0.7334443926811218 -0.1289324164390564 0.7427598834037781
0.6972962617874146 -0.08624562621116638 1.0674121379852295
0.7029634714126587 -0.088402658700943 1.0242434740066528
0.6747204065322876 -0.021146446466445923 1.2580103874206543
0.7923563718795776 -0.057843178510665894 0.7484609484672546
0.7665293216705322 -0.060338497161865234 0.822627067565918
0.7856506705284119 -0.07728320360183716 1.022180438041687
0.8179080486297607 -0.08741719275712967 0.9275717735290527
0.7686798572540283 -0.09569347649812698 0.9295380711555481
0.8053081631660461 -0.12156732380390167 0.9410967826843262
-0.5797078609466553 0.05716749653220177 0.7649966478347778
-0.5780755281448364 0.03977068513631821 0.7763316631317139
-0.6333853006362915 0.14463599026203156 1.1340199708938599
-0.6278300285339355 0.16309839487075806 1.13664710521698
-0.6121768951416016 0.14249670505523682 1.08804190158844
-0.5724083185195923 0.10768000781536102 0.9835987091064453
-0.5512998104095459 0.10330066084861755 1.0350916385650635
-0.572269856929779 0.06912998110055923 0.9431989192962646
-0.5317713618278503 0.0854862630367279 0.9543881416320801
-0.5619461536407471 0.07652882486581802 1.0862098932266235
-0.5957679748535156 0.11216765642166138 1.2516252994537354
-0.5840885639190674 0.11790692806243896 1.2159157991409302
-0.4239991307258606 0.054987501353025436 0.7584325671195984
-0.4791594445705414 0.06955894827842712 0.71306312084198
-0.42852628231048584 0.051778361201286316 0.6431812047958374
-0.5586761236190796 0.1316591203212738 1.249516248703003
-0.5973036885261536 0.11774890124797821 1.2968165874481201
-0.48050618171691895 0.011380881071090698 0.8387842774391174
-0.46666425466537476 -0.005452413111925125 0.815543532371521
-0.4362390637397766 -0.01694013923406601 0.6615046262741089
-0.41944822669029236 -0.03481720760464668 0.607922375202179
-0.47861248254776 0.08198602497577667 0.9499921798706055
-0.6090579032897949 0.12987054884433746 1.402103304862976
-0.4925500750541687 0.08308593928813934 0.9939844608306885
-0.45940232276916504 0.08183605968952179 0.9265989661216736
-0.509545624256134 0.050342023372650146 1.0255262851715088
-0.5079509019851685 0.04100748896598816 1.0046741962432861
-0.4620024263858795 0.08436349779367447 1.0064775943756104
-0.5141356587409973 0.06779654324054718 1.1138811111450195
-0.44062942266464233 0.058368783444166183 0.8782452344894409
-0.4172897934913635 0.04783788323402405 0.8182958364486694
-0.5267258882522583 0.11579471826553345 1.1841634511947632
-0.4813205599784851 0.09644711017608643 1.1248369216918945
-0.48318004608154297 0.06619925796985626 1.0934813022613525
-0.5520861744880676 0.10891838371753693 1.4612672328948975
-0.5418780446052551 0.08188872784376144 1.269235610961914
-0.4633117914199829 0.07084859907627106 1.1704621315002441
-0.5282806754112244 0.09078249335289001 1.5263926982879639
-0.47205567359924316 0.1164766326546669 1.4177327156066895
-0.4911777079105377 0.08088529109954834 1.302978515625
-0.40655380487442017 0.09109537303447723 1.1038269996643066
-0.4272937476634979 0.06348715722560883 1.117601990699768
-0.46743297576904297 0.11779855191707611 1.305667757987976
-0.4382328689098358 0.10744339227676392 1.2374861240386963
-0.3998919725418091 0.10981041193008423 1.482423186302185
-0.40563541650772095 0.07922656089067459 1.2973277568817139
-0.3609544634819031 0.06755375862121582 1.2111423015594482
-0.3415365219116211 0.09362343698740005 1.2077012062072754
-0.3399353623390198 0.08697149157524109 1.1436492204666138
-0.3126828074455261 0.06500700116157532 1.2479300498962402
-0.3077665865421295 0.0969296395778656 1.148130178451538
-0.38030099868774414 0.11041262745857239 1.3933864831924438
-0.332990437746048 0.07414180040359497 1.3560516834259033
-0.2582765817642212 0.08163615316152573 1.1400928497314453
-0.23398198187351227 0.0778995230793953 1.1663929224014282
-0.22886259853839874 0.07619546353816986 1.4553989171981812
-0.23439878225326538 0.052432943135499954 1.2900631427764893
0.2869347929954529 -0.0034278607927262783 1.1709952354431152
0.2007615864276886 0.020140793174505234 1.459761619567871
0.34469300508499146 0.025624627247452736 1.2166962623596191
0.34404462575912476 -0.0031717438250780106 1.2089998722076416
0.34354695677757263 0.024454765021800995 1.1453118324279785
0.38048553466796875 0.016730230301618576 1.334636926651001
0.39594534039497375 -0.019459379836916924 1.256442904472351
0.45711877942085266 0.00815820973366499 1.1003899574279785
0.4121125638484955 0.01609862968325615 1.4967851638793945
0.4859670400619507 -0.032685160636901855 1.2238868474960327
0.5186943411827087 -0.005283685401082039 1.4441050291061401
0.6500497460365295 -0.059542007744312286 0.9120141267776489
0.6712327599525452 -0.05652956664562225 0.8961933255195618
0.6880353093147278 -0.06225171685218811 0.7832044959068298
0.6999713182449341 -0.06371554732322693 0.702364444732666
0.6924605965614319 -0.08112002164125443 0.7175058126449585
0.6220179200172424 -0.02919905073940754 1.1923508644104004
0.7022485136985779 -0.04657925292849541 0.7830908298492432
0.716009795665741 -0.05104648321866989 0.7104687690734863
0.6497190594673157 -0.11305420845746994 0.9762368202209473
0.6434340476989746 -0.1248837411403656 1.0208561420440674
0.6362347602844238 -0.14049257338047028 0.9939489960670471
0.6677407026290894 -0.1213693916797638 0.9238532185554504
0.7297320365905762 -0.04654121398925781 0.8115243315696716
0.7455702424049377 -0.05558677390217781 0.7267699241638184
0.697241485118866 -0.06377658247947693 0.9836560487747192
0.6676968932151794 -0.11195111274719238 0.9682788848876953
0.7054351568222046 -0.12616373598575592 0.9132533669471741
0.6681005358695984 -0.13270871341228485 0.9786245226860046
0.693564236164093 -0.15843285620212555 0.9087522029876709
0.6640939712524414 -0.10059139877557755 1.042811632156372
0.7139018177986145 -0.10665614157915115 0.9905855059623718
0.749765932559967 -0.129166841506958 0.7569667100906372
0.7442789673805237 -0.16101323068141937 0.6939010620117188
0.7757107019424438 -0.08771514892578125 0.6996234655380249
0.700958788394928 -0.05850357189774513 1.064782738685608
0.7388875484466553 -0.0782170444726944 0.85004723072052
0.7380840182304382 -0.15437911450862885 0.8235388994216919
0.7547363638877869 -0.13939806818962097 0.8121302127838135
0.782673180103302 -0.12275294959545135 0.7293785214424133
0.7656620144844055 -0.07298094779253006 0.9991123676300049
0.7869955897331238 -0.06818251311779022 0.9729073643684387
0.8086645603179932 -0.10781864821910858 0.7967673540115356
0.7998145222663879 -0.1087736189365387 0.8157767057418823
0.6907535195350647 -0.04631122946739197 1.1677815914154053
0.784329891204834 -0.030476629734039307 1.1211944818496704
0.7492640018463135 -0.05102536827325821 1.1201212406158447
0.7193452715873718 -0.01998741179704666 1.3118658065795898
0.7235404253005981 -0.02865581400692463 1.266282558441162
0.7210887670516968 -0.023934707045555115 1.260504126548767
0.7258967161178589 -0.0439831018447876 1.2431702613830566
0.7634894847869873 -0.034092821180820465 1.1804805994033813
0.7542401552200317 -0.04511157050728798 1.2010526657104492
-0.6072601675987244 0.11578004062175751 0.9365366697311401
-0.6087706089019775 0.0931694433093071 0.9479490518569946
-0.6003918647766113 0.07313686609268188 0.9174500703811646
-0.43920639157295227 0.004763592034578323 0.6312468647956848
-0.44454216957092285 -0.037709347903728485 0.591047465801239
-0.4691948890686035 0.0034574605524539948 0.8173243403434753
-0.48218265175819397 -0.007492613047361374 0.7655724287033081
-0.4840426445007324 -0.04029915854334831 0.8004366755485535
-0.48114460706710815 -0.03293760120868683 0.6954165697097778
-0.4455568194389343 -0.010253533720970154 0.7063776254653931
-0.4381251037120819 -0.04604087024927139 0.6685875058174133
-0.5000549554824829 0.02279636263847351 0.9520846605300903
-0.48402512073516846 -0.004173357039690018 0.9063165187835693
-0.49985289573669434 0.017564114183187485 0.9093396663665771
-0.45452240109443665 -0.04022693634033203 0.7399938702583313
-0.4472590684890747 -0.012428976595401764 0.741091787815094
-0.47201040387153625 -0.02705264836549759 0.835281491279602
-0.46019455790519714 -0.006033703684806824 0.7882652282714844
-0.5078592300415039 0.10230866074562073 1.0942250490188599
-0.43560510873794556 0.07862208783626556 0.9414113163948059
-0.4015962481498718 0.06181115657091141 0.9727575778961182
-0.39400291442871094 0.08300575613975525 0.9741700887680054
-0.4575819969177246 0.05866854265332222 1.1202478408813477
-0.40465930104255676 0.07455174624919891 1.0582424402236938
-0.3947753310203552 0.08551409840583801 1.0064245462417603
-0.39248234033584595 0.06719623506069183 0.9954146146774292
-0.3838144540786743 0.07465790957212448 1.3595203161239624
-0.36360466480255127 0.09502573311328888 1.0868480205535889
-0.34092485904693604 0.06024373322725296 1.1276233196258545
-0.3269767761230469 0.09447275847196579 1.085767149925232
-0.26233744621276855 0.06959330290555954 1.1302175521850586
-0.2845431864261627 0.08663702756166458 1.0996065139770508
-0.21814098954200745 0.0680672824382782 1.1945644617080688
0.5377850532531738 -0.009909623302519321 1.1038163900375366
0.4857470691204071 -0.008838089182972908 1.6151601076126099
0.6184690594673157 -0.030563917011022568 1.0765080451965332
0.5658326745033264 -0.007401573937386274 1.0507146120071411
0.5896077752113342 -0.0451345220208168 1.0506657361984253
0.6016221642494202 -0.025682717561721802 1.0406616926193237
0.561620831489563 -0.015299591235816479 1.2512521743774414
0.607287585735321 -0.07849069684743881 1.081723928451538
0.6310456395149231 -0.08975835144519806 1.0268285274505615
0.6181420683860779 -0.1132509708404541 1.0475082397460938
0.6229805946350098 -0.1154569685459137 1.0169774293899536
0.6433679461479187 -0.10083359479904175 0.9629921317100525
0.6971967220306396 -0.10276924818754196 0.7600038051605225
0.7144303321838379 -0.10119447112083435 0.7100363373756409
0.7391846179962158 -0.0906740203499794 0.7009395360946655
0.6534907221794128 -0.05908237770199776 1.0595511198043823
0.6709447503089905 -0.05975886434316635 1.0192925930023193
0.6641079783439636 -0.11979665607213974 0.9995821118354797
0.6619604825973511 -0.12042142450809479 0.9574636816978455
0.6575882434844971 -0.15567690134048462 0.9283139109611511
0.5877629518508911 -0.04334796965122223 1.3687138557434082
0.7247877717018127 -0.0818769708275795 0.9948652982711792
0.7571160793304443 -0.08371607214212418 0.9503600597381592
0.7035553455352783 -0.08045276999473572 1.1236746311187744
0.8123692870140076 -0.13834169507026672 0.7814652323722839
0.8055033087730408 -0.09574750065803528 0.7428889870643616
0.7554468512535095 -0.0986228957772255 0.9811558723449707
0.7645300626754761 -0.11276430636644363 0.9300482273101807
0.8170753717422485 -0.060729652643203735 1.1173052787780762
0.7809632420539856 -0.09620659053325653 1.0779691934585571
0.8010528087615967 -0.0734667107462883 1.0696601867675781
0.8322558403015137 -0.10837061703205109 0.9388880729675293
0.8211243748664856 -0.08411519229412079 0.9430204629898071
-0.6184597611427307 0.1315479874610901 1.0933177471160889
-0.46945130825042725 0.021272901445627213 0.5786182284355164
-0.5204861760139465 0.027639079838991165 0.8955007195472717
-0.5058420300483704 0.00695076584815979 0.8663437366485596
-0.5371048450469971 0.05534876510500908 0.9400719404220581
-0.5695977807044983 0.11310429126024246 1.3908987045288086
-0.5128409266471863 0.08934681862592697 0.9711775779724121
-0.4989401400089264 0.0709722638130188 0.9375118017196655
-0.4070560932159424 0.005715426057577133 0.6069447994232178
-0.38582563400268555 0.03490891307592392 0.6085242629051208
-0.46941423416137695 0.020139634609222412 0.9060629606246948
-0.4654342532157898 0.002238929271697998 0.85882169008255
-0.4665745496749878 0.001811981201171875 0.9001920223236084
-0.5527925491333008 0.09532344341278076 1.3435664176940918
-0.5239660739898682 0.11706431955099106 1.2307723760604858
-0.27535778284072876 0.0955461859703064 1.2076771259307861
0.17449697852134705 0.02060171402990818 1.2616705894470215
0.16383734345436096 0.0009760428220033646 1.2704495191574097
0.2900683283805847 -0.008384686894714832 1.2159918546676636
0.2921489179134369 0.01336007658392191 1.140328049659729
0.3663364052772522 0.01124925259500742 1.2652549743652344
0.4452435374259949 -0.0013789543882012367 1.1482141017913818
0.44242042303085327 -0.01615642011165619 1.1319351196289062
0.5095037221908569 -0.029486162588000298 1.297579288482666
0.5291132926940918 -0.045493192970752716 1.3806027173995972
0.5668340921401978 -0.044649943709373474 1.1964985132217407
0.6530061364173889 -0.1425042599439621 0.9291487336158752
0.6827705502510071 -0.12257584929466248 0.8804749846458435
0.6870672702789307 -0.15963374078273773 0.8405342698097229
0.701531708240509 -0.1309688240289688 0.7841748595237732
0.6607415080070496 -0.07794281840324402 1.1243743896484375
0.7543493509292603 -0.1686953753232956 0.7185280323028564
-0.5909110903739929 0.08051077276468277 0.9379575848579407
-0.4112245440483093 0.03213505074381828 0.7602178454399109
-0.39774879813194275 0.02640620619058609 0.7015277147293091
-0.5680418014526367 0.11440330743789673 1.4976052045822144
-0.3546512722969055 0.08591655641794205 1.0729870796203613
-0.34295549988746643 0.08612853288650513 1.0419446229934692
-0.3234545588493347 0.07388047873973846 1.0761120319366455
-0.26174455881118774 0.08143806457519531 1.1094715595245361
-0.16862116754055023 0.0525667667388916 1.268441915512085
-0.17699328064918518 0.03575534373521805 1.272121787071228
0.43486642837524414 -0.02154289186000824 1.4257252216339111
0.45993804931640625 -0.02758697420358658 1.482869029045105
0.6508524417877197 -0.04758711904287338 1.0883069038391113
0.6479759812355042 -0.04119483754038811 1.0113816261291504
0.5994771122932434 -0.06430326402187347 1.196932077407837
0.6606524586677551 -0.10191384702920914 0.902738094329834
0.6717093586921692 -0.06878392398357391 1.172312617301941
0.6519299745559692 -0.052621711045503616 1.2571135759353638
0.7524327039718628 -0.07735837250947952 1.0980134010314941
0.7550532817840576 -0.0915122777223587 1.0328327417373657
0.7884411215782166 -0.12359928339719772 0.8697495460510254
0.7531672120094299 -0.14235694706439972 0.7754527926445007
0.8052977323532104 -0.10519100725650787 0.8600609302520752
-0.46094781160354614 -0.0034417472779750824 0.6055071949958801
-0.41605210304260254 0.025691010057926178 0.5971755981445312
-0.4775359034538269 -0.0046723149716854095 0.812204897403717
-0.44356516003608704 -0.010445807129144669 0.6608623266220093
-0.40241122245788574 -0.007704578340053558 0.6482350826263428
-0.45185619592666626 0.054601553827524185 0.9627980589866638
-0.2962211072444916 0.06625080108642578 1.218389868736267
-0.29302576184272766 0.0673900693655014 1.160844087600708
-0.2987150251865387 0.08242788910865784 1.1352722644805908
-0.2533470690250397 0.0576123371720314 1.209420084953308
-0.24086442589759827 0.05202091485261917 1.1417306661605835
-0.23795974254608154 0.0656585693359375 1.1290178298950195
0.2958330512046814 0.0256987102329731 1.148307204246521
0.5836213231086731 -0.06210601329803467 1.1179664134979248
0.6230643391609192 -0.0868276059627533 1.1241168975830078
0.6387044787406921 -0.09786515682935715 1.0782111883163452
0.7566286325454712 -0.1253110021352768 0.9134730100631714
-0.5117875337600708 0.03276406601071358 0.6758264303207397
-0.508184552192688 0.004457496106624603 0.644690990447998
-0.5034247636795044 0.017862681299448013 0.6417935490608215
-0.4992793798446655 0.07084091007709503 0.8630512952804565
-0.45290619134902954 0.011394042521715164 0.8267681002616882
-0.45529425144195557 0.007963206619024277 0.8758127689361572
-0.20791742205619812 0.05214792490005493 1.2301816940307617
-0.1505727767944336 0.03419041633605957 1.3487173318862915
-0.13729597628116608 0.042980119585990906 1.3384912014007568
0.1654605120420456 -0.008731575682759285 1.2839361429214478
0.2384459376335144 0.005255606025457382 1.6817036867141724
0.41684263944625854 0.019409801810979843 1.631322979927063
0.44448328018188477 0.001970067620277405 1.6515387296676636
0.5024086833000183 -0.004849545657634735 1.5841745138168335
0.6742210388183594 -0.020509589463472366 1.3353919982910156
0.7005349397659302 -0.02471815049648285 1.3730334043502808
0.7019017934799194 -0.0031737685203552246 1.3075464963912964
0.7104880213737488 -0.026951193809509277 1.2938892841339111
0.7301632761955261 -0.009835212491452694 1.3070077896118164
-0.6215081214904785 0.12396489083766937 1.0311791896820068
-0.6160646080970764 0.13637234270572662 1.0068073272705078
-0.6314100623130798 0.15502047538757324 1.264451265335083
-0.6093417406082153 0.15342652797698975 1.255211591720581
-0.45578277111053467 0.05240107327699661 0.624193012714386
-0.44565826654434204 0.04075830057263374 0.5788273215293884
-0.46995022892951965 -0.01060350239276886 0.6997488141059875
-0.4804500937461853 0.06299655139446259 0.8121224045753479
-0.5096234083175659 0.09822233021259308 1.0219014883041382
-0.5506300330162048 0.11274093389511108 1.547227382659912
0.29157140851020813 0.02209385298192501 1.2112149000167847
0.3182241916656494 0.022919785231351852 1.4466638565063477
0.4732307493686676 -0.007161296904087067 1.166864275932312
0.4450087249279022 0.013369820080697536 1.2927463054656982
0.5270542502403259 -0.019075125455856323 1.1040613651275635
0.5521467924118042 -0.026040878146886826 1.0572415590286255
0.5370450019836426 -0.050925612449645996 1.1397539377212524
0.6664161682128906 -0.07191789150238037 0.8604674935340881
0.6792652606964111 -0.09137069433927536 0.8480995893478394
0.6915634274482727 -0.13483268022537231 0.9229077696800232
0.7321794033050537 -0.06021123379468918 1.094717264175415
0.7814611196517944 -0.07167842984199524 0.8749260306358337
-0.47903168201446533 0.012083597481250763 0.6136890053749084
-0.4410063624382019 0.015377305448055267 0.5699123740196228
-0.3341678977012634 0.09463898837566376 1.0440828800201416
-0.27357017993927 0.09367497265338898 1.1300652027130127
-0.22923022508621216 0.05923495441675186 1.181133508682251
0.7485909461975098 -0.07582034170627594 0.9051627516746521
0.7943739295005798 -0.10874703526496887 0.6739547252655029
0.8064433932304382 -0.11237073689699173 0.6913622617721558
-0.49169713258743286 0.0016213096678256989 0.8470967411994934
-0.43008655309677124 0.022450879216194153 0.7791230082511902
-0.4251852035522461 0.002843078225851059 0.7334855794906616
0.5454158186912537 -0.016619626432657242 1.5029100179672241
0.8087447285652161 -0.0900220200419426 0.6828030943870544
0.800499677658081 -0.09561434388160706 0.9986441135406494
-0.28432410955429077 0.09281478077173233 1.2849600315093994
0.7633097767829895 -0.0677446499466896 1.0898802280426025
-0.4340347647666931 0.03866557404398918 0.8506929874420166
0.7171934247016907 -0.15578855574131012 0.7316628694534302
0.7580609917640686 -0.07655379921197891 1.0732330083847046
-0.4934383034706116 -0.016449928283691406 0.808761715888977
-0.36269325017929077 -0.1297532618045807 0.9360334277153015
-0.3671233654022217 -0.12538133561611176 0.9495605230331421
-0.35353195667266846 -0.1506681591272354 0.9470872282981873
-0.35727646946907043 -0.1501772403717041 0.9584357738494873
-0.3388002812862396 -0.10365830361843109 1.0105818510055542
-0.3419044315814972 -0.11751720309257507 0.9892880320549011
-0.3319012522697449 -0.09618060290813446 0.9619613885879517
-0.3278847932815552 -0.07625903934240341 0.9984334707260132
-0.330788791179657 -0.1331988126039505 0.9991726279258728
-0.33577293157577515 -0.16597570478916168 0.9869112372398376
-0.31771767139434814 -0.06899478286504745 1.0816389322280884
-0.3125309348106384 -0.16190242767333984 0.9897201061248779
-0.3273935317993164 -0.12325849384069443 0.9863680005073547
-0.31187739968299866 -0.1464003622531891 1.0324724912643433
-0.3120166063308716 -0.11840631067752838 1.0198805332183838
-0.3034348785877228 -0.051486093550920486 1.0524863004684448
-0.3033076524734497 -0.10761050134897232 1.0227566957473755
-0.30936312675476074 -0.12079115211963654 1.0453122854232788
-0.3166607618331909 -0.09880424290895462 1.0751646757125854
-0.33274462819099426 -0.052141085267066956 1.1126710176467896
-0.3240536153316498 -0.10852344334125519 1.1070948839187622
-0.2944432497024536 -0.005188358016312122 1.1462335586547852
-0.3019344210624695 -0.0049543678760528564 1.0985125303268433
-0.3251640498638153 -0.05935543775558472 1.1468124389648438
-0.2639319896697998 -0.0055737923830747604 1.092002034187317
-0.27554142475128174 -0.05069020390510559 1.208765983581543
-0.2903502881526947 -0.11040143668651581 1.159824013710022
-0.26613277196884155 0.010946116410195827 1.135664463043213
-0.22961996495723724 0.0016299933195114136 1.1530723571777344
-0.24065051972866058 0.00336422398686409 1.2105813026428223
-0.21433714032173157 0.0035759657621383667 1.215318202972412
-0.21430017054080963 -0.06243698671460152 1.287277340888977
-0.25219765305519104 -0.08586952090263367 1.215100884437561
-0.20896337926387787 0.005563847720623016 1.2618792057037354
-0.23551012575626373 -0.02616121992468834 1.2657833099365234
-0.19871218502521515 0.001381516456604004 1.3020784854888916
-0.18587888777256012 -0.0061982162296772 1.339848279953003
-0.1772637963294983 -0.05636654421687126 1.3491981029510498
-0.19995424151420593 -0.09910856932401657 1.243464469909668
-0.18853478133678436 0.047480806708335876 1.7577399015426636
-0.14691594243049622 0.10261592268943787 1.4156579971313477
-0.13498002290725708 0.06588282436132431 0.8693892955780029
-0.1808023750782013 0.016715578734874725 0.8721395134925842
-0.15621337294578552 -0.07524482905864716 0.8802914619445801
-0.19883014261722565 -0.10519501566886902 0.8695439100265503
-0.17405401170253754 0.05558471754193306 1.6600507497787476
-0.19213756918907166 0.02798519656062126 1.7806003093719482
-0.1625465750694275 0.039128027856349945 1.7266181707382202
-0.14478586614131927 0.07038024812936783 1.6736385822296143
-0.15631255507469177 0.05353761836886406 1.6257754564285278
-0.11779463291168213 0.0008870288729667664 1.0482257604599
-0.15544262528419495 -0.0529155507683754 1.0100317001342773
-0.1597098559141159 -0.12259186804294586 0.9992340207099915
-0.14829429984092712 0.0312902107834816 1.5535104274749756
-0.24636013805866241 -0.10371574759483337 0.0540170893073082
-0.25814974308013916 -0.16932028532028198 0.026297269389033318
-0.25721877813339233 -0.19461461901664734 0.04456520453095436
-0.14509901404380798 -0.04183429852128029 1.4009850025177002
-0.13876961171627045 0.003523353487253189 1.3487837314605713
-0.12958382070064545 -0.0213119275867939 1.3296864032745361
-0.15353643894195557 -0.054465118795633316 1.387408971786499
-0.1347506046295166 -0.095060795545578 1.345009684562683
-0.2019985169172287 -0.06429463624954224 0.47770553827285767
-0.20024867355823517 -0.09405618906021118 0.39619290828704834
-0.2093360424041748 -0.0473446249961853 0.32834404706954956
-0.21285106241703033 -0.06945823132991791 0.36197561025619507
-0.15825200080871582 0.04757579788565636 1.6956443786621094
-0.13102582097053528 -0.062250930815935135 1.2977207899093628
-0.13292868435382843 -0.06980691105127335 1.2537786960601807
-0.1334124207496643 -0.10198478400707245 1.2829267978668213
-0.15850839018821716 -0.11876711994409561 1.2822861671447754
-0.2026241272687912 -0.03672657907009125 0.26068079471588135
-0.14458636939525604 -0.0392562597990036 1.551702857017517
-0.14057981967926025 0.03575907275080681 1.553882122039795
-0.1442059874534607 0.006597429513931274 1.548819899559021
-0.17169828712940216 -0.09434515237808228 0.5770425200462341
-0.10391157865524292 0.03411506116390228 1.7933226823806763
-0.11884079873561859 -0.11785271763801575 1.2219411134719849
-0.1139790415763855 -0.03765426576137543 1.170945644378662
-0.12669849395751953 -0.1327342540025711 0.7549112439155579
-0.1144925132393837 0.08697214722633362 1.7351003885269165
-0.1219538003206253 -0.07667052745819092 1.4158709049224854
-0.10346080362796783 -0.11770445108413696 0.8554270267486572
-0.1421579271554947 -0.13155144453048706 0.8778085112571716
-0.12458774447441101 -0.20360621809959412 0.9202085733413696
-0.10792215168476105 -0.21835818886756897 0.85561203956604
-0.23123052716255188 -0.22728540003299713 0.07164007425308228
-0.07251789420843124 0.11408588290214539 1.7336901426315308
-0.09779292345046997 0.045448869466781616 1.7794348001480103
-0.14761850237846375 -0.01652422547340393 1.4582748413085938
-0.12544143199920654 -0.043390557169914246 1.51048743724823
-0.16885387897491455 -0.021067820489406586 0.32793155312538147
-0.1955767422914505 -0.04446019232273102 0.21410293877124786
-0.22312304377555847 -0.2205013483762741 0.11128374189138412
-0.1995917558670044 -0.03241366520524025 0.06044629216194153
-0.10532325506210327 -0.01829751953482628 1.3316444158554077
-0.15131531655788422 -0.12281399965286255 0.551464855670929
-0.1863643378019333 -0.18981565535068512 0.012772392481565475
-0.2288372963666916 -0.1952197402715683 0.004082823172211647
-0.10151280462741852 0.03341296687722206 1.5707488059997559
-0.09949281066656113 -0.0006774291396141052 1.5269558429718018
-0.029558805748820305 -0.21983841061592102 0.9137408137321472
-0.08468740433454514 0.08879711478948593 0.8664638996124268
-0.19613569974899292 -0.149827241897583 0.27049052715301514
-0.17035722732543945 -0.14518506824970245 0.19325102865695953
-0.1797788143157959 -0.04194755107164383 0.108952097594738
-0.09011855721473694 -0.012750312685966492 1.2991737127304077
-0.09809030592441559 -0.03132183104753494 1.2565306425094604
-0.06432171911001205 -0.13693572580814362 1.3277599811553955
-0.12785592675209045 -0.047066736966371536 0.6682035326957703
-0.10751885175704956 -0.13566048443317413 0.7443144917488098
-0.07110732793807983 -0.11770718544721603 0.8169915676116943
-0.16212287545204163 -0.14978568255901337 0.1609691083431244
-0.17758242785930634 -0.21617990732192993 0.08283688127994537
-0.11617666482925415 -0.09457632899284363 1.5052984952926636
-0.08829247206449509 -0.005178146064281464 1.368284821510315
-0.059660911560058594 -0.0074998438358306885 1.3013901710510254
-0.12077731639146805 -0.1259947419166565 0.5746806263923645
-0.09538522362709045 -0.10546085983514786 0.576683759689331
-0.1378588080406189 -0.012729174457490444 0.5119274854660034
-0.08555382490158081 -0.08356040716171265 1.474669337272644
-0.06468510627746582 -0.03639817610383034 1.4512567520141602
-0.09616634994745255 0.004331775009632111 1.4103522300720215
-0.10591647028923035 -0.047751057893037796 0.5193520784378052
-0.05546711012721062 0.0650678500533104 1.7800047397613525
-0.10486579686403275 -0.13277292251586914 1.6466734409332275
-0.029961397871375084 -0.1896408498287201 1.0006448030471802
-0.06529444456100464 -0.048492949455976486 1.467071533203125
-0.0437941700220108 -0.07756747305393219 1.4515782594680786
-0.06416858732700348 -0.06202734634280205 1.4445441961288452
-0.04969007521867752 -0.12744632363319397 1.5751292705535889
-0.093067467212677 -0.12819769978523254 1.5192334651947021
-0.04247686266899109 -0.0165450107306242 1.4774832725524902
-0.08579965680837631 -0.06617137789726257 0.6423993110656738
-0.005850415676832199 0.01979868859052658 1.805689811706543
-0.03205783665180206 0.12473712116479874 1.702113389968872
-0.036384712904691696 -0.14573343098163605 1.5270274877548218
-0.0524405837059021 -0.1278226375579834 1.4767593145370483
-0.026546252891421318 -0.022779876366257668 1.4517518281936646
-0.025651849806308746 -0.12507903575897217 1.4751797914505005
0.004738811403512955 0.00033180415630340576 1.4259499311447144
-0.02131831832230091 -0.016239620745182037 1.2962441444396973
-0.004260554909706116 0.0760396420955658 1.77705717086792
-0.0007253475487232208 -0.02785942703485489 1.4836665391921997
-0.005166057497262955 -0.07421452552080154 1.4683516025543213
0.02298390492796898 0.09705717861652374 1.7320882081985474
0.009855851531028748 0.032334208488464355 1.7846434116363525
-0.0013837981969118118 -0.0667329728603363 1.449655294418335
0.031162932515144348 -0.09273660182952881 1.4953486919403076
0.003769196569919586 -0.04326653853058815 1.459230899810791
0.06629244238138199 -0.08497723191976547 0.5968379974365234
0.028718650341033936 0.007511500269174576 1.5102317333221436
0.09854123741388321 -0.09972308576107025 0.5147976875305176
0.018033703789114952 -0.174208402633667 1.2802196741104126
0.06095137447118759 -0.03951863944530487 1.2755935192108154
0.0617385134100914 -0.0631050318479538 1.1578176021575928
0.13089188933372498 -0.07473070919513702 0.094583660364151
0.1531512290239334 -0.06739311665296555 0.0798664465546608
0.12285710871219635 0.047485627233982086 0.09791889786720276
0.03375791385769844 -0.15380510687828064 1.266423225402832
0.021327916532754898 -0.1903013288974762 1.1904594898223877
0.06684954464435577 -0.13951346278190613 0.7385866045951843
0.11596883088350296 -0.002776399254798889 0.0670766606926918
0.06228144094347954 0.02691098302602768 1.7429397106170654
0.027571970596909523 -0.13275012373924255 1.6543163061141968
0.015228334814310074 -0.1191457062959671 1.5655783414840698
0.02139330841600895 -0.12389323115348816 1.51837956905365
0.09761160612106323 -0.15849226713180542 0.8790764212608337
0.11105447262525558 0.022084593772888184 1.7686645984649658
0.036496616899967194 0.004673484712839127 1.5678470134735107
0.035454943776130676 -0.011389687657356262 1.5382120609283447
0.12207143753767014 0.0021047890186309814 0.34318843483924866
0.1150200217962265 0.0198848694562912 0.28463321924209595
0.13490484654903412 0.05849834531545639 0.08000469207763672
0.05727357417345047 0.009849485009908676 1.8309414386749268
0.07286476343870163 -0.017012622207403183 1.4335640668869019
0.10034667700529099 -0.217469722032547 0.8687478303909302
0.08716363459825516 -0.1304776966571808 0.8666428327560425
0.12870445847511292 -0.19272537529468536 0.866091251373291
0.09336966276168823 -0.04212547838687897 0.7577264308929443
0.17921492457389832 -0.06572030484676361 0.09114706516265869
0.06723091006278992 0.013817109167575836 1.7535649538040161
0.052296124398708344 -0.1561564803123474 1.1582062244415283
0.06201208382844925 -0.14335209131240845 1.2860782146453857
0.0658486932516098 -0.16064172983169556 1.281265377998352
0.13090632855892181 -0.18640926480293274 0.9362580180168152
0.06106900796294212 -0.06871914118528366 1.5854599475860596
0.0651710107922554 0.0075375474989414215 1.5748679637908936
0.06219892203807831 -0.018655508756637573 1.5670363903045654
0.07018720358610153 -0.03438922390341759 1.5612353086471558
0.08446701616048813 -0.04686173051595688 1.5370073318481445
0.1304667443037033 -0.06317112594842911 0.6559523344039917
0.1282878816127777 -0.12910744547843933 0.6741948127746582
0.09326506406068802 -0.06320864707231522 1.406571388244629
0.09491609036922455 -0.005765389651060104 1.350837230682373
0.05676356703042984 -0.00929366797208786 1.3638982772827148
0.06783176213502884 -0.03044024482369423 1.3404011726379395
0.12187053263187408 -0.11829774081707001 0.8353621959686279
0.17902159690856934 0.039169780910015106 0.08315450698137283
0.19609969854354858 0.01153331995010376 0.07465243339538574
0.08342815935611725 0.00377577543258667 1.7069615125656128
0.1004142314195633 -0.03157671168446541 1.4052258729934692
0.184722900390625 -0.04029209911823273 0.3256126344203949
0.10407070815563202 0.02486572042107582 1.6786999702453613
0.07898673415184021 0.051074620336294174 1.680806279182434
0.08929859846830368 0.021001342684030533 1.6470394134521484
0.19619794189929962 -0.0030732154846191406 0.15026181936264038
0.2045440822839737 -0.04173880070447922 0.08752795308828354
0.18395909667015076 -0.07070023566484451 0.11427120119333267
0.15897232294082642 -0.011480058543384075 0.9747028350830078
0.15101265907287598 -0.014098859392106533 0.8747356534004211
0.11146275699138641 -0.002015206962823868 1.7692533731460571
0.16945405304431915 0.04011154919862747 0.8829797506332397
0.1850546896457672 0.0037702172994613647 0.9443910717964172
0.12570634484291077 -0.013914227485656738 1.342331886291504
0.14279703795909882 -0.035289160907268524 1.3243505954742432
0.10441416501998901 -0.0661270022392273 1.3701380491256714
0.13957324624061584 -0.01428946852684021 1.2863458395004272
0.1265961080789566 -0.018920063972473145 1.266421914100647
0.15992030501365662 -0.09983251988887787 1.2346267700195312
0.16684451699256897 -0.05053107813000679 1.281005620956421
0.1819898784160614 -0.010249130427837372 1.2181673049926758
0.20020364224910736 -0.005655243992805481 1.1397302150726318
0.22801801562309265 -0.016681991517543793 1.1574851274490356
0.21525274217128754 -0.04269062727689743 1.2010482549667358
0.20004206895828247 -0.09149619191884995 1.2180410623550415
0.23699615895748138 -0.020891182124614716 1.1030683517456055
0.2651858925819397 -0.0995430201292038 1.1437472105026245
0.273075133562088 -0.06801065057516098 1.1277390718460083
0.26199573278427124 -0.04157398268580437 1.1024469137191772
0.23939108848571777 -0.14198383688926697 1.1211432218551636
0.25322291254997253 -0.10126161575317383 1.0908873081207275
0.25232046842575073 -0.07683169841766357 1.0832011699676514
0.30553898215293884 -0.1335127204656601 0.9659116268157959
0.2386610507965088 -0.12326415628194809 1.0882817506790161
0.2375049591064453 -0.13412053883075714 1.060401439666748
0.27461138367652893 -0.10084407031536102 1.008603572845459
0.2419499307870865 -0.12125375866889954 1.0366274118423462
0.24353903532028198 -0.14889290928840637 1.0359954833984375
0.2667660117149353 -0.13429778814315796 1.002511978149414
0.29091617465019226 -0.13854046165943146 0.9937787055969238
0.24804212152957916 -0.17478442192077637 1.0013556480407715
0.27306225895881653 -0.15339972078800201 0.9917965531349182
0.2605118751525879 -0.16269734501838684 1.0015044212341309
0.299630731344223 -0.13977554440498352 0.9461118578910828
0.27020856738090515 -0.1758631020784378 0.9877650737762451
0.28060442209243774 -0.13092541694641113 0.9627951383590698
0.28766509890556335 -0.16415929794311523 0.9566381573677063
0.3060454726219177 -0.15527227520942688 0.960776686668396
-0.3119201064109802 -0.04320388287305832 1.076849102973938
-0.2971858084201813 -0.10873129218816757 1.065294861793518
-0.2864447832107544 -0.08952454477548599 1.06230628490448
-0.3070453405380249 -0.13271617889404297 1.0995588302612305
-0.24755069613456726 -0.03980416804552078 1.0770643949508667
-0.27552977204322815 -0.12805332243442535 1.0898938179016113
-0.19171084463596344 -0.018953373655676842 1.2392925024032593
-0.18814221024513245 -0.0779552012681961 1.2138044834136963
-0.17663010954856873 -0.10050493478775024 0.9701104164123535
-0.18156829476356506 -0.01820581965148449 0.9440336227416992
-0.13123783469200134 0.050212033092975616 0.9335952401161194
-0.13115376234054565 0.15438619256019592 1.2621197700500488
-0.12530626356601715 0.15289361774921417 1.2014689445495605
-0.1313050091266632 0.17844903469085693 1.1653273105621338
-0.15722286701202393 -0.013027789071202278 0.971489667892456
-0.20472441613674164 0.02143944799900055 1.7502250671386719
-0.14749157428741455 -0.00662766769528389 1.36786687374115
-0.16673874855041504 -0.0037836097180843353 1.2971248626708984
-0.059102170169353485 0.17974689602851868 1.0626598596572876
-0.09248597919940948 0.1863289326429367 0.9790542125701904
-0.2512044310569763 -0.11462367326021194 0.11462907493114471
-0.260053813457489 -0.17423015832901 0.07524431496858597
-0.17618116736412048 0.019976384937763214 1.7297343015670776
-0.16106747090816498 0.025606300681829453 1.6748664379119873
-0.1417192965745926 -0.13934597373008728 1.2597358226776123
-0.1399383842945099 -0.15737290680408478 1.2303684949874878
-0.14382904767990112 -0.17741051316261292 1.2269610166549683
-0.12263338267803192 0.11233731359243393 1.3887525796890259
-0.11431838572025299 0.10354379564523697 1.3811532258987427
-0.12147682905197144 -0.13814717531204224 1.2761578559875488
-0.1434689611196518 -0.061837226152420044 1.2187176942825317
-0.22598379850387573 -0.13427381217479706 0.18438518047332764
-0.22826647758483887 -0.09061410278081894 0.19064414501190186
-0.07576563209295273 0.13393834233283997 1.2559680938720703
-0.15108506381511688 -0.027302367612719536 1.4708082675933838
-0.15150515735149384 -0.021282166242599487 1.4483392238616943
-0.13826380670070648 -0.026392240077257156 1.4293138980865479
-0.1507689207792282 -0.01963973417878151 1.4251545667648315
-0.14956840872764587 -0.04100858420133591 1.4167203903198242
-0.14352178573608398 -0.11279469728469849 0.7948273420333862
-0.15488578379154205 -0.07602887600660324 0.7876787185668945
-0.05984892696142197 0.24162128567695618 1.0681676864624023
-0.06027606129646301 0.23896312713623047 1.1219089031219482
-0.11382628977298737 -0.1305348426103592 1.2754120826721191
-0.13002720475196838 -0.10820925235748291 0.8676841259002686
-0.22500649094581604 -0.048720620572566986 0.11413182318210602
-0.23023445904254913 -0.04995913431048393 0.07286037504673004
-0.14064127206802368 -0.18976618349552155 0.8575974702835083
-0.0809907615184784 0.19625626504421234 1.2352477312088013
-0.14815285801887512 -0.10276429355144501 1.643791675567627
-0.12538757920265198 0.01520826667547226 1.55271315574646
-0.10211443901062012 0.10703273117542267 1.5170810222625732
-0.09976667165756226 0.0666743665933609 1.577005386352539
-0.11803930252790451 0.06444340944290161 1.5499403476715088
-0.10711408406496048 0.0856369212269783 1.4627633094787598
-0.054970528930425644 0.13368824124336243 1.5574593544006348
-0.11290182918310165 -0.02563076838850975 1.5031075477600098
-0.0901331901550293 0.04386376589536667 0.9807005524635315
-0.13157305121421814 0.0245964452624321 1.833420753479004
-0.14651784300804138 0.01632808893918991 1.8291730880737305
-0.14255240559577942 0.0047990307211875916 1.8148255348205566
-0.021421441808342934 0.07522530853748322 1.450486183166504
-0.08892995119094849 0.12595653533935547 1.4311614036560059
-0.16701935231685638 -0.11754921078681946 0.03945807367563248
-0.04374590143561363 0.1679820865392685 1.3705333471298218
-0.10801585018634796 -0.10310830175876617 1.5546389818191528
-0.1494172066450119 -0.09832940250635147 0.39984771609306335
-0.059033650904893875 0.06823250651359558 1.516907811164856
-0.07909923791885376 0.023096956312656403 1.5011487007141113
-0.03772079944610596 0.13742078840732574 1.4753875732421875
-0.035079505294561386 0.05332408472895622 0.8626177310943604
-0.15487492084503174 -0.03587206453084946 0.34752190113067627
-0.01406794786453247 0.20980417728424072 0.971652626991272
-0.033949460834264755 0.039059754461050034 1.0413901805877686
-0.0938967689871788 -0.16190052032470703 1.2719236612319946
-0.09079907834529877 -0.1583966463804245 1.1688296794891357
-0.14297384023666382 -0.06366834044456482 0.32788124680519104
-0.12531527876853943 -0.08138252794742584 0.2668732702732086
-0.155476912856102 -0.0313417986035347 0.2602648138999939
-0.06337963044643402 0.04968256130814552 1.5377670526504517
-0.0743970274925232 -0.11746011674404144 0.6947322487831116
-0.09787531197071075 -0.046579889953136444 0.6614862680435181
-0.0014357492327690125 0.2504337430000305 1.110135555267334
0.0011995872482657433 0.24123704433441162 1.0188658237457275
-0.040525324642658234 -0.18939414620399475 1.195626974105835
-0.14917157590389252 -0.09493238478899002 0.12942878901958466
-0.005422594025731087 0.18878984451293945 1.0176259279251099
-0.009731104597449303 0.16796523332595825 1.0566041469573975
0.007375132292509079 0.05353367328643799 1.52666175365448
-0.07301127910614014 -0.09641359746456146 1.408603310585022
0.01238228939473629 0.18233703076839447 1.3453129529953003
0.0249340683221817 0.06743360310792923 1.439713478088379
-0.00017266348004341125 0.04089927300810814 1.528333067893982
0.052447471767663956 0.18893904983997345 1.0233441591262817
0.06749975681304932 0.1750289499759674 0.9800012111663818
-0.00846395455300808 -0.11412204802036285 1.4039599895477295
0.014528153464198112 0.03947986662387848 1.0392212867736816
-0.015505636110901833 -0.2006983757019043 1.1240475177764893
0.08421690762042999 0.15528705716133118 1.3670992851257324
0.019212117418646812 -0.015382762998342514 1.3127518892288208
0.06331458687782288 0.12315057218074799 1.4811712503433228
0.03069782629609108 0.06882719695568085 1.4845515489578247
0.0345635749399662 -0.026179447770118713 1.2221925258636475
0.04298972338438034 0.09707046300172806 0.9265508651733398
0.010776076465845108 -0.018247421830892563 1.7689197063446045
0.1116998940706253 -0.050288230180740356 0.10434667021036148
0.10649508237838745 -0.054845668375492096 0.0812629982829094
0.10463626682758331 0.0016125589609146118 0.11369992792606354
-0.022200394421815872 -0.14500540494918823 1.6468961238861084
0.060894664376974106 -0.06059936434030533 0.7228261232376099
0.09140804409980774 0.06415970623493195 1.450737476348877
0.04440554603934288 -0.056335948407649994 1.505967617034912
0.08264514803886414 -0.044924210757017136 1.4459391832351685
0.03728468343615532 -0.0073664262890815735 1.422597885131836
0.1025163009762764 -0.014672726392745972 0.4094693660736084
0.12279163300991058 -0.0813223347067833 0.2502007484436035
0.12230932712554932 0.01019906997680664 0.22348229587078094
0.12351450324058533 0.18073293566703796 1.0324487686157227
0.11315120756626129 0.2111155092716217 0.996124267578125
0.10023300349712372 -0.14463278651237488 0.7490785121917725
0.10211680829524994 -0.04987049847841263 0.66452556848526
0.01350245252251625 -0.06901562958955765 1.7579861879348755
0.05196291580796242 -0.07644951343536377 1.711418628692627
0.1154981255531311 -0.12232286483049393 0.5568523406982422
0.027053171768784523 -0.011860594153404236 1.7820883989334106
0.05136239528656006 -0.028844289481639862 1.7325057983398438
0.07243708521127701 -0.09271878004074097 1.1537017822265625
0.07724456489086151 -0.07972323149442673 1.12529456615448
0.0695650726556778 -0.1543756127357483 1.1086649894714355
0.04143262654542923 -0.12011703848838806 1.645783543586731
0.0579274520277977 -0.05059024691581726 1.5332144498825073
0.04543628916144371 -0.08925245702266693 1.5363327264785767
0.16065528988838196 0.16140422224998474 0.9886168837547302
0.08370734751224518 -0.09688632190227509 1.309391736984253
0.09563374519348145 -0.1641334891319275 1.2660619020462036
0.08793897181749344 -0.10172294080257416 1.2587547302246094
0.1696951538324356 0.022299788892269135 0.17184625566005707
0.17067192494869232 -0.0565803162753582 0.1842951774597168
0.18713250756263733 -0.048146095126867294 0.16865235567092896
0.0727180689573288 -0.0006110891699790955 1.752915620803833
0.09379462897777557 -0.10850635170936584 1.307944655418396
0.1753431111574173 -0.02442341111600399 0.4462515711784363
0.1552504301071167 -0.08160403370857239 0.4950270354747772
0.18416255712509155 -0.032641276717185974 0.391402930021286
0.09706035256385803 -0.060986679047346115 1.439652681350708
0.0848514586687088 -0.053107909858226776 1.4364312887191772
0.10396954417228699 -0.039138149470090866 1.3943511247634888
0.12104960530996323 0.06749935448169708 0.9317823648452759
0.1288028508424759 -0.11568620800971985 0.8659274578094482
0.19759388267993927 -0.004664875566959381 0.2677755057811737
0.20759430527687073 -0.03649507090449333 0.2729274332523346
0.11181533336639404 -0.02037498727440834 1.3907556533813477
0.16023243963718414 0.10503304749727249 1.2813483476638794
0.16677811741828918 0.13235121965408325 1.2533740997314453
0.10583113878965378 -0.23412826657295227 1.1606504917144775
0.1552647054195404 -0.06243382766842842 1.0020054578781128
0.15853694081306458 -0.12059379369020462 0.9962781667709351
0.140341654419899 -0.0022719725966453552 1.2090904712677002
0.18431305885314941 -0.0958661288022995 1.0932093858718872
0.19599494338035583 -0.055768996477127075 1.080554485321045
0.19405515491962433 -0.13719889521598816 1.1512665748596191
-0.29131802916526794 -0.05854932218790054 1.0539170503616333
-0.3010425269603729 -0.11933180689811707 1.0302588939666748
-0.2286301702260971 -0.11209619045257568 1.1391525268554688
-0.2449316382408142 -0.11657077819108963 1.1855859756469727
-0.20206701755523682 -0.07291467487812042 1.1506085395812988
-0.20099177956581116 -0.030300255864858627 1.175496220588684
-0.19427943229675293 -0.1554650068283081 0.8791802525520325
-0.12484849989414215 0.18648824095726013 1.0184575319290161
-0.12697462737560272 0.17277824878692627 1.1244198083877563
-0.14480625092983246 -0.24003759026527405 1.1295697689056396
-0.13932542502880096 -0.16319158673286438 0.9670279026031494
-0.24268363416194916 -0.08000696450471878 0.27828118205070496
-0.21897733211517334 -0.13070721924304962 0.29478558897972107
-0.1753922700881958 -0.02209518849849701 0.5001704692840576
-0.15232348442077637 -0.19618147611618042 0.8629645705223083
-0.15806616842746735 -0.07396000623703003 0.6425741910934448
-0.149100199341774 -0.1095694825053215 0.6988521814346313
-0.13702979683876038 -0.047587912529706955 0.7007184028625488
-0.10235296189785004 -0.01632125861942768 1.108657717704773
-0.10878967493772507 -0.07891671359539032 1.136540412902832
-0.04456591606140137 0.22593365609645844 1.199742317199707
-0.11467020213603973 -0.017646998167037964 0.8597633838653564
-0.17573271691799164 -0.14458686113357544 0.3087552785873413
-0.11408838629722595 -0.022122202441096306 1.2174386978149414
-0.09258352220058441 -0.03975328430533409 1.1425666809082031
