1.210342526435852 -0.21521919965744019 1.3657095432281494
1.1597254276275635 -0.2263372838497162 1.3362152576446533
1.1891376972198486 -0.24848908185958862 1.3729710578918457
-1.1880024671554565 -0.4169713854789734 1.2576556205749512
-1.1631404161453247 -0.42885535955429077 1.2523987293243408
-0.9187610149383545 -0.3263553977012634 1.5131970643997192
-0.9185194969177246 -0.309010773897171 1.5236432552337646
-0.9400666952133179 -0.3204309642314911 1.4732624292373657
-0.9921969771385193 -0.3363996744155884 1.3762505054473877
-0.9346944093704224 -0.32224953174591064 1.37960946559906
-1.012079119682312 -0.37465888261795044 1.341314673423767
-0.9895061254501343 -0.3310733437538147 1.310691237449646
-0.877257227897644 -0.3454607129096985 1.3993711471557617
-0.7613167762756348 -0.31843581795692444 1.5280492305755615
-0.7976034283638 -0.31229013204574585 1.5020403861999512
-1.0901858806610107 -0.30948230624198914 1.1117298603057861
-1.1740533113479614 -0.3449750244617462 1.1416808366775513
-1.2030919790267944 -0.32600051164627075 1.057314157485962
-0.754012405872345 -0.27584484219551086 1.508426308631897
-0.7293418645858765 -0.3119668662548065 1.562320590019226
-1.0235493183135986 -0.38273924589157104 1.1769963502883911
-1.0305588245391846 -0.38644716143608093 1.1528236865997314
-1.149304986000061 -0.39789533615112305 1.0397069454193115
-1.1751744747161865 -0.41095736622810364 0.9957915544509888
-0.9538865685462952 -0.3013058006763458 1.2647172212600708
-0.6705434322357178 -0.30486610531806946 1.6526317596435547
-0.9223582744598389 -0.3039662837982178 1.2954596281051636
-0.9684938788414001 -0.2835099995136261 1.231217622756958
-0.8901020884513855 -0.3422738313674927 1.3103519678115845
-0.9021204710006714 -0.34909677505493164 1.2938756942749023
-0.8900476694107056 -0.271555632352829 1.274146556854248
-0.8213362097740173 -0.31719544529914856 1.367398738861084
-0.988772988319397 -0.2952847182750702 1.1811976432800293
-1.0301189422607422 -0.3031848073005676 1.1266865730285645
-0.7921139001846313 -0.27575817704200745 1.4427733421325684
-0.7955319881439209 -0.2607060372829437 1.3500699996948242
-0.8242400884628296 -0.2974492311477661 1.3289363384246826
-0.5761492848396301 -0.2773280143737793 1.6569828987121582
-0.7000705003738403 -0.3087756037712097 1.4822136163711548
-0.7192705869674683 -0.2624101936817169 1.3458871841430664
-0.5054746866226196 -0.27812570333480835 1.6844863891601562
-0.5409240126609802 -0.20907458662986755 1.5710631608963013
-0.6220127940177917 -0.26478973031044006 1.4718197584152222
-0.735532283782959 -0.20334923267364502 1.2656606435775757
-0.7366147041320801 -0.24195551872253418 1.2835192680358887
-0.6172045469284058 -0.21449293196201324 1.4671680927276611
-0.6405497789382935 -0.1943841427564621 1.3821046352386475
-0.4108807444572449 -0.1653045266866684 1.5807496309280396
-0.5424151420593262 -0.19949933886528015 1.409776210784912
-0.5658047199249268 -0.17269210517406464 1.3002872467041016
-0.5577400922775269 -0.13016538321971893 1.2950598001480103
-0.6097440719604492 -0.13638074696063995 1.2381150722503662
-0.4728429913520813 -0.13929665088653564 1.3031779527664185
-0.570931077003479 -0.1043623834848404 1.2283390760421753
-0.44299036264419556 -0.1464957296848297 1.485765814781189
-0.4098895788192749 -0.15047568082809448 1.4224953651428223
-0.5138934850692749 -0.07305090129375458 1.193206787109375
-0.46568432450294495 -0.05528482049703598 1.2041504383087158
-0.22672736644744873 -0.08323527872562408 1.5112828016281128
-0.335936576128006 -0.09092626720666885 1.3229637145996094
0.4503200650215149 -0.10350774228572845 1.2502734661102295
0.21894049644470215 -0.10219573229551315 1.5218369960784912
0.5051455497741699 -0.09088046848773956 1.3217018842697144
0.5072379112243652 -0.1205492839217186 1.3066236972808838
0.5367408990859985 -0.07846768945455551 1.2552367448806763
0.4925193190574646 -0.12786045670509338 1.4373021125793457
0.5549818277359009 -0.1599712371826172 1.3633493185043335
0.691291332244873 -0.0982230082154274 1.2641332149505615
0.47767913341522217 -0.1637692153453827 1.6129205226898193
0.6917142868041992 -0.19362077116966248 1.3871740102767944
0.6146407127380371 -0.17949801683425903 1.6137890815734863
1.05484938621521 -0.20009949803352356 1.2391008138656616
1.0826714038848877 -0.18691642582416534 1.2371162176132202
1.1627305746078491 -0.19106623530387878 1.1492278575897217
1.222686529159546 -0.18741270899772644 1.0928914546966553
1.2067234516143799 -0.21321867406368256 1.1007943153381348
0.8600214719772339 -0.1802154928445816 1.459582805633545
1.1738252639770508 -0.17398706078529358 1.1637272834777832
1.2250301837921143 -0.17464320361614227 1.1057047843933105
1.0266809463500977 -0.26361963152885437 1.2889604568481445
0.9924876689910889 -0.2813292443752289 1.3292391300201416
1.0078715085983276 -0.30231186747550964 1.2964653968811035
1.0729613304138184 -0.27069947123527527 1.2581545114517212
1.183717131614685 -0.17424407601356506 1.2075791358947754
1.2462575435638428 -0.1801382303237915 1.1450698375701904
1.0585545301437378 -0.20097725093364716 1.3358296155929565
1.0483564138412476 -0.2637712061405182 1.2988522052764893
1.1167200803756714 -0.2725171446800232 1.2797741889953613
1.045686960220337 -0.2875015139579773 1.3049830198287964
1.1145793199539185 -0.3135406970977783 1.2615132331848145
1.000319242477417 -0.24780477583408356 1.3622608184814453
1.0760756731033325 -0.2473105788230896 1.3524258136749268
1.2537542581558228 -0.26694202423095703 1.1688870191574097
1.2865294218063354 -0.30295616388320923 1.114389419555664
1.2987585067749023 -0.20783352851867676 1.1406168937683105
1.0159751176834106 -0.1985388845205307 1.40523099899292
1.1776456832885742 -0.20659056305885315 1.2447515726089478
1.2005153894424438 -0.2980899214744568 1.2187689542770386
1.2237625122070312 -0.2803674638271332 1.2277792692184448
1.2980661392211914 -0.25591418147087097 1.1754398345947266
1.1130369901657104 -0.20251460373401642 1.3942317962646484
1.152463674545288 -0.19401125609874725 1.3798673152923584
1.2841473817825317 -0.22652959823608398 1.2460699081420898
1.267542839050293 -0.23816633224487305 1.260245680809021
0.9415131211280823 -0.18703705072402954 1.484048843383789
1.053757667541504 -0.15640667080879211 1.5128169059753418
1.026439905166626 -0.18676957488059998 1.4824938774108887
0.8888813257217407 -0.16621807217597961 1.630901575088501
0.9164669513702393 -0.1682736575603485 1.5931293964385986
0.9149390459060669 -0.163013756275177 1.5880392789840698
0.9336837530136108 -0.18446040153503418 1.5791343450546265
1.0044310092926025 -0.16446486115455627 1.5499430894851685
0.9832407832145691 -0.1772749125957489 1.5619592666625977
-1.0728741884231567 -0.3570217490196228 1.3813796043395996
-1.046338677406311 -0.3781847655773163 1.381072759628296
-1.063044548034668 -0.3998550772666931 1.3536362648010254
-1.1930941343307495 -0.3824198842048645 1.0429307222366333
-1.2027088403701782 -0.4305964708328247 1.0072791576385498
-1.0343579053878784 -0.38378843665122986 1.1562665700912476
-1.086334228515625 -0.40676257014274597 1.1371110677719116
-1.0345152616500854 -0.4309467673301697 1.1420398950576782
-1.1324546337127686 -0.43845248222351074 1.088613510131836
-1.1136746406555176 -0.3967195153236389 1.0711358785629272
-1.123364806175232 -0.42091554403305054 1.036466121673584
-0.9364674091339111 -0.3637753129005432 1.2566661834716797
-0.9563554525375366 -0.38475391268730164 1.2093312740325928
-0.9722219705581665 -0.37794795632362366 1.2300808429718018
-1.0713326930999756 -0.4199987053871155 1.08321213722229
-1.0821995735168457 -0.39129820466041565 1.0909572839736938
-1.0005865097045898 -0.40474629402160645 1.1505157947540283
-1.0554707050323486 -0.3873711824417114 1.1329981088638306
-0.856078565120697 -0.2822023630142212 1.3690247535705566
-0.9375004768371582 -0.2717234492301941 1.2131820917129517
-0.8724370002746582 -0.25259244441986084 1.193223476409912
-0.8853694796562195 -0.22788935899734497 1.196229338645935
-0.758644700050354 -0.2738994359970093 1.308627963066101
-0.7867924571037292 -0.2280350625514984 1.238032341003418
-0.8541953563690186 -0.21959203481674194 1.2105697393417358
-0.8511655926704407 -0.23860915005207062 1.1969795227050781
-0.4728406071662903 -0.18582338094711304 1.4472633600234985
-0.6959977746009827 -0.16460704803466797 1.2169651985168457
-0.6163970232009888 -0.16837766766548157 1.2205452919006348
-0.6561455726623535 -0.12844398617744446 1.1956751346588135
-0.5184944272041321 -0.09270527958869934 1.1852867603302002
-0.5707144141197205 -0.0930292084813118 1.176459789276123
-0.41350263357162476 -0.05255955830216408 1.2225635051727295
0.8201455473899841 -0.15902607142925262 1.3273749351501465
0.509213924407959 -0.21659494936466217 1.7536592483520508
0.9278930425643921 -0.18127581477165222 1.360023021697998
0.8889858722686768 -0.15695667266845703 1.3018169403076172
0.9200446605682373 -0.19889132678508759 1.3187572956085205
0.9285570383071899 -0.1778212934732437 1.3192604780197144
0.7645063996315002 -0.17843745648860931 1.465555191040039
0.9206225275993347 -0.24112768471240997 1.3498191833496094
0.974897027015686 -0.24720057845115662 1.3200074434280396
0.9560564756393433 -0.27856019139289856 1.3303463459014893
0.978771448135376 -0.2753446102142334 1.3093656301498413
1.0253947973251343 -0.25218579173088074 1.2758784294128418
1.1951700448989868 -0.24125243723392487 1.1396695375442505
1.2372369766235352 -0.23726986348628998 1.1057281494140625
1.2685225009918213 -0.2189585417509079 1.1163702011108398
0.9737580418586731 -0.2050972580909729 1.3686997890472412
1.0099852085113525 -0.20045264065265656 1.349897027015686
1.028205156326294 -0.2687234878540039 1.322828769683838
1.050327181816101 -0.2736705243587494 1.2844992876052856
1.070494294166565 -0.30871567130088806 1.2549347877502441
0.7334230542182922 -0.21862153708934784 1.5870270729064941
1.0814361572265625 -0.21080520749092102 1.3604742288589478
1.138543963432312 -0.21583674848079681 1.3455283641815186
0.9877506494522095 -0.22120660543441772 1.4582691192626953
1.294251799583435 -0.268202543258667 1.2315902709960938
1.308843970298767 -0.2169911414384842 1.1964967250823975
1.1202709674835205 -0.23543910682201385 1.368761420249939
1.1639069318771362 -0.2478823959827423 1.3330637216567993
1.0967161655426025 -0.18417136371135712 1.5302709341049194
1.0926488637924194 -0.23454013466835022 1.468690037727356
1.1078546047210693 -0.20608602464199066 1.4757585525512695
1.2178107500076294 -0.22929339110851288 1.3839552402496338
1.2080605030059814 -0.20794621109962463 1.3883163928985596
-0.939502477645874 -0.32836857438087463 1.4829916954040527
-1.2684271335601807 -0.3943665623664856 1.0493627786636353
-1.007699728012085 -0.38589873909950256 1.250714898109436
-1.0103709697723389 -0.39601221680641174 1.212230920791626
-0.9890252947807312 -0.363156795501709 1.296030879020691
-0.6414232850074768 -0.29471877217292786 1.6124556064605713
-0.9606279730796814 -0.31035956740379333 1.3077210187911987
-0.9780385494232178 -0.3237099051475525 1.2747596502304077
-1.1884381771087646 -0.3618085980415344 1.0004148483276367
-1.202135443687439 -0.3189542889595032 0.9940357804298401
-0.9580209851264954 -0.35510313510894775 1.2040127515792847
-0.9910063743591309 -0.37489888072013855 1.1681993007659912
-0.9551268815994263 -0.3718159794807434 1.1882846355438232
-0.65227872133255 -0.30253130197525024 1.5588352680206299
-0.7368605136871338 -0.2632372975349426 1.4604787826538086
-0.4811265766620636 -0.07659278064966202 1.2635903358459473
0.27161869406700134 -0.06767959147691727 1.3089842796325684
0.24835386872291565 -0.08098569512367249 1.3074426651000977
0.4378194808959961 -0.11916150897741318 1.2869603633880615
0.47809934616088867 -0.08167044073343277 1.2274315357208252
0.5120888352394104 -0.11404360830783844 1.3682438135147095
0.6645280122756958 -0.12495847046375275 1.2990473508834839
0.6646561026573181 -0.13701537251472473 1.2800112962722778
0.6856592297554016 -0.19900256395339966 1.4682602882385254
0.668242335319519 -0.2235591560602188 1.5577516555786133
0.8108429908752441 -0.21462076902389526 1.4232006072998047
1.0583919286727905 -0.2988140285015106 1.2535961866378784
1.1183626651763916 -0.27358734607696533 1.2350046634674072
1.1474840641021729 -0.30918678641319275 1.1989413499832153
1.1932437419891357 -0.2759917378425598 1.1641701459884644
0.9419651627540588 -0.2311880886554718 1.428354263305664
1.2833102941513062 -0.3097562789916992 1.142301082611084
-1.0382635593414307 -0.3804206848144531 1.3560271263122559
-1.0651854276657104 -0.323179692029953 1.0871598720550537
-1.1032830476760864 -0.3276057839393616 1.0470294952392578
-0.563920795917511 -0.2932903468608856 1.6913561820983887
-0.6980667114257812 -0.16432882845401764 1.2025142908096313
-0.7024452090263367 -0.15525032579898834 1.1732144355773926
-0.6551132202148438 -0.1422027349472046 1.1740361452102661
-0.5469111800193787 -0.07774925976991653 1.171277642250061
-0.28706586360931396 -0.04176560044288635 1.2864558696746826
-0.27682986855506897 -0.06545943021774292 1.2858597040176392
0.5318168997764587 -0.19730108976364136 1.5483126640319824
0.5418463945388794 -0.21403253078460693 1.6177113056182861
0.9491080641746521 -0.19525982439517975 1.3905723094940186
0.993668794631958 -0.18360406160354614 1.324751853942871
0.8439866304397583 -0.2276202291250229 1.447361946105957
1.072026014328003 -0.2505834996700287 1.2391200065612793
0.9263280630111694 -0.21858945488929749 1.472738265991211
0.8538821935653687 -0.20995549857616425 1.5339986085891724
1.0488941669464111 -0.21369501948356628 1.468954086303711
1.094731330871582 -0.22610101103782654 1.4180750846862793
1.2257373332977295 -0.2565668821334839 1.2953323125839233
1.2477160692214966 -0.2821368873119354 1.1931593418121338
1.2383356094360352 -0.22864679992198944 1.2959927320480347
-1.224528431892395 -0.4066088795661926 1.0421618223190308
-1.222892165184021 -0.34956082701683044 1.0122132301330566
-1.0369166135787964 -0.3929024040699005 1.1568877696990967
-1.1578891277313232 -0.3940143287181854 1.050801396369934
-1.1428744792938232 -0.36147189140319824 1.0128276348114014
-0.911270022392273 -0.3026702404022217 1.2259933948516846
-0.4801984131336212 -0.11752057075500488 1.2714166641235352
-0.5272970795631409 -0.11144350469112396 1.221323013305664
-0.5677968263626099 -0.10676674544811249 1.206661581993103
-0.4348040819168091 -0.09431590139865875 1.245809555053711
-0.47560620307922363 -0.0872950404882431 1.1741392612457275
-0.4938769042491913 -0.06870893388986588 1.16916024684906
0.47541502118110657 -0.06492859125137329 1.2368190288543701
0.869989275932312 -0.22307567298412323 1.3729318380355835
0.9123293161392212 -0.2495664358139038 1.3996490240097046
0.956000566482544 -0.258426308631897 1.37350332736969
1.1669468879699707 -0.2641945481300354 1.3141907453536987
-1.2106913328170776 -0.40316107869148254 1.139693021774292
-1.2226389646530151 -0.4263193905353546 1.1091252565383911
-1.2319302558898926 -0.4123590588569641 1.1086876392364502
-1.049597144126892 -0.33153101801872253 1.2328704595565796
-1.0190492868423462 -0.3587755560874939 1.1490179300308228
-0.9738051295280457 -0.35805732011795044 1.1730990409851074
-0.3644464910030365 -0.06575844436883926 1.249200463294983
-0.17369656264781952 -0.0661778375506401 1.3821370601654053
-0.16911299526691437 -0.05040402337908745 1.3726757764816284
0.24279360473155975 -0.09355592727661133 1.3175996541976929
0.21694034337997437 -0.20779724419116974 1.723217487335205
0.42851269245147705 -0.1924002766609192 1.7431124448776245
0.44907331466674805 -0.2176181674003601 1.768545389175415
0.5388824343681335 -0.20652885735034943 1.7315645217895508
0.831775426864624 -0.17450343072414398 1.615401268005371
0.834206223487854 -0.17286317050457 1.6627198457717896
0.8635236024856567 -0.14517852663993835 1.6132134199142456
0.8864107728004456 -0.1719992607831955 1.6061968803405762
0.8978815078735352 -0.14893323183059692 1.638054609298706
-1.0021389722824097 -0.34981727600097656 1.450108528137207
-1.015775442123413 -0.332768976688385 1.4410581588745117
-0.7979616522789001 -0.3059316575527191 1.5872362852096558
-0.7974332571029663 -0.28961843252182007 1.5606675148010254
-1.2360068559646606 -0.34697282314300537 1.0723456144332886
-1.2647658586502075 -0.356094092130661 1.0381087064743042
-1.1325395107269287 -0.41160693764686584 1.0948688983917236
-1.0825235843658447 -0.3350721299648285 1.1929137706756592
-0.9216439723968506 -0.2976909577846527 1.333033800125122
-0.5202200412750244 -0.27861037850379944 1.7195676565170288
0.43728455901145935 -0.08753722161054611 1.2953606843948364
0.36448436975479126 -0.12819282710552216 1.5298693180084229
0.6938434839248657 -0.14209666848182678 1.3334237337112427
0.5928236246109009 -0.13505958020687103 1.4325103759765625
0.8124210834503174 -0.1708226054906845 1.3196815252304077
0.8742841482162476 -0.18390852212905884 1.3005038499832153
0.8110527992248535 -0.21222153306007385 1.355083703994751
1.1044340133666992 -0.21254181861877441 1.2071828842163086
1.1240170001983643 -0.22815005481243134 1.2062145471572876
1.1016647815704346 -0.28542646765708923 1.2733957767486572
1.026095986366272 -0.1986428201198578 1.4519577026367188
1.1998114585876465 -0.19132980704307556 1.2941367626190186
-1.2385203838348389 -0.4066837430000305 1.0685372352600098
-1.2545095682144165 -0.37947213649749756 1.0183204412460327
-0.6981896162033081 -0.13096846640110016 1.1714526414871216
-0.5450472235679626 -0.0758921355009079 1.19557523727417
-0.4316359758377075 -0.07157860696315765 1.2108683586120605
1.1555612087249756 -0.19994410872459412 1.3023858070373535
1.341647744178772 -0.23079539835453033 1.1338986158370972
1.3381097316741943 -0.23373456299304962 1.1552903652191162
-1.0216612815856934 -0.39229995012283325 1.1912188529968262
-1.0580523014068604 -0.33873260021209717 1.1080234050750732
-1.0822116136550903 -0.3610062599182129 1.0728142261505127
0.6144681572914124 -0.199529767036438 1.6809309720993042
1.3403234481811523 -0.20531006157398224 1.1503595113754272
1.1504541635513306 -0.2274715155363083 1.4162015914916992
-0.41588014364242554 -0.08542679995298386 1.3430507183074951
1.0655597448349 -0.20372731983661652 1.469866394996643
-0.9956634640693665 -0.31334325671195984 1.1504511833190918
1.2418662309646606 -0.29823794960975647 1.1277927160263062
1.064307689666748 -0.20699501037597656 1.4531532526016235
-1.0408124923706055 -0.4183579683303833 1.1654874086380005
-0.4972001314163208 -0.051580388098955154 0.9429960250854492
-0.5011677145957947 -0.05213821306824684 0.956842839717865
-0.4855421483516693 -0.08247970044612885 0.9429492950439453
-0.4963098466396332 -0.08363410830497742 0.9550467729568481
-0.44839417934417725 -0.056384678930044174 1.0181620121002197
-0.461433470249176 -0.0630553811788559 0.9919391870498657
-0.449817955493927 -0.0329330638051033 0.9665086269378662
-0.43568524718284607 -0.02009148709475994 1.0089921951293945
-0.4515722393989563 -0.0880572721362114 0.9903726577758789
-0.46283575892448425 -0.11452236771583557 0.9681088328361511
-0.40602537989616394 -0.05133596062660217 1.086469292640686
-0.43631234765052795 -0.11629137396812439 0.9679964184761047
-0.44793370366096497 -0.07260225713253021 0.9838963747024536
-0.42893069982528687 -0.1175699532032013 1.0114314556121826
-0.4255765676498413 -0.08194565773010254 1.0139367580413818
-0.39362746477127075 -0.022802572697401047 1.0621782541275024
-0.41597843170166016 -0.0708886981010437 1.0151156187057495
-0.41420701146125793 -0.09394475817680359 1.0365411043167114
-0.4087401032447815 -0.08094317466020584 1.0741736888885498
-0.4125312268733978 -0.052576944231987 1.1274887323379517
-0.41731828451156616 -0.11199168115854263 1.1005198955535889
-0.34896719455718994 -0.0049980818293988705 1.168451189994812
-0.36789101362228394 0.003605804406106472 1.1231389045715332
-0.3940434455871582 -0.07321101427078247 1.1582863330841064
-0.3286566734313965 0.011377887800335884 1.109534740447998
-0.32313910126686096 -0.08270789682865143 1.2110275030136108
-0.3667844533920288 -0.13482078909873962 1.1460927724838257
-0.3160877823829651 0.013306149281561375 1.1591747999191284
-0.27677711844444275 -0.003160102292895317 1.1659142971038818
-0.27047258615493774 -0.025806671008467674 1.2266556024551392
-0.2397470325231552 -0.025111105293035507 1.22745943069458
-0.22386318445205688 -0.13176050782203674 1.280195713043213
-0.30300527811050415 -0.13617311418056488 1.200833797454834
-0.22296516597270966 -0.047517627477645874 1.275156855583191
-0.25600436329841614 -0.08352547883987427 1.2703821659088135
-0.2035379558801651 -0.06894776970148087 1.31270432472229
-0.1788228452205658 -0.08793304860591888 1.3454341888427734
-0.16788601875305176 -0.14289885759353638 1.3331187963485718
-0.22837258875370026 -0.16217194497585297 1.2207446098327637
-0.1971995085477829 -0.031288668513298035 1.7592540979385376
-0.16934138536453247 -0.0009777061641216278 1.4078532457351685
-0.1382688283920288 0.06852660328149796 0.8536349534988403
-0.18269477784633636 0.022651221603155136 0.8485609889030457
-0.15653052926063538 -0.0687265694141388 0.861690878868103
-0.2007540464401245 -0.09956544637680054 0.8505027294158936
-0.18377022445201874 -0.025397518649697304 1.6581389904022217
-0.19906137883663177 -0.04163530096411705 1.7884490489959717
-0.16713987290859222 -0.03536635637283325 1.7308071851730347
-0.15730619430541992 -0.006681386381387711 1.6711993217468262
-0.16380839049816132 -0.03614943474531174 1.6217468976974487
-0.12519821524620056 -0.01049472950398922 1.043632984161377
-0.15514832735061646 -0.060839198529720306 1.003339409828186
-0.15425164997577667 -0.1309935450553894 0.9876353144645691
-0.15889008343219757 -0.06550145894289017 1.5554049015045166
-0.2564561367034912 0.27923494577407837 0.19717954099178314
-0.2702849507331848 0.2831602692604065 0.12240191549062729
-0.27939677238464355 0.2562558948993683 0.10725490003824234
-0.13800860941410065 -0.14174453914165497 1.3848538398742676
-0.13467945158481598 -0.07738545536994934 1.3454408645629883
-0.12396673858165741 -0.09593168646097183 1.319214105606079
-0.14320924878120422 -0.15329976379871368 1.3672505617141724
-0.12231887131929398 -0.17686046659946442 1.3067268133163452
-0.2000979781150818 -0.03833135962486267 0.5004008412361145
-0.2067735195159912 -0.010524077340960503 0.4122594892978668
-0.21522773802280426 0.06825728714466095 0.39289501309394836
-0.22254005074501038 0.0309135764837265 0.40193814039230347
-0.16547860205173492 -0.029979003593325615 1.6950613260269165
-0.12274579703807831 -0.13085386157035828 1.2755087614059448
-0.1276703178882599 -0.12371775507926941 1.2351882457733154
-0.12919698655605316 -0.16441529989242554 1.250110387802124
-0.15874148905277252 -0.18451142311096191 1.243190050125122
-0.2084098756313324 0.11625201255083084 0.34523531794548035
-0.1425071656703949 -0.13663332164287567 1.5660619735717773
-0.1474008411169052 -0.0566154383122921 1.5538675785064697
-0.1464640200138092 -0.09348814189434052 1.5535327196121216
-0.1709827184677124 -0.1281646192073822 0.5569071769714355
-0.10385294258594513 -0.02653041109442711 1.7992966175079346
-0.10960282385349274 -0.1569404900074005 1.1927683353424072
-0.12113270163536072 -0.061378512531518936 1.1671125888824463
-0.12294665724039078 -0.1433809995651245 0.739398717880249
-0.12088391929864883 0.019295141100883484 1.7324727773666382
-0.11067648231983185 -0.17363521456718445 1.3898568153381348
-0.10409824550151825 -0.11192033439874649 0.841687798500061
-0.14351220428943634 -0.1263391375541687 0.8655853867530823
-0.1221175491809845 -0.20506027340888977 0.9096740484237671
-0.10970324277877808 -0.21558448672294617 0.8472000360488892
-0.258145809173584 0.2149810492992401 0.07807689905166626
-0.08489830791950226 0.04729865491390228 1.723690390586853
-0.09913239628076553 -0.01580386608839035 1.780930757522583
-0.13858212530612946 -0.1312382072210312 1.456171989440918
-0.12099936604499817 -0.14601674675941467 1.5184192657470703
-0.1771313101053238 0.0846131443977356 0.4001424312591553
-0.20116010308265686 0.14584244787693024 0.3249357342720032
-0.2540995180606842 0.17207232117652893 0.10115983337163925
-0.19690148532390594 0.3007899522781372 0.25747567415237427
-0.09966880083084106 -0.08996866643428802 1.3260753154754639
-0.1555958092212677 -0.13460086286067963 0.5173904895782471
-0.20281702280044556 0.2833729088306427 0.08560726046562195
-0.24460618197917938 0.2922520935535431 0.08288166671991348
-0.1057739108800888 -0.05709800869226456 1.5700322389602661
-0.10186302661895752 -0.09795990586280823 1.5321273803710938
-0.02655714564025402 -0.22049391269683838 0.9013999700546265
-0.08971692621707916 0.08886280655860901 0.857171893119812
-0.22046008706092834 0.02079625613987446 0.27345967292785645
-0.1955682784318924 0.1051902174949646 0.21190637350082397
-0.17955246567726135 0.24960076808929443 0.26981523633003235
-0.08554932475090027 -0.07442407310009003 1.2968149185180664
-0.09393584728240967 -0.08399281650781631 1.2507874965667725
-0.049141258001327515 -0.20735038816928864 1.285007119178772
-0.12913818657398224 -0.07115781307220459 0.6429990530014038
-0.10352344065904617 -0.14667998254299164 0.7307772636413574
-0.06894564628601074 -0.1148848682641983 0.8038760423660278
-0.18542085587978363 0.13895031809806824 0.18556395173072815
-0.20235440135002136 0.20336727797985077 0.08626333624124527
-0.10246716439723969 -0.19624216854572296 1.5263291597366333
-0.0845775380730629 -0.08762761950492859 1.364006519317627
-0.05393008142709732 -0.06760389357805252 1.3038437366485596
-0.12322146445512772 -0.15362387895584106 0.5322315692901611
-0.10017433017492294 -0.14059118926525116 0.5422285199165344
-0.130629301071167 -0.02656181901693344 0.5512217283248901
-0.07831797003746033 -0.18529820442199707 1.4840036630630493
-0.05733006075024605 -0.14102616906166077 1.4434497356414795
-0.09901618212461472 -0.09462711215019226 1.4172532558441162
-0.10648202896118164 -0.062345489859580994 0.5322406888008118
-0.053753990679979324 0.005078967660665512 1.7814663648605347
-0.08579017221927643 -0.2189284861087799 1.6833019256591797
-0.019229833036661148 -0.19692277908325195 0.9836412668228149
-0.0588679276406765 -0.15207567811012268 1.4682083129882812
-0.0340789258480072 -0.18147912621498108 1.4519157409667969
-0.0574226938188076 -0.16484835743904114 1.432407259941101
-0.029638012871146202 -0.21786177158355713 1.6111440658569336
-0.07335157692432404 -0.22294318675994873 1.550365686416626
-0.037869200110435486 -0.1155487522482872 1.4819263219833374
-0.08459082245826721 -0.10177374631166458 0.6186562776565552
0.003081653267145157 -0.032708194106817245 1.8139201402664185
-0.041606392711400986 0.06251093745231628 1.687863826751709
-0.01626817137002945 -0.2425708770751953 1.5587437152862549
-0.03787289932370186 -0.22955793142318726 1.4936985969543457
-0.019742866978049278 -0.12286302447319031 1.445815086364746
-0.010500028729438782 -0.23090165853500366 1.4947590827941895
0.010366158559918404 -0.09172864258289337 1.4255789518356323
-0.012816831469535828 -0.07319166511297226 1.2967801094055176
-0.004477284848690033 0.02318960428237915 1.7747232913970947
0.0037200339138507843 -0.12187263369560242 1.4887332916259766
0.002494296059012413 -0.17564913630485535 1.471028208732605
0.022503385320305824 0.037752412259578705 1.7265217304229736
0.014056738466024399 -0.019898537546396255 1.7908194065093994
0.0006216671317815781 -0.1702025830745697 1.440168857574463
0.05021427571773529 -0.1864558458328247 1.5158665180206299
0.007932416163384914 -0.14633870124816895 1.4524848461151123
0.062422920018434525 -0.2976595163345337 0.6528937220573425
0.0324765220284462 -0.07954316586256027 1.5193605422973633
0.09768293052911758 -0.34148937463760376 0.5921351313591003
0.03230021521449089 -0.22622397541999817 1.2343508005142212
0.0719069391489029 -0.0860307365655899 1.2727491855621338
0.07325319200754166 -0.07356549799442291 1.1498152017593384
0.19261404871940613 -0.3717418909072876 0.14011776447296143
0.22651298344135284 -0.35567545890808105 0.12032083421945572
0.1709367334842682 -0.23108211159706116 0.20927099883556366
0.0452948622405529 -0.20163488388061523 1.2295666933059692
0.037282079458236694 -0.21702934801578522 1.153699278831482
0.05258769914507866 -0.22767196595668793 0.7889682054519653
0.17476946115493774 -0.26986163854599 0.1498735547065735
0.06732101738452911 -0.0272250734269619 1.7494089603424072
0.04730898514389992 -0.205882728099823 1.6911375522613525
0.03779847174882889 -0.20131465792655945 1.599532961845398
0.03911305591464043 -0.2133222222328186 1.5485669374465942
0.08682328462600708 -0.13536584377288818 0.8820483684539795
0.12510722875595093 -0.025285180658102036 1.779191255569458
0.038835663348436356 -0.07113175839185715 1.5741912126541138
0.04039296507835388 -0.09713058918714523 1.5493748188018799
0.1478310376405716 -0.2876298427581787 0.4051012694835663
0.15010665357112885 -0.28498753905296326 0.3503246009349823
0.19053375720977783 -0.2182561755180359 0.19315718114376068
0.06820978224277496 -0.03355885297060013 1.8431577682495117
0.0848960131406784 -0.12182110548019409 1.4384865760803223
0.09514375030994415 -0.19862088561058044 0.8727980852127075
0.07354138046503067 -0.11858610808849335 0.8617768287658691
0.11920872330665588 -0.1721164584159851 0.8693597316741943
0.09800328314304352 -0.14191310107707977 0.7293128967285156
0.24573557078838348 -0.37066763639450073 0.13641902804374695
0.083362877368927 -0.03441871702671051 1.7641215324401855
0.0680776834487915 -0.17169831693172455 1.1294907331466675
0.07819803059101105 -0.19781047105789185 1.2452876567840576
0.08386692404747009 -0.21689373254776 1.2357823848724365
0.12914986908435822 -0.16201062500476837 0.9198557138442993
0.07829468697309494 -0.14309591054916382 1.6082007884979248
0.06974413990974426 -0.06472805887460709 1.5841679573059082
0.0712755024433136 -0.09225962311029434 1.576372504234314
0.08149261027574539 -0.10818246006965637 1.5772396326065063
0.09183330088853836 -0.12640708684921265 1.5561175346374512
0.1298649162054062 -0.24508297443389893 0.6835488677024841
0.114879310131073 -0.28192299604415894 0.7441858649253845
0.10156191885471344 -0.17567305266857147 1.3922420740127563
0.11629094183444977 -0.09454299509525299 1.3591885566711426
0.0747055932879448 -0.10083216428756714 1.3676180839538574
0.08278347551822662 -0.10842734575271606 1.3357083797454834
0.10671886801719666 -0.13200241327285767 0.847701907157898
0.2363022118806839 -0.2517934739589691 0.18442915380001068
0.25332096219062805 -0.27190253138542175 0.16955098509788513
0.0901651680469513 -0.048859309405088425 1.7179113626480103
0.11584679037332535 -0.13018351793289185 1.4161134958267212
0.20881354808807373 -0.3389090299606323 0.4046526849269867
0.11345100402832031 -0.030218737199902534 1.6864049434661865
0.08294841647148132 -0.005321495234966278 1.6848735809326172
0.09894107282161713 -0.040150146931409836 1.6537330150604248
0.2450929880142212 -0.3113967776298523 0.23733079433441162
0.2694947421550751 -0.3409333825111389 0.14978639781475067
0.23752805590629578 -0.3845679759979248 0.16481120884418488
0.16004133224487305 0.006976526230573654 0.928971529006958
0.14992688596248627 -0.0178984347730875 0.8217735290527344
0.12648120522499084 -0.044431038200855255 1.780701994895935
0.17133161425590515 0.036287762224674225 0.8215841054916382
0.1859968602657318 0.02200210466980934 0.8817105293273926
0.15059083700180054 -0.10739539563655853 1.35978364944458
0.17448410391807556 -0.13001969456672668 1.3397279977798462
0.12087491154670715 -0.16980397701263428 1.358672022819519
0.18399620056152344 -0.09465017169713974 1.3139148950576782
0.17950773239135742 -0.08946648240089417 1.2891132831573486
0.22877854108810425 -0.17316216230392456 1.2436236143112183
0.21363362669944763 -0.13911673426628113 1.3018009662628174
0.23418325185775757 -0.07134092599153519 1.2650480270385742
0.26817864179611206 -0.0258803591132164 1.2012617588043213
0.29661035537719727 -0.03193805366754532 1.2226860523223877
0.2844295799732208 -0.08371984958648682 1.2537715435028076
0.27949851751327515 -0.14261993765830994 1.2455629110336304
0.3264482915401459 -0.024111077189445496 1.1721943616867065
0.38131070137023926 -0.10269167274236679 1.2041423320770264
0.3777719736099243 -0.06534399837255478 1.199175238609314
0.3551320433616638 -0.03169853240251541 1.1805932521820068
0.374764084815979 -0.1503983736038208 1.1591298580169678
0.38241297006607056 -0.08986277878284454 1.1496000289916992
0.3695370554924011 -0.0623551569879055 1.1453540325164795
0.48784852027893066 -0.06943727284669876 1.0425277948379517
0.3760938346385956 -0.11819671094417572 1.1354432106018066
0.39656785130500793 -0.12367361783981323 1.1028056144714355
0.42971789836883545 -0.05065789073705673 1.077860951423645
0.39715731143951416 -0.09528934210538864 1.0866467952728271
0.41208478808403015 -0.12733899056911469 1.0760031938552856
0.43707841634750366 -0.09329868853092194 1.0622705221176147
0.46241551637649536 -0.08214832842350006 1.0639203786849976
0.4363793432712555 -0.13441529870033264 1.0442496538162231
0.45276254415512085 -0.1084684506058693 1.050854206085205
0.4406837821006775 -0.12138264626264572 1.0511603355407715
0.49047526717185974 -0.06848093122243881 1.0194615125656128
0.4634304940700531 -0.12739279866218567 1.0366572141647339
0.46094539761543274 -0.06915602833032608 1.0318336486816406
0.4895222783088684 -0.10019128024578094 1.0173219442367554
0.4988064169883728 -0.0856676921248436 1.0303536653518677
-0.3889622092247009 -0.023788491263985634 1.0893586874008179
-0.3935985863208771 -0.08742445707321167 1.055409550666809
-0.3724404275417328 -0.065341517329216 1.0563483238220215
-0.39814311265945435 -0.12992027401924133 1.0832792520523071
-0.3196910619735718 -0.021423619240522385 1.0807641744613647
-0.3682951331138611 -0.12494198977947235 1.0653133392333984
-0.20984645187854767 -0.06564141809940338 1.2443147897720337
-0.2246326059103012 -0.12391471862792969 1.1974849700927734
-0.17023031413555145 -0.10342618823051453 0.9562481641769409
-0.17698106169700623 -0.01806962862610817 0.9227430820465088
-0.1307397037744522 0.04902806505560875 0.920007050037384
-0.1693936586380005 0.049757614731788635 1.2264630794525146
-0.17195282876491547 0.04571909084916115 1.161537766456604
-0.18342547118663788 0.0718972459435463 1.1287490129470825
-0.1547633409500122 -0.014811312779784203 0.9557136297225952
-0.2071589231491089 -0.054665230214595795 1.756922960281372
-0.1429949700832367 -0.09749320149421692 1.3611791133880615
-0.1700408160686493 -0.07164433598518372 1.3019434213638306
-0.12182973325252533 0.07931254804134369 1.0144953727722168
-0.16667473316192627 0.07951004803180695 0.9295443296432495
-0.2662445306777954 0.21394479274749756 0.21085503697395325
-0.2820037305355072 0.2361140102148056 0.13825438916683197
-0.17857623100280762 -0.06329439580440521 1.7389241456985474
-0.16540922224521637 -0.05550345778465271 1.677659273147583
-0.1431606411933899 -0.19746124744415283 1.2109332084655762
-0.14659258723258972 -0.2050258219242096 1.1782490015029907
-0.15235061943531036 -0.22778096795082092 1.16738760471344
-0.14894971251487732 0.010139292106032372 1.364803671836853
-0.1362382173538208 0.003853464499115944 1.3604567050933838
-0.11675063520669937 -0.20152252912521362 1.230031132698059
-0.13719694316387177 -0.10331907868385315 1.206947922706604
-0.2453978806734085 0.12989287078380585 0.22621923685073853
-0.24394704401493073 0.1454344391822815 0.27766433358192444
-0.10760961472988129 0.035889651626348495 1.2181456089019775
-0.14463065564632416 -0.14536413550376892 1.4697918891906738
-0.1434672772884369 -0.13849478960037231 1.4436829090118408
-0.13038553297519684 -0.13517071306705475 1.4174929857254028
-0.1454496681690216 -0.13189071416854858 1.4192076921463013
-0.1427043229341507 -0.14621257781982422 1.3993504047393799
-0.1441829651594162 -0.11549323797225952 0.7819682955741882
-0.16024863719940186 -0.08011944591999054 0.7699452638626099
-0.13086359202861786 0.14488321542739868 1.017014980316162
-0.12292777001857758 0.14096476137638092 1.0731284618377686
-0.10761908441781998 -0.18982043862342834 1.2309894561767578
-0.1303977370262146 -0.10291305184364319 0.8540308475494385
-0.2289828062057495 0.2448616921901703 0.2714943289756775
-0.23301208019256592 0.284141480922699 0.2504883110523224
-0.14329558610916138 -0.18570835888385773 0.8479419350624084
-0.12928807735443115 0.1035110354423523 1.1912660598754883
-0.13531945645809174 -0.19202959537506104 1.6730815172195435
-0.12954674661159515 -0.08198616653680801 1.5552154779434204
-0.1163652166724205 0.011032335460186005 1.5087840557098389
-0.1059170737862587 -0.017970848828554153 1.5716447830200195
-0.12863537669181824 -0.02777283824980259 1.546691656112671
-0.12332968413829803 -0.013318412005901337 1.4587922096252441
-0.07412099838256836 0.05313512682914734 1.5394477844238281
-0.11001644283533096 -0.12866459786891937 1.5106106996536255
-0.09179322421550751 0.042588017880916595 0.9748618006706238
-0.13187497854232788 -0.03448806703090668 1.8443914651870728
-0.14068138599395752 -0.04488232731819153 1.8393573760986328
-0.1446593999862671 -0.058831099420785904 1.828465223312378
-0.0302532147616148 -0.01007783692330122 1.4344123601913452
-0.10987397283315659 0.03191220760345459 1.4109200239181519
-0.17457765340805054 0.2768886983394623 0.16555479168891907
-0.06992904096841812 0.08475201576948166 1.3322453498840332
-0.09648268669843674 -0.20091411471366882 1.5794495344161987
-0.157902792096138 -0.017949024215340614 0.4084784686565399
-0.07069595158100128 -0.016241203993558884 1.5054824352264404
-0.08036023378372192 -0.07522735744714737 1.5036424398422241
-0.05710440129041672 0.05703400820493698 1.4525823593139648
-0.040428876876831055 0.05514068529009819 0.8489474058151245
-0.1599181592464447 0.06288794428110123 0.40611279010772705
-0.08066164702177048 0.11825601756572723 0.9183478355407715
-0.04067789018154144 0.034810472279787064 1.0396838188171387
-0.0813341811299324 -0.21591219305992126 1.2255611419677734
-0.07929931581020355 -0.18364648520946503 1.1374809741973877
-0.15109765529632568 0.051794879138469696 0.3695284128189087
-0.13956479728221893 0.07465579360723495 0.30710408091545105
-0.1643737256526947 0.11580626666545868 0.3421540856361389
-0.06814073771238327 -0.03876420855522156 1.5341460704803467
-0.06990328431129456 -0.14348945021629333 0.6720433235168457
-0.10176259279251099 -0.07418090105056763 0.6365144848823547
-0.0617145374417305 0.15995392203330994 1.0563619136810303
-0.07160553336143494 0.156076118350029 0.9638029336929321
-0.025993522256612778 -0.22036097943782806 1.1562438011169434
-0.15991854667663574 0.19865529239177704 0.21969781816005707
-0.0661182701587677 0.09763500094413757 0.9622811079025269
-0.06326930969953537 0.06855176389217377 1.0082777738571167
0.003083210438489914 -0.02696327492594719 1.5167715549468994
-0.06472848355770111 -0.19321832060813904 1.3835432529449463
-0.01171624194830656 0.10278312861919403 1.3059191703796387
0.02386270835995674 -0.009203825145959854 1.4219601154327393
-0.0010845065116882324 -0.04077516123652458 1.5258160829544067
-0.0051191626116633415 0.1046324148774147 0.9674805402755737
0.011412582360208035 0.09791792929172516 0.9188977479934692
-0.0034490916877985 -0.2070726454257965 1.3750693798065186
0.0077542890794575214 0.03812780976295471 1.0347411632537842
-0.0023654417600482702 -0.21636740863323212 1.0980559587478638
0.0732814222574234 0.08696617186069489 1.3332600593566895
0.02759534865617752 -0.07073906064033508 1.3153314590454102
0.05551759898662567 0.04906531795859337 1.4625802040100098
0.026256805285811424 -0.006781361997127533 1.4681282043457031
0.04367782548069954 -0.05666956678032875 1.2238025665283203
0.041270457208156586 0.10155229270458221 0.9066060781478882
0.018891435116529465 -0.0725095272064209 1.785452961921692
0.16068123281002045 -0.3374548852443695 0.1629372239112854
0.17231501638889313 -0.33164554834365845 0.12827259302139282
0.14609621465206146 -0.2777198553085327 0.2062738984823227
0.0027914512902498245 -0.21752867102622986 1.6872893571853638
0.06413211673498154 -0.18277740478515625 0.7150145769119263
0.09545482695102692 -0.010722462087869644 1.4421919584274292
0.053317077457904816 -0.14381512999534607 1.5209131240844727
0.09316936135292053 -0.15578590333461761 1.4479737281799316
0.04710565134882927 -0.1074303686618805 1.42379891872406
0.11831284314393997 -0.2862732410430908 0.4668125510215759
0.14433124661445618 -0.3916322588920593 0.33435821533203125
0.16524656116962433 -0.2892768979072571 0.32027292251586914
0.07475072890520096 0.10961945354938507 0.9723191261291504
0.053910836577415466 0.13861745595932007 0.9315099716186523
0.08511392772197723 -0.2254483699798584 0.8071178197860718
0.10590135306119919 -0.22598393261432648 0.6757611036300659
0.028029266744852066 -0.1243145763874054 1.782767415046692
0.07364547997713089 -0.13664177060127258 1.737968921661377
0.10760103166103363 -0.3529030680656433 0.6404025554656982
0.04277049005031586 -0.06025882437825203 1.7973476648330688
0.06921990215778351 -0.079696886241436 1.7478539943695068
0.08740589022636414 -0.1009683758020401 1.138987421989441
0.09160502254962921 -0.08450216054916382 1.110103964805603
0.08573919534683228 -0.16012540459632874 1.086654543876648
0.06033787876367569 -0.18864652514457703 1.6782407760620117
0.06788320094347 -0.13005851209163666 1.5551351308822632
0.06631989777088165 -0.17708128690719604 1.5625404119491577
0.11834146827459335 0.10010339319705963 0.9293363094329834
0.0983952060341835 -0.17077140510082245 1.2835183143615723
0.11679192632436752 -0.22414752840995789 1.2234101295471191
0.10228373110294342 -0.1409502923488617 1.2374502420425415
0.2172691971063614 -0.281208872795105 0.2721695303916931
0.2002996951341629 -0.3725922107696533 0.25901615619659424
0.22071528434753418 -0.3611697554588318 0.245265394449234
0.08413779735565186 -0.05226244777441025 1.7663460969924927
0.11344105005264282 -0.189642071723938 1.280229926109314
0.18791154026985168 -0.2900369167327881 0.5141081809997559
0.15614108741283417 -0.3355903923511505 0.5758208632469177
0.2002376914024353 -0.31322014331817627 0.4649203419685364
0.10910332202911377 -0.1755657196044922 1.436294436454773
0.09228038787841797 -0.16975319385528564 1.4315874576568604
0.11956223845481873 -0.13884910941123962 1.402685284614563
0.12102281302213669 0.07370506227016449 0.8923450708389282
0.11580893397331238 -0.10600034892559052 0.8560791611671448
0.23156709969043732 -0.32325589656829834 0.35064658522605896
0.23694732785224915 -0.35179072618484497 0.35823190212249756
0.12879447638988495 -0.1227511316537857 1.3984296321868896
0.15888909995555878 0.03487434983253479 1.2445608377456665
0.1597728133201599 0.06880424171686172 1.2127258777618408
0.13639286160469055 -0.26215001940727234 1.100073218345642
0.1591404378414154 -0.03979376703500748 0.967443585395813
0.16073639690876007 -0.09358111023902893 0.9622488021850586
0.1996753066778183 -0.059428468346595764 1.2470948696136475
0.3081984221935272 -0.11382365971803665 1.1213440895080566
0.30594879388809204 -0.05648866295814514 1.1255302429199219
0.3206024467945099 -0.17364904284477234 1.1718090772628784
-0.3765644133090973 -0.029294652864336967 1.0571377277374268
-0.4063154458999634 -0.08932941406965256 1.0207345485687256
-0.3009962737560272 -0.12674643099308014 1.1150281429290771
-0.3077813386917114 -0.15245701372623444 1.1610842943191528
-0.2593877613544464 -0.09123916923999786 1.1379274129867554
-0.24123987555503845 -0.048877716064453125 1.1745190620422363
-0.1951645463705063 -0.15087154507637024 0.8678207397460938
-0.19892188906669617 0.07771796733140945 0.974982500076294
-0.18834041059017181 0.06314805150032043 1.0884017944335938
-0.16986681520938873 -0.26278114318847656 1.053483247756958
-0.1326344609260559 -0.16811257600784302 0.9530011415481567
-0.25520816445350647 0.07196255773305893 0.33399882912635803
-0.23852014541625977 0.021042870357632637 0.31298309564590454
-0.17039361596107483 -0.02038740925490856 0.5406482815742493
-0.15392842888832092 -0.19286778569221497 0.8532782793045044
-0.1588124781847 -0.10921075940132141 0.6181328892707825
-0.15063299238681793 -0.135599285364151 0.6770279407501221
-0.14045047760009766 -0.06782832741737366 0.677240252494812
-0.11526402086019516 -0.027285801246762276 1.1081607341766357
-0.10948446393013 -0.09630599617958069 1.1255497932434082
-0.09226629137992859 0.1327839493751526 1.1495740413665771
-0.11866657435894012 -0.011235075071454048 0.8442432284355164
-0.19630444049835205 0.0015967786312103271 0.3117637038230896
-0.11411546170711517 -0.06557942926883698 1.2158076763153076
-0.10117057710886002 -0.05551702529191971 1.1412233114242554
-0.17306312918663025 -0.0653570294380188 0.44077393412590027
-0.13499140739440918 -0.06838223338127136 1.7632455825805664
-0.13484589755535126 -0.10972276329994202 1.7579278945922852
-0.08499231934547424 -0.13927505910396576 1.778517484664917
-0.09847132861614227 -0.18564888834953308 1.743748426437378
-0.11797754466533661 -0.1973649114370346 1.6346566677093506
-0.16597461700439453 0.0143744433298707 0.3627365231513977
-0.0689055398106575 -0.13216660916805267 0.7288525104522705
-0.14675015211105347 0.04658430442214012 0.2941512167453766
-0.16833996772766113 0.022337336093187332 0.28231602907180786
-0.16943135857582092 0.14029349386692047 0.30895769596099854
-0.05567830428481102 0.06575800478458405 0.966437041759491
-0.08404134958982468 -0.04441773146390915 1.8060613870620728
-0.102237269282341 -0.058937132358551025 1.7952150106430054
0.011719927191734314 0.0661521703004837 1.1372617483139038
-0.08899819105863571 0.059433531016111374 1.1400572061538696
-0.004292390309274197 0.0493629090487957 1.2029848098754883
0.011338206008076668 -0.07702955603599548 1.2602126598358154
-0.004867474548518658 0.13888531923294067 1.18040132522583
-0.01140575297176838 0.08211737126111984 1.0092734098434448
0.05264410749077797 0.16229689121246338 1.0884639024734497
0.007957514375448227 0.05687525123357773 1.659895658493042
0.030205802991986275 0.07591639459133148 1.0168335437774658
0.047130364924669266 -0.20915207266807556 0.9062329530715942
0.11295728385448456 -0.3506999909877777 0.3456723690032959
0.13961786031723022 -0.3523513674736023 0.29481446743011475
0.0490906685590744 -0.24626174569129944 0.7551940083503723
0.032863274216651917 0.010680018924176693 1.069617509841919
0.08291427046060562 -0.27455294132232666 0.6237466335296631
0.08579080551862717 0.03431570157408714 1.2764856815338135
0.07131867110729218 -0.19000199437141418 1.4041978120803833
0.0449526384472847 0.03771013766527176 1.62654447555542
0.04780719801783562 -0.04128425568342209 1.6115047931671143
0.050068460404872894 -0.026309538632631302 1.5812878608703613
0.03871350362896919 -0.04742160066962242 1.8454879522323608
0.07707186043262482 -0.19115984439849854 1.3236308097839355
0.15443791449069977 -0.2643861472606659 0.5669417381286621
0.12336008250713348 -0.24984687566757202 0.5562424659729004
0.16611246764659882 -0.27671006321907043 0.42309337854385376
0.19164270162582397 -0.2868954837322235 0.40177637338638306
0.09215743839740753 -0.12626802921295166 1.544145107269287
0.08295217156410217 -0.1346741020679474 1.555659532546997
0.0936993956565857 -0.12946736812591553 1.5372769832611084
0.12993435561656952 -0.14318540692329407 0.7540408372879028
0.13605621457099915 -0.27868154644966125 0.6966712474822998
0.12212982773780823 0.03956776112318039 0.9367616176605225
0.120940662920475 -0.07236409187316895 1.083451747894287
0.11858665943145752 -0.12594282627105713 1.0702180862426758
0.12416897714138031 -0.13743995130062103 1.0141880512237549
0.09106628596782684 -0.06784889101982117 1.6618115901947021
0.10343589633703232 -0.08505774289369583 1.5739649534225464
0.11048281937837601 -0.2066517472267151 1.209114909172058
0.11110681295394897 -0.017620878294110298 1.5522541999816895
0.10073061287403107 -0.03757747635245323 1.5933078527450562
0.24746058881282806 -0.26766908168792725 0.20502376556396484
0.2638308107852936 -0.3076929748058319 0.1767895668745041
0.12470686435699463 -0.03443958982825279 1.5146642923355103
0.13219189643859863 -0.02136312611401081 1.4860190153121948
0.14496412873268127 -0.019960977137088776 1.4379571676254272
