-0.3840298652648926 0.10064636915922165 1.671290636062622
-0.37847137451171875 0.12619949877262115 1.6396530866622925
-0.3712207078933716 0.13329601287841797 1.6674754619598389
-0.3592986464500427 0.1102520301938057 1.6588268280029297
-0.34136325120925903 0.10853661596775055 1.612294316291809
-0.3510275185108185 0.07897195219993591 1.6532360315322876
-0.3372552692890167 0.0854557678103447 1.5394313335418701
-0.32292577624320984 0.07643525302410126 1.6037664413452148
-0.272910475730896 0.08641654253005981 1.5384979248046875
-0.29538190364837646 0.07804368436336517 1.5765964984893799
-0.31132641434669495 0.0892406702041626 1.6088260412216187
-0.2732018828392029 0.06125425919890404 1.530307412147522
-0.23172670602798462 0.07682836055755615 1.4964420795440674
-0.2266179472208023 0.05472317337989807 1.4710016250610352
-0.2571738660335541 0.06190909817814827 1.5275311470031738
-0.2589375376701355 0.09661109745502472 1.4847898483276367
-0.14329801499843597 0.020713355392217636 1.359965443611145
-0.19380852580070496 0.05830494314432144 1.4439641237258911
-0.17251549661159515 0.04159238934516907 1.404174566268921
-0.13227355480194092 0.05366780608892441 1.3287187814712524
-0.13474126160144806 0.033276114612817764 1.3651635646820068
-0.12596753239631653 0.04083987697958946 1.3543434143066406
-0.12740543484687805 0.04816698282957077 1.3090534210205078
-0.085514597594738 0.006486251950263977 1.3158667087554932
-0.0646342933177948 0.01966095343232155 1.319636583328247
-0.07194110751152039 0.027443768456578255 1.3427772521972656
-0.06982671469449997 0.005254883319139481 1.3349765539169312
0.03277072682976723 -0.004363533109426498 1.3503228425979614
0.04568358138203621 -0.012493273243308067 1.3217639923095703
0.039534881711006165 -0.02395162545144558 1.338231086730957
0.04152163863182068 0.002973601222038269 1.3363733291625977
0.07464832067489624 -0.015922635793685913 1.3663041591644287
0.07630142569541931 -0.001486796885728836 1.3617324829101562
0.10107885301113129 -0.02068888023495674 1.311155080795288
0.11625409871339798 -0.024735188111662865 1.3783981800079346
0.10457920283079147 -0.027409391477704048 1.313275933265686
0.10606015473604202 -0.01799129508435726 1.3958816528320312
0.112531378865242 -0.0072301216423511505 1.3170747756958008
0.10954192280769348 -0.0006940737366676331 1.3908294439315796
0.12187530100345612 0.0035749897360801697 1.4442871809005737
0.12569096684455872 0.0012136362493038177 1.5068104267120361
0.16392618417739868 -0.0312773771584034 1.3670039176940918
0.12787023186683655 -0.007698090746998787 1.5350313186645508
0.1514633595943451 -0.027129409834742546 1.4467658996582031
0.1416139453649521 0.009700138121843338 1.5264849662780762
0.1431931108236313 0.007961481809616089 1.6011226177215576
0.15290004014968872 0.018613938242197037 1.6072909832000732
0.15226341784000397 0.019564710557460785 1.6430761814117432
0.14773057401180267 0.01057431846857071 1.6696183681488037
0.1593523621559143 0.00020898878574371338 1.6782480478286743
0.17826735973358154 0.006384998559951782 1.7009880542755127
0.20646612346172333 0.027702003717422485 1.6843328475952148
0.18105775117874146 0.023433949798345566 1.702991247177124
0.21471375226974487 -0.006247341632843018 1.6686540842056274
0.27424895763397217 -0.004318850114941597 1.5788253545761108
0.20779827237129211 0.005144685506820679 1.6986615657806396
0.254842609167099 0.013823695480823517 1.7086949348449707
0.25161024928092957 -0.002156224101781845 1.708052158355713
0.30785059928894043 -0.01918831095099449 1.6814602613449097
0.2736106812953949 -0.019584033638238907 1.6463836431503296
0.304936021566391 -0.052301663905382156 1.5433945655822754
0.31809207797050476 -0.024408243596553802 1.4874019622802734
0.3042253255844116 0.001772075891494751 1.6919962167739868
0.39662522077560425 -0.04522773250937462 1.6291730403900146
0.3165939450263977 -0.005718056112527847 1.6939105987548828
0.35451337695121765 -0.024786513298749924 1.6788365840911865
0.3360424041748047 -0.013197051361203194 1.6420921087265015
0.35748231410980225 -0.009815968573093414 1.6821870803833008
0.39584842324256897 -0.024775758385658264 1.6387139558792114
0.3970518410205841 -0.024410733953118324 1.6128122806549072
0.3513121008872986 -0.03417041897773743 1.6198391914367676
0.3633090853691101 -0.023248324170708656 1.6551690101623535
0.3946395218372345 -0.03960562124848366 1.6040197610855103
0.4270503520965576 -0.028803303837776184 1.565030813217163
0.42968839406967163 -0.04249405860900879 1.5640634298324585
0.44230467081069946 -0.03744135797023773 1.5258872509002686
0.45199963450431824 -0.05959904566407204 1.5226978063583374
0.4842097759246826 -0.03451476991176605 1.5421273708343506
0.47620975971221924 -0.048714764416217804 1.5420374870300293
0.48714712262153625 -0.04836147278547287 1.4972323179244995
0.46684035658836365 -0.05156636983156204 1.5235334634780884
0.48973825573921204 -0.05815216153860092 1.4531404972076416
0.4897536039352417 -0.07057009637355804 1.4551360607147217
0.535426139831543 -0.06414563953876495 1.4221351146697998
0.5244221687316895 -0.07370845973491669 1.3876256942749023
0.5027981400489807 -0.08635210990905762 1.3927725553512573
0.5315752029418945 -0.08324018120765686 1.3461014032363892
0.4862627387046814 -0.06806573271751404 1.4925168752670288
0.519974946975708 -0.059663545340299606 1.4757596254348755
0.5203217267990112 -0.07735946774482727 1.4261401891708374
0.50650954246521 -0.08131227642297745 1.477331519126892
0.5962470769882202 -0.10010039806365967 1.3453588485717773
0.5498313307762146 -0.10412327200174332 1.3722953796386719
0.5685345530509949 -0.0937386006116867 1.3474607467651367
0.5632126927375793 -0.0878194272518158 1.4001195430755615
0.5513219833374023 -0.10153477638959885 1.3488330841064453
0.5679141283035278 -0.09435795992612839 1.316415786743164
0.558780312538147 -0.10832380503416061 1.3174762725830078
0.6010472774505615 -0.10277005285024643 1.3542653322219849
0.5931742191314697 -0.1104264110326767 1.341857671737671
0.5934564471244812 -0.10559989511966705 1.3620154857635498
0.5965913534164429 -0.11478883028030396 1.2902065515518188
0.6456015110015869 -0.12016436457633972 1.2528128623962402
0.6029456853866577 -0.10941735655069351 1.2646809816360474
0.6484969258308411 -0.1205681711435318 1.230307936668396
0.6315326690673828 -0.1327996850013733 1.2285230159759521
0.6746430993080139 -0.15185098350048065 1.0393601655960083
0.6505904197692871 -0.1642962098121643 1.0602359771728516
0.6681978106498718 -0.17929621040821075 1.0132064819335938
0.6802332997322083 -0.16055245697498322 1.040764570236206
0.6213398575782776 -0.19219408929347992 1.0251588821411133
0.6728169322013855 -0.21388819813728333 0.9794643521308899
0.6650804281234741 -0.22463271021842957 0.982850968837738
-0.4069494605064392 0.061044398695230484 0.8059894442558289
-0.3762069344520569 0.04548599570989609 0.7749074697494507
-0.3693736791610718 0.03003060817718506 0.7432566285133362
-0.37432289123535156 0.03182316944003105 0.782922089099884
-0.33423352241516113 0.030780550092458725 0.7185871005058289
-0.3250514268875122 0.010279770940542221 0.7162486910820007
-0.4255702793598175 0.11874352395534515 0.8581629395484924
-0.4148409366607666 0.07670290768146515 0.9118596315383911
-0.39745160937309265 0.06607159972190857 0.8575841188430786
-0.38144373893737793 0.05913398414850235 0.8556677103042603
-0.35109812021255493 0.04211937263607979 0.784935474395752
-0.33041632175445557 0.012426774948835373 0.7621965408325195
-0.33922937512397766 -0.003386240452528 0.7276433706283569
-0.28532707691192627 -0.011846400797367096 0.6380394697189331
-0.2901398539543152 -0.024805285036563873 0.6594869494438171
-0.25797873735427856 -0.057096049189567566 0.6298340559005737
-0.33951336145401 0.02710583433508873 0.8260026574134827
-0.3197011947631836 0.022412199527025223 0.757085382938385
-0.26837462186813354 -0.005611080676317215 0.6342228651046753
-0.31622612476348877 0.007268480956554413 0.748457670211792
-0.3198527693748474 0.021560266613960266 0.7732571959495544
-0.313792884349823 -0.002380385994911194 0.728373646736145
-0.2980766296386719 -0.027966242283582687 0.7364733219146729
-0.4025198221206665 0.10015998035669327 1.050518274307251
-0.22633901238441467 -0.11396770179271698 0.6206856369972229
-0.1931624561548233 -0.12941128015518188 0.542046844959259
-0.43777990341186523 0.0885901004076004 1.1599478721618652
-0.4326314330101013 0.09213963896036148 1.0770424604415894
-0.38519346714019775 0.08987933397293091 1.0274074077606201
-0.4589102566242218 0.10128821432590485 1.1791090965270996
-0.4429834485054016 0.14403235912322998 1.1143126487731934
-0.3000972270965576 -0.05853576958179474 0.8210373520851135
-0.48157763481140137 0.16120417416095734 1.3138870000839233
-0.4371715784072876 0.13252122700214386 1.2581543922424316
-0.18551120162010193 -0.012118257582187653 0.6683458089828491
-0.15681637823581696 -0.02316661924123764 0.5827776193618774
-0.26060378551483154 0.022266976535320282 0.8050869703292847
-0.1347382664680481 -0.049998581409454346 0.5761112570762634
-0.30616140365600586 0.03100697323679924 0.9767100811004639
-0.30698055028915405 0.0037611760199069977 0.9090996384620667
-0.26283663511276245 0.021965589374303818 0.8718700408935547
-0.2555040121078491 0.023800022900104523 0.9216705560684204
-0.24952425062656403 0.04442104697227478 0.9244931936264038
-0.29973769187927246 0.033596619963645935 1.0007654428482056
-0.43748873472213745 0.1078818216919899 1.3817390203475952
-0.4652515649795532 0.1521943211555481 1.4055588245391846
-0.27138152718544006 0.061797723174095154 1.0242271423339844
-0.3599359095096588 0.10495087504386902 1.1832560300827026
-0.3703124225139618 0.07154711335897446 1.1611195802688599
-0.4197500944137573 0.10620807111263275 1.4946532249450684
-0.4031575918197632 0.09929820895195007 1.3736722469329834
-0.4395616352558136 0.1425638049840927 1.471327543258667
-0.299117773771286 0.06116090714931488 1.1141153573989868
-0.2998518645763397 0.088200643658638 1.129063606262207
-0.2844710350036621 0.0587540864944458 1.0784242153167725
-0.27563366293907166 0.06616540253162384 1.0711617469787598
-0.3523417115211487 0.12257128208875656 1.318103551864624
-0.31646400690078735 0.1098686158657074 1.2582170963287354
-0.31823498010635376 0.08485820889472961 1.431488037109375
-0.2050601691007614 0.062498994171619415 1.0786757469177246
-0.3735150694847107 0.12944738566875458 1.513440489768982
-0.24835173785686493 0.06647291779518127 1.4118826389312744
-0.28075528144836426 0.10894772410392761 1.40329110622406
-0.23021136224269867 0.0609557069838047 1.3442859649658203
-0.2149081975221634 0.09041257202625275 1.3393282890319824
-0.1843252182006836 0.07358044385910034 1.253113031387329
-0.15476185083389282 0.05347443372011185 1.2200711965560913
0.18928059935569763 -0.014404268935322762 1.18931245803833
0.16697311401367188 -0.03173203021287918 1.200081467628479
0.19987031817436218 -0.032238684594631195 1.1541035175323486
0.21546673774719238 -0.013366014696657658 1.3271127939224243
0.18092100322246552 -0.04154464602470398 1.2552450895309448
0.19475385546684265 -0.01788359507918358 1.263127088546753
0.2452075183391571 -0.026197772473096848 1.2147043943405151
0.24994266033172607 -0.05705767869949341 1.2062538862228394
0.25980669260025024 -0.038261886686086655 1.1191484928131104
0.27216827869415283 -0.04498462751507759 1.0914112329483032
0.2538653016090393 -0.0517163947224617 1.1215364933013916
0.2714260518550873 -0.05675310641527176 1.1005257368087769
0.29957810044288635 -0.04761236533522606 1.1063213348388672
0.254201740026474 -0.010357946157455444 1.4791332483291626
0.2464483678340912 -0.040667589753866196 1.4416357278823853
0.3382605016231537 -0.05734669044613838 1.0861834287643433
0.3136492073535919 -0.07704099267721176 1.0969569683074951
0.29578471183776855 -0.05668333172798157 1.111849308013916
0.3257206082344055 -0.06437794119119644 1.0803515911102295
0.35787221789360046 -0.07474251836538315 1.0472949743270874
0.27733132243156433 -0.05591823160648346 1.35123610496521
0.3834912180900574 -0.06689758598804474 1.175446629524231
0.3255235552787781 -0.08875568956136703 1.1169909238815308
0.3356747329235077 -0.06687082350254059 1.130650281906128
0.3614424765110016 -0.050257064402103424 1.3095004558563232
0.35792359709739685 -0.0862022340297699 1.167478322982788
0.40352243185043335 -0.08406169712543488 1.0895984172821045
0.3934535086154938 -0.06903914362192154 1.136924386024475
0.387698233127594 -0.0846494659781456 1.1080379486083984
0.3824884593486786 -0.1092085987329483 1.134665846824646
0.3722575306892395 -0.05307299643754959 1.3545997142791748
0.39219751954078674 -0.07169561088085175 1.2418595552444458
0.3675347566604614 -0.09398478269577026 1.261881947517395
0.3580068051815033 -0.06843143701553345 1.4881618022918701
0.41670364141464233 -0.0900944173336029 1.13033127784729
0.3899262845516205 -0.045835867524147034 1.4628446102142334
0.40262508392333984 -0.06860854476690292 1.4025431871414185
0.40606069564819336 -0.08409249782562256 1.452239751815796
0.47999709844589233 -0.15813012421131134 0.9327812194824219
0.43162721395492554 -0.10285435616970062 1.3856556415557861
0.4601101577281952 -0.10923827439546585 1.3432796001434326
0.4532102942466736 -0.08042599260807037 1.2962331771850586
0.45336684584617615 -0.1305709034204483 1.1989905834197998
0.4681917428970337 -0.09983889758586884 1.1989294290542603
0.4780883491039276 -0.08428633213043213 1.3059253692626953
0.4895358383655548 -0.09870540350675583 1.243027687072754
0.5108668804168701 -0.12270136177539825 1.1799368858337402
0.5132949352264404 -0.08686234802007675 1.3310226202011108
0.511049747467041 -0.11465949565172195 1.303442358970642
0.5020582675933838 -0.27303630113601685 0.7862289547920227
0.525347113609314 -0.2959475517272949 0.6487730741500854
0.570815920829773 -0.2498473823070526 0.6371031999588013
0.5368090271949768 -0.24885347485542297 0.6700403690338135
0.5412615537643433 -0.18851274251937866 0.9879513382911682
0.5446345806121826 -0.18818813562393188 0.9463241696357727
0.5554991960525513 -0.12599875032901764 1.172494888305664
0.6158155798912048 -0.1929856836795807 0.6742751598358154
0.6001971960067749 -0.18978244066238403 0.7436690926551819
0.6222976446151733 -0.19597510993480682 0.939251720905304
0.6426880359649658 -0.22309570014476776 0.8425919413566589
0.5934369564056396 -0.21614724397659302 0.852114200592041
0.6176088452339172 -0.23819760978221893 0.8633366227149963
-0.36200621724128723 0.013651207089424133 0.6898301839828491
-0.35901594161987305 -0.003175850957632065 0.7029794454574585
-0.47847887873649597 0.14216041564941406 1.0456597805023193
-0.4743928909301758 0.15403634309768677 1.055140495300293
-0.44772541522979736 0.13085857033729553 1.009827733039856
-0.39223402738571167 0.0829368382692337 0.9188157320022583
-0.3904639482498169 0.08106681704521179 0.9692496657371521
-0.389690637588501 0.047504886984825134 0.8775758147239685
-0.3504171371459961 0.05653886869549751 0.8855002522468567
-0.40847381949424744 0.0650651678442955 1.020267367362976
-0.4715627133846283 0.12178763747215271 1.1802878379821777
-0.459756076335907 0.11863462626934052 1.141615629196167
-0.2171844094991684 -0.0025242529809474945 0.7098070383071899
-0.24959179759025574 0.002451721578836441 0.6506690979003906
-0.19270548224449158 -0.017151035368442535 0.5899493098258972
-0.44567766785621643 0.1366584300994873 1.1882296800613403
-0.48938095569610596 0.13137449324131012 1.2284400463104248
-0.28809481859207153 -0.03275170922279358 0.7794817686080933
-0.2769244313240051 -0.04446963965892792 0.7645523548126221
-0.20597535371780396 -0.08024511486291885 0.6067141890525818
-0.184652179479599 -0.10793595016002655 0.5630009770393372
-0.307320237159729 0.04512153938412666 0.8975682854652405
-0.5139176249504089 0.15420058369636536 1.3320269584655762
-0.32542186975479126 0.05204904079437256 0.9389941692352295
-0.2822278141975403 0.047294970601797104 0.8704925179481506
-0.3536892533302307 0.02918229252099991 0.968281626701355
-0.3453291654586792 0.021141648292541504 0.9458416700363159
-0.2975408732891083 0.055843815207481384 0.9603255391120911
-0.3764084577560425 0.05685298517346382 1.05757737159729
-0.2524469494819641 0.02058105170726776 0.8280883431434631
-0.22371380031108856 -0.0032192282378673553 0.7641698122024536
-0.4066064953804016 0.11017121374607086 1.126041293144226
-0.34901612997055054 0.08091932535171509 1.0748015642166138
-0.3472493588924408 0.05205416679382324 1.0388964414596558
-0.47421765327453613 0.14053267240524292 1.3967585563659668
-0.4374725818634033 0.08883040398359299 1.2080857753753662
-0.3494710326194763 0.061328161507844925 1.1240170001983643
-0.4666556715965271 0.1276315152645111 1.4585247039794922
-0.3948279023170471 0.1369481384754181 1.3608579635620117
-0.399834007024765 0.0911787897348404 1.248734951019287
-0.28375446796417236 0.06976409256458282 1.0675451755523682
-0.3104579448699951 0.05307355523109436 1.0805647373199463
-0.3810184597969055 0.12026037275791168 1.249237060546875
-0.34180155396461487 0.10716433823108673 1.191487193107605
-0.35681185126304626 0.12820710241794586 1.431895136833191
-0.33163249492645264 0.08090431243181229 1.2586922645568848
-0.27910497784614563 0.060691770166158676 1.1814242601394653
-0.26430991291999817 0.08299147337675095 1.1775774955749512
-0.24517494440078735 0.07065331190824509 1.113527536392212
-0.250182181596756 0.05468953773379326 1.2155545949935913
-0.22358182072639465 0.07275266945362091 1.123387098312378
-0.32297781109809875 0.11869736015796661 1.3463068008422852
-0.2856007516384125 0.07918612658977509 1.315020203590393
-0.18522560596466064 0.0584828183054924 1.1200063228607178
-0.17025281488895416 0.05988134443759918 1.1458386182785034
-0.20897988975048065 0.0837157741189003 1.4121830463409424
-0.19853997230529785 0.04641163721680641 1.2587264776229858
0.2242051064968109 -0.04902444779872894 1.1373416185379028
0.16941717267036438 -0.003764033317565918 1.4091717004776
0.2855693995952606 -0.032383084297180176 1.1741129159927368
0.27344810962677 -0.05479808524250984 1.1672667264938354
0.2812129855155945 -0.03754367679357529 1.107261300086975
0.31180235743522644 -0.04204888269305229 1.2803606986999512
0.3120267689228058 -0.07369864732027054 1.2023404836654663
0.3690963387489319 -0.06756418198347092 1.0522356033325195
0.3453620970249176 -0.03712975233793259 1.4255914688110352
0.37353017926216125 -0.10367701202630997 1.1635785102844238
0.43051987886428833 -0.07378468662500381 1.3673113584518433
0.49587592482566833 -0.16696347296237946 0.844184398651123
0.5137476921081543 -0.16152076423168182 0.8249034285545349
0.518190324306488 -0.1792798787355423 0.7130684852600098
0.525039553642273 -0.18481563031673431 0.6389602422714233
0.5124744176864624 -0.20060810446739197 0.653928279876709
0.4959448277950287 -0.12213506549596786 1.1165926456451416
0.5383828282356262 -0.17024639248847961 0.718352735042572
0.538979709148407 -0.17719215154647827 0.6443541646003723
0.48152101039886475 -0.21057943999767303 0.8999682664871216
0.47551509737968445 -0.22021207213401794 0.9509466886520386
0.46017447113990784 -0.23833589255809784 0.9213587641716003
0.4896916151046753 -0.22783739864826202 0.8519070744514465
0.5655075311660767 -0.17712271213531494 0.7433304190635681
0.5675883889198303 -0.19214501976966858 0.6614184975624084
0.5461344122886658 -0.17494377493858337 0.9120945334434509
0.5010248422622681 -0.2174520194530487 0.894680380821228
0.5243539810180664 -0.23923124372959137 0.8404560089111328
0.4914871156215668 -0.23594596982002258 0.9022572040557861
0.5028903484344482 -0.2674635648727417 0.8316676020622253
0.507863461971283 -0.19801518321037292 0.9680806994438171
0.5465043187141418 -0.21482250094413757 0.9168037176132202
0.5540120601654053 -0.25784096121788025 0.6792140007019043
0.5339242219924927 -0.2856886386871338 0.6225038170814514
0.5869507789611816 -0.21906527876853943 0.627271831035614
0.5548543930053711 -0.17008471488952637 0.9864551424980164
0.5649836659431458 -0.2011663019657135 0.7757788896560669
0.5324515104293823 -0.27025771141052246 0.7485160827636719
0.5586711168289185 -0.26458480954170227 0.7395223379135132
0.5899577736854553 -0.25970789790153503 0.6577876806259155
0.6033523082733154 -0.1906389594078064 0.9193019270896912
0.6222600340843201 -0.19169341027736664 0.8854856491088867
0.6240667700767517 -0.23129349946975708 0.7146538496017456
0.6180927157402039 -0.24232861399650574 0.735380232334137
0.5529638528823853 -0.14650174975395203 1.0859986543655396
0.6432435512542725 -0.15160523355007172 1.0368977785110474
0.6041505932807922 -0.1681506335735321 1.0321263074874878
0.6069442629814148 -0.13107137382030487 1.223299503326416
0.6026860475540161 -0.13309182226657867 1.1787129640579224
0.5993095636367798 -0.1295187920331955 1.1741864681243896
0.5991656184196472 -0.14865463972091675 1.1612169742584229
0.6322566270828247 -0.14776740968227386 1.0949532985687256
0.6209660172462463 -0.15296787023544312 1.1142617464065552
-0.41461610794067383 0.0903005450963974 0.851098895072937
-0.41429653763771057 0.06888189166784286 0.8674765825271606
-0.4093281626701355 0.04446835070848465 0.838813304901123
-0.20572251081466675 -0.06071672588586807 0.5772378444671631
-0.1966521143913269 -0.10828052461147308 0.546202540397644
-0.2739599645137787 -0.042476434260606766 0.7605591416358948
-0.27496451139450073 -0.05327337607741356 0.7055178880691528
-0.28597208857536316 -0.07662419974803925 0.7480372190475464
-0.2547343969345093 -0.08712916821241379 0.6376461982727051
-0.2230263501405716 -0.07333411276340485 0.6486775279045105
-0.21103496849536896 -0.1023607850074768 0.6205741763114929
-0.32992634177207947 0.0018041059374809265 0.8975564241409302
-0.3072400689125061 -0.031241584569215775 0.8541027307510376
-0.3168434798717499 -0.014051120728254318 0.8504154682159424
-0.24194099009037018 -0.08832632005214691 0.686870276927948
-0.2352137565612793 -0.06586780399084091 0.6866483688354492
-0.2772600054740906 -0.06189233437180519 0.7810044288635254
-0.2636057734489441 -0.04887208342552185 0.7341128587722778
-0.36789464950561523 0.08688913285732269 1.0349079370498657
-0.261050283908844 0.03656863048672676 0.8898974061012268
-0.2358911633491516 0.026494711637496948 0.9351904392242432
-0.23305678367614746 0.04648560285568237 0.9306352138519287
-0.33423614501953125 0.04910842701792717 1.0744048357009888
-0.2696157693862915 0.04809792712330818 1.0224659442901611
-0.2431126981973648 0.05234542861580849 0.9648465514183044
-0.2407216727733612 0.03278009220957756 0.958292543888092
-0.32480427622795105 0.08485537022352219 1.313085913658142
-0.2479606568813324 0.0662412941455841 1.056592345237732
-0.2461492270231247 0.04332680255174637 1.1033388376235962
-0.22358599305152893 0.06721099466085434 1.0636576414108276
-0.19047734141349792 0.04332298785448074 1.112450361251831
-0.19852453470230103 0.060833148658275604 1.0814086198806763
-0.163605198264122 0.04859878867864609 1.1745421886444092
0.42160695791244507 -0.09457755088806152 1.0441597700119019
0.40745413303375244 -0.06064148247241974 1.527567744255066
0.48843711614608765 -0.13412857055664062 1.0051381587982178
0.44402948021888733 -0.10088271647691727 0.9876344799995422
0.45685914158821106 -0.1412772387266159 0.9824995398521423
0.4675109386444092 -0.1286374181509018 0.9759352803230286
0.44952476024627686 -0.10203169286251068 1.179032325744629
0.459964394569397 -0.17571625113487244 1.0057190656661987
0.4735409915447235 -0.1906827837228775 0.9504129886627197
0.45515361428260803 -0.211354598402977 0.9736941456794739
0.46133992075920105 -0.21165858209133148 0.9448713660240173
0.47930464148521423 -0.20132595300674438 0.8919320702552795
0.5144670605659485 -0.22225692868232727 0.6930208206176758
0.5260979533195496 -0.22952109575271606 0.6419131755828857
0.5552203059196472 -0.22101788222789764 0.6296746730804443
0.5108712911605835 -0.16199985146522522 0.9856753945350647
0.5219281911849976 -0.16499677300453186 0.9492460489273071
0.4977540075778961 -0.21660248935222626 0.9235257506370544
0.48846012353897095 -0.22569280862808228 0.8846967816352844
0.4737854301929474 -0.25125831365585327 0.85345458984375
0.4782136082649231 -0.13005784153938293 1.2904701232910156
0.5659146904945374 -0.1871994584798813 0.9174296855926514
0.5902635455131531 -0.20506122708320618 0.8705681562423706
0.5575802326202393 -0.18061459064483643 1.0421900749206543
0.607345461845398 -0.26932695508003235 0.6978300213813782
0.6164356470108032 -0.23324613273143768 0.6627396941184998
0.584114670753479 -0.21733590960502625 0.9000951051712036
0.5889804363250732 -0.23177047073841095 0.8491939306259155
0.6692292094230652 -0.18093572556972504 1.025810718536377
0.6208820343017578 -0.21544024348258972 0.9876969456672668
0.640245258808136 -0.1975584179162979 0.9819236993789673
0.6495068073272705 -0.23090891540050507 0.8525868058204651
0.6544854044914246 -0.21411867439746857 0.8626977205276489
-0.4613875150680542 0.13146334886550903 1.0142985582351685
-0.21474707126617432 -0.052663613110780716 0.520517885684967
-0.3359803557395935 -0.0033553577959537506 0.8323992490768433
-0.3154498338699341 -0.026348013430833817 0.8073444366455078
-0.3557547926902771 0.02914867177605629 0.8736586570739746
-0.4805982708930969 0.13324496150016785 1.3214116096496582
-0.33777743577957153 0.06257491558790207 0.9097367525100708
-0.32487988471984863 0.042044300585985184 0.883786678314209
-0.16467171907424927 -0.06816835701465607 0.5628036856651306
-0.1519501805305481 -0.04327929764986038 0.5585312247276306
-0.29282110929489136 -0.015428870916366577 0.8560373783111572
-0.2761083245277405 -0.037905268371105194 0.803730845451355
-0.2901711165904999 -0.03310343623161316 0.8459572792053223
-0.4618860185146332 0.11071500182151794 1.2763557434082031
-0.4098367393016815 0.11656569689512253 1.1766278743743896
-0.21265387535095215 0.07837657630443573 1.1804895401000977
0.1461959332227707 -0.01505360659211874 1.2260035276412964
0.13162024319171906 -0.026639044284820557 1.2335078716278076
0.2288195639848709 -0.05473456531763077 1.1743184328079224
0.23476141691207886 -0.0409938208758831 1.1038514375686646
0.3023872971534729 -0.042662475258111954 1.2147691249847412
0.3585217297077179 -0.07105324417352676 1.0985711812973022
0.34909117221832275 -0.0844748243689537 1.0841946601867676
0.4049077033996582 -0.10514521598815918 1.2279030084609985
0.4246912896633148 -0.11276116967201233 1.3066940307617188
0.44044259190559387 -0.1357252448797226 1.1239144802093506
0.46914970874786377 -0.24389955401420593 0.8584391474723816
0.5057108998298645 -0.23969273269176483 0.808616578578949
0.4925217032432556 -0.2656327486038208 0.7666066884994507
0.5149967074394226 -0.2494346797466278 0.7144781351089478
0.5129205584526062 -0.17635074257850647 1.0483037233352661
0.540041446685791 -0.2941358685493469 0.6441121101379395
-0.40271827578544617 0.05414403975009918 0.8634452819824219
-0.20591935515403748 -0.0298615712672472 0.714266300201416
-0.17890967428684235 -0.04459552466869354 0.663516640663147
-0.49167877435684204 0.13760489225387573 1.4263845682144165
-0.2442934811115265 0.061486564576625824 1.0451796054840088
-0.23123055696487427 0.05829615518450737 1.01611328125
-0.2196362316608429 0.052035581320524216 1.046517252922058
-0.1830628216266632 0.05968961864709854 1.0903332233428955
-0.14179793000221252 0.03972179442644119 1.2431738376617432
-0.14935916662216187 0.022433768957853317 1.243650197982788
0.35059237480163574 -0.07983767986297607 1.358828067779541
0.37624645233154297 -0.08666139096021652 1.4062983989715576
0.5102987885475159 -0.1500234156847 1.015421748161316
0.507161021232605 -0.14802658557891846 0.9411038756370544
0.46686848998069763 -0.15475617349147797 1.1203728914260864
0.487270712852478 -0.20969480276107788 0.8362115621566772
0.5299463272094727 -0.1659807562828064 1.0890157222747803
0.5218528509140015 -0.14864765107631683 1.1759246587753296
0.5993868708610535 -0.1918492615222931 1.012838363647461
0.5975725054740906 -0.20600692927837372 0.9504410624504089
0.6024230122566223 -0.2518075406551361 0.7849994897842407
0.5553172826766968 -0.26727497577667236 0.7030740976333618
0.617489755153656 -0.23098260164260864 0.7750436067581177
-0.21394023299217224 -0.07082939893007278 0.5467017889022827
-0.1738290786743164 -0.05024636536836624 0.5477746725082397
-0.27620360255241394 -0.04363285005092621 0.7553596496582031
-0.21415495872497559 -0.07153984904289246 0.6090513467788696
-0.17535191774368286 -0.06910789012908936 0.607252836227417
-0.28020501136779785 0.018805380910634995 0.9118446707725525
-0.23098543286323547 0.05454183742403984 1.190390944480896
-0.21688014268875122 0.05427439138293266 1.1377588510513306
-0.21458229422569275 0.0629892572760582 1.1104893684387207
-0.19967231154441833 0.041827864944934845 1.18593430519104
-0.17058596014976501 0.028440333902835846 1.1209174394607544
-0.1659480184316635 0.0438695102930069 1.1094608306884766
0.23891381919384003 -0.024907007813453674 1.109736442565918
0.44537442922592163 -0.14921146631240845 1.0524319410324097
0.47573816776275635 -0.18283334374427795 1.0461593866348267
0.48576968908309937 -0.19817084074020386 1.0037846565246582
0.5731335878372192 -0.24641664326190948 0.8356643915176392
-0.27589330077171326 -0.028630604967474937 0.6136282682418823
-0.26520389318466187 -0.05380479246377945 0.5827365517616272
-0.2592475116252899 -0.043520499020814896 0.5768877267837524
-0.3044587969779968 0.03364787623286247 0.7970722913742065
-0.2588164210319519 -0.02722984179854393 0.7747035622596741
-0.2748884856700897 -0.028335418552160263 0.8258621096611023
-0.1681707501411438 0.03436414897441864 1.205130696296692
-0.14080165326595306 0.031846970319747925 1.3126769065856934
-0.12956243753433228 0.035461604595184326 1.3013638257980347
0.1326911598443985 -0.03532227501273155 1.2457268238067627
0.19433119893074036 -0.00799577310681343 1.6102710962295532
0.3502790331840515 -0.02608001045882702 1.5486570596694946
0.3717465400695801 -0.04670272767543793 1.5646065473556519
0.4202905297279358 -0.06377660483121872 1.4948445558547974
0.5643742084503174 -0.12188119441270828 1.2468122243881226
0.5893797278404236 -0.11931169778108597 1.2806133031845093
0.5878496766090393 -0.10527795553207397 1.22270929813385
0.5897319912910461 -0.13207614421844482 1.2060775756835938
0.617794394493103 -0.11868957430124283 1.2224621772766113
-0.45267629623413086 0.11218152940273285 0.9450043439865112
-0.43283942341804504 0.12153682112693787 0.9298402070999146
-0.5119258761405945 0.16332416236400604 1.1905895471572876
-0.491030752658844 0.16504544019699097 1.1769776344299316
-0.21263211965560913 -0.017797311767935753 0.56557297706604
-0.1939164698123932 -0.03442296013236046 0.526554524898529
-0.24725686013698578 -0.06831908226013184 0.6466637253761292
-0.28340065479278564 0.01838792860507965 0.7518318891525269
-0.3505393862724304 0.0752936601638794 0.9595215320587158
-0.48916637897491455 0.1438014954328537 1.476387858390808
0.23771201074123383 -0.03127496689558029 1.1739972829818726
0.2648571729660034 -0.02231977880001068 1.3924038410186768
0.3742169439792633 -0.07636718451976776 1.113937497138977
0.36517319083213806 -0.054244883358478546 1.2395594120025635
0.4098941683769226 -0.10164840519428253 1.0456929206848145
0.4256414771080017 -0.11724695563316345 0.9951938390731812
0.4142841398715973 -0.1319877654314041 1.0746901035308838
0.5057136416435242 -0.18630897998809814 0.7928082942962646
0.5100140571594238 -0.2011522501707077 0.78328937292099
0.5123195052146912 -0.2445593625307083 0.846683144569397
0.5854885578155518 -0.17636646330356598 1.0115649700164795
0.6094986200332642 -0.19700782001018524 0.7965770363807678
-0.23338620364665985 -0.059142738580703735 0.5518370866775513
-0.18773137032985687 -0.05969877168536186 0.517481803894043
-0.21747222542762756 0.07140649855136871 1.0189069509506226
-0.19156649708747864 0.07102802395820618 1.109656810760498
-0.17045901715755463 0.0401134192943573 1.1629033088684082
0.5837689638137817 -0.19036094844341278 0.831649899482727
0.6029907464981079 -0.2422548234462738 0.6029388904571533
0.6081176996231079 -0.2460898905992508 0.6170345544815063
-0.30305832624435425 -0.030635954812169075 0.7905109524726868
-0.2293834388256073 -0.02863282524049282 0.725407600402832
-0.21167521178722382 -0.052160609513521194 0.6842741966247559
0.4524554908275604 -0.08271093666553497 1.4186664819717407
0.61720210313797 -0.22296178340911865 0.609492301940918
0.6281833648681641 -0.22101134061813354 0.9151632189750671
-0.232503280043602 0.08755842596292496 1.2548984289169312
0.6148882508277893 -0.1890626847743988 1.002981185913086
-0.23867282271385193 -0.0033072493970394135 0.79933762550354
0.5162967443466187 -0.27426379919052124 0.6607906222343445
0.6015346646308899 -0.18473002314567566 0.9923614263534546
-0.2929445803165436 -0.056910786777734756 0.7572367191314697
-0.3547646403312683 -0.11533463001251221 0.956226110458374
-0.3613446354866028 -0.11172652244567871 0.9661938548088074
-0.34360501170158386 -0.13417667150497437 0.9649513363838196
-0.35341134667396545 -0.13147476315498352 0.9738128781318665
-0.3305741846561432 -0.08897434920072556 1.0237435102462769
-0.33685582876205444 -0.10224614292383194 1.0026376247406006
-0.3269761800765991 -0.0927906259894371 0.973463773727417
-0.32401740550994873 -0.06525901705026627 1.0058164596557617
-0.3275519013404846 -0.11832068860530853 1.0062967538833618
-0.33069369196891785 -0.1448734700679779 0.9950767755508423
-0.31351420283317566 -0.05975976213812828 1.0826215744018555
-0.3116626441478729 -0.14463426172733307 0.997870683670044
-0.3244199752807617 -0.11158976703882217 0.9983466267585754
-0.31433045864105225 -0.12872064113616943 1.0331703424453735
-0.31352174282073975 -0.1057419627904892 1.0280885696411133
-0.30196455121040344 -0.04825959354639053 1.053881049156189
-0.30730974674224854 -0.09624741226434708 1.0266895294189453
-0.3069504201412201 -0.10407251864671707 1.051193118095398
-0.3101736903190613 -0.08281911909580231 1.079380989074707
-0.32465898990631104 -0.046085938811302185 1.1136112213134766
-0.3190946578979492 -0.0951140969991684 1.107477068901062
-0.29013267159461975 0.0010683173313736916 1.140592336654663
-0.29725998640060425 -0.010152287781238556 1.0985674858093262
-0.3149041533470154 -0.047616396099328995 1.1477259397506714
-0.26635441184043884 -0.007469189818948507 1.0881075859069824
-0.27184465527534485 -0.03340066969394684 1.1976075172424316
-0.28921347856521606 -0.09151190519332886 1.1551191806793213
-0.26563212275505066 0.010024311020970345 1.1313074827194214
-0.2370568960905075 0.0016674008220434189 1.1417410373687744
-0.23924162983894348 0.007394285872578621 1.1976698637008667
-0.21685296297073364 0.007231287658214569 1.1967082023620605
-0.2139386534690857 -0.045677900314331055 1.266286849975586
-0.2538759112358093 -0.07392939925193787 1.2001148462295532
-0.2073996514081955 0.011051669716835022 1.2402609586715698
-0.23529191315174103 -0.015298375859856606 1.2463570833206177
-0.1960279792547226 0.006513282656669617 1.278059720993042
-0.1820249855518341 0.0034614019095897675 1.3130872249603271
-0.17757581174373627 -0.04313982278108597 1.3181462287902832
-0.20938293635845184 -0.08371239900588989 1.2244834899902344
-0.18055963516235352 0.04026255011558533 1.6961909532546997
-0.12151995301246643 0.09325829148292542 1.381608247756958
-0.12834028899669647 0.06584662199020386 0.8601438999176025
-0.17400498688220978 0.016087019816040993 0.8679761290550232
-0.1504172533750534 -0.07643573731184006 0.8717507123947144
-0.19366875290870667 -0.10438063740730286 0.8632909059524536
-0.16242709755897522 0.05563592538237572 1.6084401607513428
-0.18939141929149628 0.0297015942633152 1.7168819904327393
-0.15650783479213715 0.03509936481714249 1.6694128513336182
-0.1360144317150116 0.06593375653028488 1.6246929168701172
-0.14618058502674103 0.047350745648145676 1.573010802268982
-0.11541080474853516 -0.0032755881547927856 1.027838945388794
-0.15345460176467896 -0.049675364047288895 0.9914355278015137
-0.1601557433605194 -0.11728706955909729 0.978130578994751
-0.14550361037254333 0.0298616886138916 1.5071690082550049
-0.27970781922340393 -0.06638407707214355 0.0564870685338974
-0.29492396116256714 -0.12783700227737427 0.024641375988721848
-0.29967066645622253 -0.1515168994665146 0.04307255893945694
-0.15080641210079193 -0.033601708710193634 1.365553379058838
-0.13994067907333374 0.006965700536966324 1.315266728401184
-0.13500137627124786 -0.01872773841023445 1.2952936887741089
-0.15939629077911377 -0.04418199136853218 1.3534600734710693
-0.14298364520072937 -0.08675194531679153 1.308315634727478
-0.21937863528728485 -0.031065352261066437 0.4727950096130371
-0.2193441092967987 -0.05912220478057861 0.3883134424686432
-0.23195558786392212 -0.0064713191241025925 0.3277686536312103
-0.23809359967708588 -0.033816833049058914 0.3549487590789795
-0.14960163831710815 0.04489349201321602 1.6394860744476318
-0.13762937486171722 -0.05802907794713974 1.2633336782455444
-0.14134575426578522 -0.06633175909519196 1.2222031354904175
-0.14452406764030457 -0.09065307676792145 1.2515524625778198
-0.16794322431087494 -0.10350382328033447 1.2515289783477783
-0.22728027403354645 0.0036561726592481136 0.25311845541000366
-0.14881137013435364 -0.03272140771150589 1.5004442930221558
-0.1316574215888977 0.03531220927834511 1.5079104900360107
-0.1410008817911148 0.006016232073307037 1.4994899034500122
-0.1889369934797287 -0.06814181804656982 0.5711265206336975
-0.10478165745735168 0.024633921682834625 1.7293367385864258
-0.12874449789524078 -0.11062424629926682 1.1904411315917969
-0.11682812869548798 -0.03884768858551979 1.1425912380218506
-0.13231989741325378 -0.12598609924316406 0.7399405241012573
-0.10463108122348785 0.0740886703133583 1.6842364072799683
-0.1299770623445511 -0.06338180601596832 1.3759753704071045
-0.10247741639614105 -0.11935226619243622 0.8457398414611816
-0.13771501183509827 -0.13072142004966736 0.8670195937156677
-0.12246762216091156 -0.19647592306137085 0.9063732624053955
-0.10540126264095306 -0.21248307824134827 0.845091700553894
-0.27286118268966675 -0.18924637138843536 0.06179118901491165
-0.06864132732152939 0.09042391180992126 1.6841094493865967
-0.0985383465886116 0.03445489704608917 1.7144603729248047
-0.14725841581821442 -0.009623527526855469 1.4157953262329102
-0.13050046563148499 -0.0346703976392746 1.4591948986053467
-0.1977134495973587 0.014472393319010735 0.32217976450920105
-0.22495828568935394 -0.009779348038136959 0.20522557199001312
-0.2625667154788971 -0.18521606922149658 0.10459272563457489
-0.22944530844688416 -0.002638109028339386 0.06194228678941727
-0.10983248054981232 -0.015380851924419403 1.3007053136825562
-0.1697489470243454 -0.09436669200658798 0.5439406037330627
-0.2280452400445938 -0.15025536715984344 0.003100881353020668
-0.2682221531867981 -0.15100523829460144 6.648676935583353e-05
-0.09841927140951157 0.025424819439649582 1.522770881652832
-0.1057995855808258 -0.002405904233455658 1.480188012123108
-0.032950788736343384 -0.2144966721534729 0.8992941379547119
-0.07784053683280945 0.0885869488120079 0.8583418726921082
-0.22439824044704437 -0.11207784712314606 0.2652355432510376
-0.20166407525539398 -0.10865464806556702 0.18929722905158997
-0.20804890990257263 -0.010941531509160995 0.10482489317655563
-0.09508608281612396 -0.014974955469369888 1.2667462825775146
-0.10438717156648636 -0.03358875587582588 1.2267695665359497
-0.07837820798158646 -0.1329861581325531 1.2894341945648193
-0.13649515807628632 -0.027365701273083687 0.6638476252555847
-0.1156645193696022 -0.12807664275169373 0.7327713966369629
-0.07266498357057571 -0.11894669383764267 0.8078094720840454
-0.19252683222293854 -0.11660169064998627 0.15545079112052917
-0.2157583087682724 -0.17958199977874756 0.06855522841215134
-0.12567196786403656 -0.08550886809825897 1.4511035680770874
-0.09374572336673737 -0.007025737315416336 1.334815263748169
-0.06527446955442429 -0.012185763567686081 1.2734613418579102
-0.1393297016620636 -0.09599356353282928 0.5665861964225769
-0.11804882436990738 -0.07667900621891022 0.5662670135498047
-0.15559032559394836 0.019480369985103607 0.5095773339271545
-0.0994255319237709 -0.07291270792484283 1.4224697351455688
-0.07208819687366486 -0.036842454224824905 1.4087505340576172
-0.10022981464862823 0.007312942296266556 1.3744263648986816
-0.12936973571777344 -0.018125712871551514 0.515097975730896
-0.05672692134976387 0.04468659311532974 1.720468282699585
-0.12223374843597412 -0.12689636647701263 1.5779805183410645
-0.038834962993860245 -0.18802940845489502 0.9750893115997314
-0.07767744362354279 -0.046823516488075256 1.4214363098144531
-0.05831063538789749 -0.07562638074159622 1.4060128927230835
-0.07799036800861359 -0.05941237136721611 1.3998310565948486
-0.07141518592834473 -0.12658309936523438 1.5129162073135376
-0.10675626993179321 -0.11582916975021362 1.4622242450714111
-0.051755599677562714 -0.017948651686310768 1.4324142932891846
-0.09996818006038666 -0.04182662442326546 0.6344563961029053
-0.0178692489862442 -0.0011731237173080444 1.7377599477767944
-0.02471792697906494 0.0993095263838768 1.6565568447113037
-0.06131703034043312 -0.14273275434970856 1.4635910987854004
-0.07347066700458527 -0.11737651377916336 1.4203816652297974
-0.035859957337379456 -0.027995947748422623 1.4086477756500244
-0.047803182154893875 -0.12315237522125244 1.4219692945480347
-0.007718287408351898 -0.010734803974628448 1.3874098062515259
-0.02614271081984043 -0.02676556073129177 1.2658777236938477
-0.01256626844406128 0.05072757601737976 1.7181034088134766
-0.018137531355023384 -0.029322799295186996 1.4354181289672852
-0.024053994566202164 -0.07034769654273987 1.4205482006072998
0.017085503786802292 0.0634184256196022 1.683151364326477
-0.006124585866928101 0.007881790399551392 1.7223711013793945
-0.019977889955043793 -0.06239907816052437 1.4104902744293213
0.009121417999267578 -0.09273172169923782 1.4438024759292603
-0.01330132968723774 -0.04362481087446213 1.4152891635894775
0.07449385523796082 -0.0912780836224556 0.5868330001831055
0.014077052474021912 -0.007439136505126953 1.4676105976104736
0.11063389480113983 -0.11219152808189392 0.5034795999526978
-0.008629354648292065 -0.17138507962226868 1.2493221759796143
0.04340841993689537 -0.05797599256038666 1.244109034538269
0.04497211426496506 -0.07866323739290237 1.1361488103866577
0.14269553124904633 -0.15419261157512665 0.06858471781015396
0.15846769511699677 -0.14880019426345825 0.04658538103103638
0.12906962633132935 -0.015678007155656815 0.07096759974956512
0.005583235993981361 -0.15599805116653442 1.2362228631973267
-0.003436928614974022 -0.19271397590637207 1.161645531654358
0.06934327632188797 -0.1406417340040207 0.7258225083351135
0.12553954124450684 -0.07153034210205078 0.04536978155374527
0.04053786024451256 -0.0015774033963680267 1.6824393272399902
-0.006780736148357391 -0.14044219255447388 1.5852798223495483
-0.00797363743185997 -0.12291179597377777 1.5035066604614258
-0.008069649338722229 -0.12270669639110565 1.4611454010009766
0.09535405039787292 -0.16223007440567017 0.8726515769958496
0.08771663159132004 -0.012593921273946762 1.7106375694274902
0.019422026351094246 -0.008824266493320465 1.5168465375900269
0.017025604844093323 -0.02973010390996933 1.4878486394882202
0.1327560991048813 -0.0265249814838171 0.3211769759654999
0.12518946826457977 -0.01950867287814617 0.25856947898864746
0.14177599549293518 -0.008161097764968872 0.051931533962488174
0.032461829483509064 -0.01565415784716606 1.764054536819458
0.04936263710260391 -0.031830281019210815 1.3860996961593628
0.09642515331506729 -0.21939998865127563 0.8595058917999268
0.08582528680562973 -0.1327477991580963 0.8590946197509766
0.12714804708957672 -0.1962210237979889 0.8606916666030884
0.09395171701908112 -0.039762116968631744 0.7471266388893127
0.1841667741537094 -0.14904123544692993 0.059326257556676865
0.05133058875799179 -0.012410204857587814 1.6931686401367188
0.031664323061704636 -0.1654466688632965 1.1306748390197754
0.032964251935482025 -0.1453072726726532 1.2522226572036743
0.03251910209655762 -0.16195443272590637 1.2496638298034668
0.12419050931930542 -0.19040319323539734 0.927547812461853
0.036514218896627426 -0.08149708807468414 1.5256500244140625
0.047980234026908875 -0.009331408888101578 1.5291290283203125
0.04361380636692047 -0.034307606518268585 1.513796329498291
0.04851600527763367 -0.04971962794661522 1.5092703104019165
0.054359808564186096 -0.0622289776802063 1.4860646724700928
0.13404659926891327 -0.06601705402135849 0.6450688242912292
0.1319112777709961 -0.1311996728181839 0.6642286777496338
0.05835928022861481 -0.06921043992042542 1.3695639371871948
0.06474781781435013 -0.02631683647632599 1.3098361492156982
0.034916654229164124 -0.026919472962617874 1.3289117813110352
0.04289235919713974 -0.046216368675231934 1.304100513458252
0.12208335101604462 -0.11941835284233093 0.8268148303031921
0.18662357330322266 -0.029043950140476227 0.0547989085316658
0.1988898068666458 -0.054224271327257156 0.051527682691812515
0.05864840745925903 -0.01984439417719841 1.6481517553329468
0.0729295164346695 -0.0438685342669487 1.3616188764572144
0.19551753997802734 -0.07404595613479614 0.30671924352645874
0.08438163250684738 -0.004068449139595032 1.6256881952285767
0.06314617395401001 0.022758498787879944 1.6312230825424194
0.07068228721618652 -0.005846243351697922 1.594853162765503
0.2020486742258072 -0.057273201644420624 0.12899203598499298
0.20878149569034576 -0.1155095100402832 0.058688703924417496
0.19742251932621002 -0.143192321062088 0.08760987222194672
0.15142542123794556 -0.017089731991291046 0.9668431282043457
0.14840534329414368 -0.017267439514398575 0.8680391311645508
0.08461897820234299 -0.02853786200284958 1.7054246664047241
0.16578301787376404 0.03596755862236023 0.8743587136268616
0.17852121591567993 -0.0006531709805130959 0.9370120763778687
0.0870322734117508 -0.037731900811195374 1.3044079542160034
0.09493128955364227 -0.0591270849108696 1.2915165424346924
0.06831299513578415 -0.07156684994697571 1.3398020267486572
0.09618213772773743 -0.04947102442383766 1.250551462173462
0.08599546551704407 -0.05133434385061264 1.2307512760162354
0.09328795969486237 -0.12557274103164673 1.2214471101760864
0.10791362822055817 -0.083396315574646 1.2526061534881592
0.12758712470531464 -0.06540223211050034 1.1859469413757324
0.13925783336162567 -0.07570874691009521 1.1111295223236084
0.1630406677722931 -0.09006936103105545 1.124395728111267
0.1514706164598465 -0.10111024975776672 1.176491618156433
0.12225354462862015 -0.13231712579727173 1.1972936391830444
0.1647891253232956 -0.11626052856445312 1.074042558670044
0.17931649088859558 -0.1740090250968933 1.1292486190795898
0.18740592896938324 -0.15571661293506622 1.1086922883987427
0.17951691150665283 -0.13134470582008362 1.0819132328033447
0.1338910013437271 -0.20770202577114105 1.1160812377929688
0.15834183990955353 -0.18142852187156677 1.0823087692260742
0.1596241295337677 -0.16422615945339203 1.067145586013794
0.1882338523864746 -0.24864152073860168 0.9726606607437134
0.13678240776062012 -0.1954183429479599 1.0835425853729248
0.13707244396209717 -0.2150377631187439 1.0555176734924316
0.17598100006580353 -0.19921766221523285 1.0001929998397827
0.1411905735731125 -0.20532722771167755 1.029887080192566
0.13353148102760315 -0.23077353835105896 1.0346879959106445
0.15636852383613586 -0.2296929955482483 1.0057100057601929
0.17213281989097595 -0.23557335138320923 1.001761794090271
0.12830619513988495 -0.25074419379234314 1.0106269121170044
0.15045954287052155 -0.24823039770126343 1.0015265941619873
0.13908028602600098 -0.2472722828388214 1.0104403495788574
0.18114547431468964 -0.25359290838241577 0.9537099599838257
0.14413346350193024 -0.2620760202407837 0.9985355138778687
0.1661442667245865 -0.23653924465179443 0.9671391248703003
0.16586565971374512 -0.26810675859451294 0.967158317565918
0.1806090772151947 -0.2632368803024292 0.969657838344574
-0.302135169506073 -0.04014004394412041 1.0775907039642334
-0.2958580553531647 -0.09323518723249435 1.0645004510879517
-0.28192850947380066 -0.07780683785676956 1.0621209144592285
-0.3006378710269928 -0.1098996102809906 1.0997802019119263
