-0.6510969996452332 -0.17744441330432892 1.2052052021026611
-0.6449239253997803 -0.1461251676082611 1.1246272325515747
-0.6853669285774231 -0.13508643209934235 1.0771621465682983
-0.6799470782279968 -0.1562996506690979 1.064630150794983
-0.4432334899902344 -0.1025342121720314 1.41546630859375
-0.5712023973464966 -0.09814794361591339 1.1340675354003906
-0.5075334310531616 -0.11243300139904022 1.1610311269760132
-0.5303297638893127 -0.07339736074209213 1.1210503578186035
-0.41559165716171265 -0.05719490721821785 1.1460227966308594
-0.4589991867542267 -0.05174570530653 1.1253056526184082
-0.332597017288208 -0.026673655956983566 1.203263282775879
0.663245677947998 -0.13341212272644043 1.161769151687622
0.558435320854187 -0.12656167149543762 1.660885214805603
0.7665292620658875 -0.14762350916862488 1.151229977607727
0.7057251334190369 -0.13227683305740356 1.1145424842834473
0.7430479526519775 -0.17265945672988892 1.1218502521514893
0.7497018575668335 -0.15235517919063568 1.112877368927002
0.6737167239189148 -0.1301712691783905 1.3093574047088623
0.7601342797279358 -0.21019184589385986 1.1545932292938232
0.7982129454612732 -0.21882416307926178 1.1047310829162598
0.7864574193954468 -0.24992865324020386 1.1266753673553467
0.7995345592498779 -0.25062036514282227 1.1003780364990234
0.8229445815086365 -0.2278406172990799 1.0485808849334717
0.9144501090049744 -0.23531782627105713 0.8595165014266968
0.9404079914093018 -0.23404501378536224 0.8148924112319946
0.9674195051193237 -0.21624839305877686 0.8090099096298218
0.8103837370872498 -0.1703653633594513 1.143693447113037
0.8332535028457642 -0.16584241390228271 1.1104323863983154
0.8443330526351929 -0.24148905277252197 1.089347243309021
0.8493612408638 -0.24873584508895874 1.047871708869934
0.8590679168701172 -0.29080310463905334 1.02194082736969
0.6996921896934509 -0.14987115561962128 1.435262680053711
0.9039449095726013 -0.17650353908538818 1.0946508646011353
0.9435834288597107 -0.18050739169120789 1.0575156211853027
0.8613743782043457 -0.1745470017194748 1.218897819519043
1.0436854362487793 -0.24784716963768005 0.904780387878418
1.035154104232788 -0.19911274313926697 0.8628559708595276
0.9411138892173767 -0.19748324155807495 1.0892889499664307
0.9631485342979431 -0.21302182972431183 1.040672779083252
0.9822789430618286 -0.1246035173535347 1.233092188835144
0.9561633467674255 -0.18346257507801056 1.1869879961013794
0.9730600714683533 -0.15220679342746735 1.1829445362091064
1.0323059558868408 -0.18825051188468933 1.0638881921768188
1.0208256244659424 -0.1676916629076004 1.06804621219635
-0.8605397939682007 -0.17585483193397522 1.28724205493927
-0.9932774901390076 -0.28472092747688293 0.7625125050544739
-0.8425477147102356 -0.26537036895751953 1.048228144645691
-0.8378119468688965 -0.2857682406902313 1.0111546516418457
-0.8431450724601746 -0.2395593822002411 1.0959447622299194
-0.6391614675521851 -0.15655042231082916 1.5170202255249023
-0.8159041404724121 -0.19045108556747437 1.1175339221954346
-0.8200550079345703 -0.20664893090724945 1.0809037685394287
-0.9069798588752747 -0.26869046688079834 0.7452046871185303
-0.91154944896698 -0.23074619472026825 0.7399049401283264
-0.7853037714958191 -0.2528526484966278 1.0247794389724731
-0.8031651973724365 -0.27487972378730774 0.9784361720085144
-0.7759014964103699 -0.27331680059432983 1.0130280256271362
-0.638256847858429 -0.1699991524219513 1.4659099578857422
-0.676511287689209 -0.14070113003253937 1.3460253477096558
-0.401907354593277 -0.031032651662826538 1.2306852340698242
0.22226440906524658 -0.04343300685286522 1.288433313369751
0.2080070674419403 -0.05777139216661453 1.2935205698013306
0.35711556673049927 -0.10011876374483109 1.2419607639312744
0.3645033538341522 -0.07457397133111954 1.1698917150497437
0.4412800371646881 -0.08499450981616974 1.3016011714935303
0.5423887968063354 -0.10516919195652008 1.1903702020645142
0.5417468547821045 -0.12144589424133301 1.1734462976455688
0.6131272315979004 -0.15101005136966705 1.3455498218536377
0.6315464973449707 -0.16247005760669708 1.433552861213684
0.6961216926574707 -0.17389383912086487 1.2584723234176636
0.8481981158256531 -0.2768610119819641 1.0204482078552246
0.885796844959259 -0.25365984439849854 0.9774086475372314
0.9048814177513123 -0.29708120226860046 0.9403735399246216
0.9256188273429871 -0.26486286520957947 0.8871172070503235
0.811975359916687 -0.18551161885261536 1.2114063501358032
0.9985952973365784 -0.3011428713798523 0.8368677496910095
-0.9063599705696106 -0.2379206120967865 1.1319992542266846
-0.8285794854164124 -0.23346474766731262 0.8781348466873169
-0.8498035073280334 -0.23816832900047302 0.8233020305633545
-0.5896890759468079 -0.14834192395210266 1.61948561668396
-0.5664911270141602 -0.09806511551141739 1.1180899143218994
-0.567997932434082 -0.09675176441669464 1.085147738456726
-0.5257484912872314 -0.09036380797624588 1.1062381267547607
-0.4331076741218567 -0.043663397431373596 1.1258208751678467
-0.23551326990127563 -0.016626255586743355 1.281933307647705
-0.23390749096870422 -0.038295622915029526 1.2851862907409668
0.5140845775604248 -0.13907288014888763 1.4656976461410522
0.5425986647605896 -0.14340804517269135 1.527348279953003
0.8003965616226196 -0.15820932388305664 1.1717381477355957
0.8087547421455383 -0.1551402062177658 1.0912830829620361
0.7341126799583435 -0.18160435557365417 1.2664730548858643
0.8470923900604248 -0.23163539171218872 0.995114266872406
0.8169270753860474 -0.16904039680957794 1.2554062604904175
0.7787315249443054 -0.15077190101146698 1.335233211517334
0.9183273911476135 -0.16349434852600098 1.2030322551727295
0.9357209205627441 -0.1794990599155426 1.1409053802490234
1.004077434539795 -0.2260042130947113 0.9876302480697632
0.9815711379051208 -0.2666691541671753 0.8928771018981934
1.0144213438034058 -0.20031318068504333 0.9788072109222412
-0.9554708003997803 -0.30442437529563904 0.7723002433776855
-0.9368311166763306 -0.2527768313884735 0.7467082738876343
-0.8389243483543396 -0.2877506613731384 0.9493609666824341
-0.903048038482666 -0.29677754640579224 0.8104110956192017
-0.8733921051025391 -0.2773689031600952 0.7772050499916077
-0.7466690540313721 -0.20443056523799896 1.0657658576965332
-0.4072463810443878 -0.07085081934928894 1.2435382604599
-0.4340807795524597 -0.07041376829147339 1.182584285736084
-0.46134570240974426 -0.061219971626996994 1.1589064598083496
-0.3598175644874573 -0.05737483128905296 1.2245218753814697
-0.3757861256599426 -0.05970598757266998 1.148899793624878
-0.3903607726097107 -0.04314024746417999 1.1378839015960693
0.36585530638694763 -0.05520673096179962 1.1789332628250122
0.7255364656448364 -0.19111524522304535 1.1895805597305298
0.7764764428138733 -0.21168477833271027 1.2008754014968872
0.8026416897773743 -0.22318263351917267 1.1609978675842285
0.9621129631996155 -0.23649850487709045 1.0277694463729858
-0.975168764591217 -0.2814916968345642 0.8675383925437927
-0.9785088896751404 -0.3092538118362427 0.8344137072563171
-0.9840455055236816 -0.29581889510154724 0.8288094997406006
-0.8670293092727661 -0.21231497824192047 1.0165348052978516
-0.8151131868362427 -0.26153460144996643 0.9509421586990356
-0.7871650457382202 -0.2597721219062805 0.9919574856758118
-0.29774197936058044 -0.039360806345939636 1.2409679889678955
-0.16141687333583832 -0.02958700805902481 1.3807644844055176
-0.15563364326953888 -0.014497129246592522 1.3695052862167358
0.20659171044826508 -0.06911182403564453 1.3062505722045898
0.2777601182460785 -0.12195504456758499 1.7101857662200928
0.4782257676124573 -0.10339002311229706 1.673084020614624
0.5077990293502808 -0.12289587408304214 1.6949489116668701
0.5765529274940491 -0.11944562196731567 1.6326048374176025
0.7931951284408569 -0.10443621873855591 1.4134011268615723
0.8150907754898071 -0.09206195175647736 1.4567103385925293
0.8154706358909607 -0.07524372637271881 1.3934897184371948
0.8337721228599548 -0.10317223519086838 1.3824925422668457
0.8526224493980408 -0.07497486472129822 1.4013116359710693
-0.9020061492919922 -0.19495578110218048 1.2339903116226196
-0.9119148254394531 -0.17875546216964722 1.2150015830993652
-0.7763658761978149 -0.14983126521110535 1.4391591548919678
-0.7644752264022827 -0.1396377980709076 1.4175277948379517
-0.9690204858779907 -0.23764833807945251 0.7948482632637024
-0.9816833138465881 -0.24860605597496033 0.7532631158828735
-0.8998483419418335 -0.3065342307090759 0.854730486869812
-0.8791066408157349 -0.2242579460144043 0.9655137658119202
-0.7891194820404053 -0.175881028175354 1.1584564447402954
-0.5533137321472168 -0.13548123836517334 1.6607639789581299
0.3572377562522888 -0.06711183488368988 1.2439181804656982
0.36742815375328064 -0.07218465209007263 1.4845380783081055
0.5756018161773682 -0.11771828681230545 1.2121626138687134
0.5275142192840576 -0.09512106329202652 1.3352257013320923
0.6539101600646973 -0.1453719437122345 1.1606426239013672
0.6934788227081299 -0.1602291762828827 1.1204544305801392
0.6715373992919922 -0.18139299750328064 1.1981372833251953
0.8602210283279419 -0.19834832847118378 0.9492427706718445
0.8772600889205933 -0.2152889221906662 0.9435528516769409
0.8908894658088684 -0.2628251314163208 1.0218583345413208
0.8916015028953552 -0.14956803619861603 1.192570447921753
0.9791987538337708 -0.16259479522705078 0.9874951243400574
-0.9772430658340454 -0.297212153673172 0.7917775511741638
-0.9698065519332886 -0.2775578796863556 0.7388447523117065
-0.5636484026908875 -0.07680897414684296 1.0862493515014648
-0.4396606385707855 -0.03693094849586487 1.1496611833572388
-0.34757137298583984 -0.042351577430963516 1.1915066242218018
0.9403166770935059 -0.17295625805854797 1.0127846002578735
1.0378328561782837 -0.21986232697963715 0.7988322973251343
1.0456117391586304 -0.2210705727338791 0.8182054758071899
-0.8343527913093567 -0.285444051027298 0.9873485565185547
-0.8328313827514648 -0.24325715005397797 0.8999865055084229
-0.8454559445381165 -0.26820605993270874 0.8579937219619751
0.6316243410110474 -0.11930668354034424 1.557321310043335
1.0439677238464355 -0.19349829852581024 0.8064545392990112
0.9857945442199707 -0.18477772176265717 1.1177104711532593
-0.3682968020439148 -0.033721353858709335 1.3191475868225098
0.9337306618690491 -0.15008553862571716 1.1954561471939087
-0.7938722372055054 -0.2193567156791687 0.9624155759811401
0.9565192461013794 -0.29291054606437683 0.8396456837654114
0.9246177673339844 -0.16087202727794647 1.1803536415100098
-0.8452918529510498 -0.3115478456020355 0.9573739767074585
-0.37578898668289185 -0.03943072259426117 0.8551339507102966
-0.3844452500343323 -0.03774263709783554 0.8666399717330933
-0.36883780360221863 -0.07291088253259659 0.8626022934913635
-0.3809977173805237 -0.06851418316364288 0.871806800365448
-0.35152381658554077 -0.03937250375747681 0.9456266164779663
-0.35903581976890564 -0.04888525977730751 0.9173731207847595
-0.3372539281845093 -0.020269915461540222 0.8913124203681946
-0.332260400056839 -0.006811627186834812 0.9374058246612549
-0.35087454319000244 -0.07378210127353668 0.9246929287910461
-0.35926610231399536 -0.10490787029266357 0.9048342704772949
-0.3308168649673462 -0.030938351526856422 1.0293365716934204
-0.3341515064239502 -0.10773836076259613 0.9131079912185669
-0.34213006496429443 -0.05899311229586601 0.9155702590942383
-0.3379213213920593 -0.1043429896235466 0.9614372253417969
-0.328723669052124 -0.06828013062477112 0.954673171043396
-0.30698952078819275 -0.003004484809935093 1.0061067342758179
-0.31889283657073975 -0.057053565979003906 0.9606224298477173
-0.3261204659938812 -0.08070062845945358 0.9841862916946411
-0.33465906977653503 -0.06270754337310791 1.0207115411758423
-0.3459848463535309 -0.025459052994847298 1.0645222663879395
-0.3492879867553711 -0.08749419450759888 1.046995997428894
-0.2921884059906006 0.019596435129642487 1.1178641319274902
-0.29801738262176514 0.028444413095712662 1.066170573234558
-0.3416312634944916 -0.04671715945005417 1.1011030673980713
-0.2532685399055481 0.02958122454583645 1.065773367881775
-0.28415951132774353 -0.05957622826099396 1.1812150478363037
-0.314585417509079 -0.11220087110996246 1.1131271123886108
-0.25443825125694275 0.033118292689323425 1.1159595251083374
-0.2159840166568756 0.01406075619161129 1.1397382020950317
-0.23033766448497772 -0.00423634797334671 1.2020741701126099
-0.19998694956302643 -0.007619444280862808 1.2127001285552979
-0.20849677920341492 -0.10912628471851349 1.2778618335723877
-0.2630249857902527 -0.11319361627101898 1.1839905977249146
-0.20033857226371765 -0.025034917518496513 1.262873649597168
-0.2335197776556015 -0.05910477787256241 1.2544541358947754
-0.19092966616153717 -0.042058315128088 1.306899905204773
-0.17973431944847107 -0.056867148727178574 1.3474012613296509
-0.16993194818496704 -0.1116996556520462 1.345384955406189
-0.19890674948692322 -0.14204829931259155 1.2263092994689941
-0.1887265294790268 0.013825487345457077 1.7775670289993286
-0.1643267422914505 0.02873411774635315 1.4177796840667725
-0.13950303196907043 0.06734289973974228 0.8623744249343872
-0.18289071321487427 0.019650381058454514 0.8567387461662292
-0.15599483251571655 -0.07383077591657639 0.8658154010772705
-0.20067916810512543 -0.10486830770969391 0.8527605533599854
-0.17551572620868683 0.016476642340421677 1.6746890544891357
-0.19141224026679993 0.001982070505619049 1.805778980255127
-0.160090371966362 0.008903592824935913 1.747698187828064
-0.14709283411502838 0.03500507026910782 1.6862208843231201
-0.15569201111793518 0.008132845163345337 1.63909113407135
-0.12426335364580154 -0.005902377888560295 1.0524200201034546
-0.15885694324970245 -0.06056972220540047 1.0120344161987305
-0.1594722867012024 -0.1311173141002655 0.9982001781463623
-0.1480373740196228 -0.023973673582077026 1.5707077980041504
-0.17783331871032715 0.17344515025615692 0.09703267365694046
-0.18659915030002594 0.1341589391231537 0.0569867268204689
-0.19080354273319244 0.11100002378225327 0.06314940005540848
-0.13524129986763 -0.10675480216741562 1.4051439762115479
-0.13050217926502228 -0.04651188105344772 1.358705759048462
-0.12014340609312057 -0.06945077329874039 1.3356913328170776
-0.14466984570026398 -0.11968791484832764 1.3879897594451904
-0.12089621275663376 -0.14989297091960907 1.3381096124649048
-0.16271644830703735 -0.018181681632995605 0.47617307305336
-0.15916147828102112 -0.00777393626049161 0.3870636224746704
-0.16316023468971252 0.06450595706701279 0.3494333326816559
-0.17017140984535217 0.030021097511053085 0.36690956354141235
-0.15574681758880615 0.013717103749513626 1.7122493982315063
-0.11841471493244171 -0.10612325370311737 1.296675682067871
-0.12420287728309631 -0.10520364344120026 1.2548185586929321
-0.12082643806934357 -0.14615489542484283 1.276710033416748
-0.14644008874893188 -0.1660766452550888 1.2702455520629883
-0.14960309863090515 0.10128656029701233 0.29448843002319336
-0.13492095470428467 -0.09600543975830078 1.5802483558654785
-0.13959583640098572 -0.01823953352868557 1.5690778493881226
-0.14032648503780365 -0.05151648074388504 1.5689504146575928
-0.14114464819431305 -0.09130290895700455 0.548197329044342
-0.09762905538082123 0.016360364854335785 1.8160043954849243
-0.10652835667133331 -0.14574415981769562 1.217214822769165
-0.11757947504520416 -0.05325113236904144 1.1778929233551025
-0.11247130483388901 -0.1320134699344635 0.7341569066047668
-0.1106157973408699 0.06328066438436508 1.745914101600647
-0.10796666145324707 -0.13795170187950134 1.4160842895507812
-0.10345332324504852 -0.11641401052474976 0.8457895517349243
-0.14329484105110168 -0.13026997447013855 0.868057906627655
-0.12321998178958893 -0.20613357424736023 0.916114091873169
-0.10860060155391693 -0.2176743745803833 0.8528763055801392
-0.1676168143749237 0.0765085518360138 0.06938615441322327
-0.07294245064258575 0.08922775089740753 1.7378149032592773
-0.09128854423761368 0.024416401982307434 1.7971113920211792
-0.13677345216274261 -0.08772420883178711 1.4721089601516724
-0.11382433027029037 -0.10451456904411316 1.5345721244812012
-0.12096170336008072 0.08411820977926254 0.3592764139175415
-0.13718345761299133 0.12245826423168182 0.2624934911727905
-0.16434349119663239 0.06415381282567978 0.0970783606171608
-0.12903521955013275 0.2348693609237671 0.13824515044689178
-0.09409865736961365 -0.06436702609062195 1.3405258655548096
-0.1205284520983696 -0.10465120524168015 0.5128016471862793
-0.11399303376674652 0.12409843504428864 0.03724107891321182
-0.1543252021074295 0.12287452816963196 0.030757227912545204
-0.09546864777803421 -0.01603267341852188 1.5869396924972534
-0.09303552657365799 -0.05722526088356972 1.5474882125854492
-0.02797127701342106 -0.22046256065368652 0.9121143221855164
-0.09010568261146545 0.08882295340299606 0.8653164505958557
-0.1515580266714096 -0.0007031690329313278 0.24612751603126526
-0.12252132594585419 0.056712228804826736 0.17842493951320648
-0.11046265065670013 0.20288923382759094 0.17418475449085236
-0.081875741481781 -0.0512126162648201 1.3078371286392212
-0.09034738689661026 -0.06374980509281158 1.2648909091949463
-0.04747490584850311 -0.1830284744501114 1.3187047243118286
-0.10992689430713654 -0.04605310037732124 0.6474692225456238
-0.09232001006603241 -0.13451634347438812 0.7258966565132141
-0.06554874032735825 -0.11504751443862915 0.8080543279647827
-0.1064378172159195 0.07933326065540314 0.15121595561504364
-0.11239030957221985 0.07959858328104019 0.07805897295475006
-0.09969709813594818 -0.15696018934249878 1.540104627609253
-0.0775335356593132 -0.055989764630794525 1.3778318166732788
-0.050511810928583145 -0.04377171769738197 1.313109040260315
-0.09131603688001633 -0.1194363385438919 0.5327574014663696
-0.06439919769763947 -0.101499542593956 0.5433968305587769
-0.0987938642501831 0.007150915917009115 0.5279277563095093
-0.07052237540483475 -0.14767572283744812 1.4995743036270142
-0.05107872188091278 -0.0991298258304596 1.463411808013916
-0.09050014615058899 -0.05602284520864487 1.4276854991912842
-0.0701509565114975 -0.02650182507932186 0.5185033679008484
-0.04822244867682457 0.04875413328409195 1.7958135604858398
-0.0860973671078682 -0.17870502173900604 1.6954984664916992
-0.021677212789654732 -0.19580158591270447 0.9987300634384155
-0.053452055901288986 -0.11271773278713226 1.4844176769256592
-0.028497571125626564 -0.14245125651359558 1.4693365097045898
-0.050905607640743256 -0.12687647342681885 1.4527766704559326
-0.027261679992079735 -0.17884887754917145 1.6205739974975586
-0.07219746708869934 -0.18578341603279114 1.5627343654632568
-0.030552955344319344 -0.07545156031847 1.4953439235687256
-0.061674270778894424 -0.06935388594865799 0.623149037361145
0.009544912725687027 0.008126117289066315 1.8286240100860596
-0.028750959783792496 0.10152972489595413 1.7001409530639648
-0.013796478509902954 -0.20417211949825287 1.5711138248443604
-0.03255822882056236 -0.1895914226770401 1.508586049079895
-0.012656981125473976 -0.08372732251882553 1.4647232294082642
-0.006398588418960571 -0.19176095724105835 1.5084258317947388
0.01774952933192253 -0.05284842848777771 1.4384256601333618
-0.009502317756414413 -0.04827000945806503 1.3058326244354248
0.004801522940397263 0.06301892548799515 1.7891825437545776
0.012769624590873718 -0.08513355255126953 1.5031989812850952
0.00859079323709011 -0.13855452835559845 1.4864323139190674
0.03375884145498276 0.0761142298579216 1.7385903596878052
0.023660223931074142 0.019461147487163544 1.8051964044570923
0.007858396507799625 -0.13456560671329498 1.4596295356750488
0.05339039862155914 -0.14785584807395935 1.5275238752365112
0.016210276633501053 -0.10676518082618713 1.4709534645080566
0.0438435934484005 -0.2231358289718628 0.6262682676315308
0.04125656187534332 -0.04108966141939163 1.529854655265808
0.07253104448318481 -0.268833726644516 0.5549418926239014
0.03162676841020584 -0.21155408024787903 1.2653642892837524
0.07559835910797119 -0.06417648494243622 1.2836377620697021
0.0750974789261818 -0.06487520039081573 1.158902645111084
0.10830571502447128 -0.40101945400238037 0.12582354247570038
0.14108479022979736 -0.41088879108428955 0.09984073787927628
0.10814791917800903 -0.2039857804775238 0.08505924046039581
0.04817710444331169 -0.18534323573112488 1.2557892799377441
0.04036954045295715 -0.20797483623027802 1.1791337728500366
0.048965707421302795 -0.19877459108829498 0.7697274684906006
0.10325171053409576 -0.29011785984039307 0.04062684625387192
0.0752846896648407 0.011201836168766022 1.7621662616729736
0.050535328686237335 -0.16843584179878235 1.7030366659164429
0.03999294713139534 -0.1647324115037918 1.6087589263916016
0.04401789605617523 -0.1758798360824585 1.5588889122009277
0.09070886671543121 -0.14612507820129395 0.8803040981292725
0.13234864175319672 0.010911650955677032 1.790618658065796
0.04964924231171608 -0.03579201549291611 1.58590567111969
0.05119379609823227 -0.05757603049278259 1.56035578250885
0.10476992279291153 -0.2190280556678772 0.35217389464378357
0.10112360119819641 -0.21827399730682373 0.29216906428337097
0.12584063410758972 -0.19993856549263 0.056680936366319656
0.07489828765392303 0.00426054373383522 1.8555076122283936
0.09347023814916611 -0.08292228728532791 1.4490822553634644
0.09654204547405243 -0.20725560188293457 0.8733631372451782
0.07705520838499069 -0.1239515095949173 0.8625961542129517
0.12287131696939468 -0.18251964449882507 0.8675874471664429
0.08995777368545532 -0.10558575391769409 0.7351464033126831
0.1593838930130005 -0.4112703502178192 0.1192832812666893
0.08932148665189743 0.0005359649658203125 1.7765326499938965
0.0697331503033638 -0.16467389464378357 1.1512234210968018
0.07641830295324326 -0.18448591232299805 1.2743887901306152
0.07820756733417511 -0.20381911098957062 1.266833782196045
0.13287125527858734 -0.172865629196167 0.9260764122009277
0.08308239281177521 -0.10825054347515106 1.618530035018921
0.08198615163564682 -0.028588417917490005 1.5932165384292603
0.08128675818443298 -0.05600463226437569 1.5893479585647583
0.0897144228219986 -0.07244131714105606 1.5874500274658203
0.10215237736701965 -0.08857042342424393 1.5660450458526611
0.11618071794509888 -0.1818816214799881 0.6640619039535522
0.10784904658794403 -0.22943365573883057 0.7118680477142334
0.1119767278432846 -0.14363935589790344 1.4104728698730469
0.1232348307967186 -0.07139606028795242 1.3687877655029297
0.08001534640789032 -0.07293670624494553 1.3770925998687744
0.08690199255943298 -0.08591906726360321 1.350888729095459
0.10948777198791504 -0.1291206181049347 0.8412758111953735
0.17105533182621002 -0.2447863221168518 0.05586069077253342
0.18684948980808258 -0.28904175758361816 0.0490880124270916
0.09994746744632721 -0.01370532438158989 1.7295167446136475
0.12523028254508972 -0.09451274573802948 1.423413634300232
0.16208550333976746 -0.2743748426437378 0.34894344210624695
0.12169431149959564 0.005771089345216751 1.6982356309890747
0.09321364760398865 0.0306447334587574 1.6950092315673828
0.10736645758152008 -0.0037607699632644653 1.6648964881896973
0.18251097202301025 -0.2883296012878418 0.15337274968624115
0.18831223249435425 -0.3773735761642456 0.10387872159481049
0.15615522861480713 -0.39672738313674927 0.15040323138237
0.16402345895767212 0.0005748886615037918 0.9437220096588135
0.15024328231811523 -0.01674491912126541 0.8366879820823669
0.13128522038459778 -0.007419124245643616 1.7925904989242554
0.17121091485023499 0.03813154622912407 0.8409137725830078
0.18970051407814026 0.015554077923297882 0.9011486172676086
0.15566840767860413 -0.08381709456443787 1.3568936586380005
0.17126736044883728 -0.10963774472475052 1.3324589729309082
0.1281105875968933 -0.14351190626621246 1.3719701766967773
0.1712264120578766 -0.0786890834569931 1.2996512651443481
0.15872199833393097 -0.07645124197006226 1.2789908647537231
0.19429244101047516 -0.16590192914009094 1.2275956869125366
0.19613677263259888 -0.12155242264270782 1.2844314575195312
0.20109823346138 -0.06152566522359848 1.2341594696044922
0.2090998888015747 -0.02796125039458275 1.1573185920715332
0.24147659540176392 -0.03189260512590408 1.1723780632019043
0.2417403608560562 -0.07682444900274277 1.210182547569275
0.24037794768810272 -0.13723671436309814 1.2138993740081787
0.2557116448879242 -0.025531981140375137 1.116708517074585
0.3172183632850647 -0.10264042764902115 1.139328956604004
0.3090360462665558 -0.06613658368587494 1.1326799392700195
0.28508201241493225 -0.03445584326982498 1.1130056381225586
0.3019457161426544 -0.15517371892929077 1.1043905019760132
0.3016948699951172 -0.09681852161884308 1.08888578414917
0.2880203127861023 -0.07050986588001251 1.0851801633834839
0.3686310946941376 -0.0869293361902237 0.9532862901687622
0.296284019947052 -0.12768219411373138 1.0784350633621216
0.3038769066333771 -0.1330929696559906 1.045484185218811
0.32527807354927063 -0.0658835843205452 1.0040606260299683
0.29748496413230896 -0.10920662432909012 1.02538001537323
0.31054016947746277 -0.14060457050800323 1.017395257949829
0.3288272023200989 -0.10869816690683365 0.9890468120574951
0.35114404559135437 -0.10038501769304276 0.9826647043228149
0.32879438996315 -0.15323245525360107 0.9784117937088013
0.3416101038455963 -0.12437704205513 0.9755738377571106
0.3335402011871338 -0.13890835642814636 0.9834917783737183
0.3655956983566284 -0.0873059332370758 0.9310199022293091
0.3481433391571045 -0.14509694278240204 0.9628475904464722
0.34176090359687805 -0.08932321518659592 0.95064377784729
0.36612382531166077 -0.12044616043567657 0.9348935484886169
0.37730059027671814 -0.10462106764316559 0.9405949115753174
-0.3143666684627533 -0.004152980633080006 1.0321086645126343
-0.312846302986145 -0.07360108196735382 1.0092233419418335
-0.29261448979377747 -0.05249328166246414 1.0149351358413696
-0.3310190737247467 -0.11356496065855026 1.0394865274429321
-0.24019113183021545 -0.008476143702864647 1.0476700067520142
-0.29336267709732056 -0.11271537095308304 1.033085823059082
-0.17887425422668457 -0.04753086715936661 1.2408447265625
-0.1843847632408142 -0.10832468420267105 1.2025164365768433
-0.17651602625846863 -0.10618957132101059 0.9627124071121216
-0.18380394577980042 -0.019925517961382866 0.9304946660995483
-0.134311705827713 0.04855221509933472 0.9272536039352417
-0.16110262274742126 0.06538929045200348 1.2336912155151367
-0.16083942353725433 0.0582810640335083 1.1657130718231201
-0.16986337304115295 0.08302001655101776 1.1262654066085815
-0.16024993360042572 -0.01598099246621132 0.9644263982772827
-0.20052900910377502 -0.010792389512062073 1.7738287448883057
-0.13842467963695526 -0.06372606009244919 1.3763623237609863
-0.15771625936031342 -0.04546273127198219 1.3042408227920532
-0.1030086874961853 0.08373570442199707 1.0143189430236816
-0.1468823254108429 0.075320303440094 0.9250141382217407
-0.1900651752948761 0.1430760622024536 0.13914339244365692
-0.197877436876297 0.11656415462493896 0.09182771295309067
-0.17334967851638794 -0.01548919826745987 1.7558554410934448
-0.15853242576122284 -0.014894120395183563 1.6959404945373535
-0.1301332265138626 -0.18184107542037964 1.2461168766021729
-0.12657473981380463 -0.19543030858039856 1.2137010097503662
-0.1297428458929062 -0.2160014808177948 1.2048553228378296
-0.1428791731595993 0.034075841307640076 1.3773053884506226
-0.13131524622440338 0.02652064338326454 1.3718711137771606
-0.10794515162706375 -0.1819601058959961 1.2645692825317383
-0.13536623120307922 -0.091065913438797 1.2224218845367432
-0.17390969395637512 0.07894456386566162 0.1801023781299591
-0.17397993803024292 0.10441240668296814 0.21504944562911987
-0.09962797164916992 0.05277647823095322 1.224832534790039
-0.14040245115756989 -0.10081617534160614 1.4874347448349
-0.14084698259830475 -0.09578194469213486 1.4609706401824951
-0.12651397287845612 -0.09587433934211731 1.4378304481506348
-0.13999885320663452 -0.09063085168600082 1.4361933469772339
-0.13889192044734955 -0.10798827558755875 1.4210776090621948
-0.13779525458812714 -0.11191217601299286 0.7772048115730286
-0.15192487835884094 -0.07365260273218155 0.7696659564971924
-0.108420729637146 0.1475139558315277 1.0100456476211548
-0.10483034700155258 0.14861777424812317 1.0664465427398682
-0.099165178835392 -0.17390918731689453 1.2652195692062378
-0.1295066773891449 -0.10688909888267517 0.855951189994812
-0.16056935489177704 0.19663652777671814 0.17292149364948273
-0.16185033321380615 0.21558168530464172 0.13600413501262665
-0.1422351747751236 -0.1884441375732422 0.8505626916885376
-0.11592386662960052 0.117495097219944 1.1930134296417236
-0.13288100063800812 -0.15151476860046387 1.68821382522583
-0.12102200090885162 -0.04042503610253334 1.5711655616760254
-0.10847411304712296 0.04773695394396782 1.5192039012908936
-0.09691213816404343 0.018894698470830917 1.5868628025054932
-0.11893575638532639 0.010291818529367447 1.561666488647461
-0.11670394241809845 0.018783651292324066 1.4672744274139404
-0.06270073354244232 0.08874445408582687 1.5489578247070312
-0.10368582606315613 -0.08658595383167267 1.5253340005874634
-0.09504381567239761 0.04262520745396614 0.9814334511756897
-0.12572087347507477 0.009999439120292664 1.8594369888305664
-0.1395624577999115 -0.0025792457163333893 1.856971263885498
-0.13738104701042175 -0.01304088905453682 1.844963788986206
-0.023563431575894356 0.015776310116052628 1.445203185081482
-0.10471036285161972 0.05889863520860672 1.4196221828460693
-0.09449455142021179 0.16756772994995117 0.08155255764722824
-0.06275388598442078 0.10512710362672806 1.3395377397537231
-0.09185124933719635 -0.15746185183525085 1.5939241647720337
-0.10679949074983597 -0.013007774949073792 0.3897566795349121
-0.05895824357867241 0.016355857253074646 1.520872712135315
-0.07093947380781174 -0.03510522097349167 1.5181684494018555
-0.04813715070486069 0.08198291808366776 1.4601545333862305
-0.0402708575129509 0.054029978811740875 0.8606760501861572
-0.10750911384820938 0.06394188106060028 0.3716873526573181
-0.059939056634902954 0.10988934338092804 0.9108123779296875
-0.03835073113441467 0.037651825696229935 1.0463753938674927
-0.07742994278669357 -0.19843700528144836 1.2598447799682617
-0.07647250592708588 -0.1768137812614441 1.1623388528823853
-0.09493493288755417 0.049233973026275635 0.3388545513153076
-0.07483101636171341 0.06044892966747284 0.2766544818878174
-0.1024685651063919 0.10519272834062576 0.29700756072998047
-0.05873542279005051 0.0012031272053718567 1.5482854843139648
-0.05411561578512192 -0.12068440020084381 0.6742099523544312
-0.0784611850976944 -0.04565819725394249 0.6438077092170715
-0.04348471760749817 0.16711202263832092 1.0491406917572021
-0.04884985089302063 0.1518559753894806 0.955096960067749
-0.024945061653852463 -0.21209542453289032 1.1836962699890137
-0.08651103079319 0.14079606533050537 0.16124826669692993
-0.04543787240982056 0.09431260824203491 0.9580178260803223
-0.04453091323375702 0.07220606505870819 1.0066550970077515
0.012443918734788895 0.005603160709142685 1.5303537845611572
-0.060185231268405914 -0.15974107384681702 1.4094910621643066
-0.0023952764458954334 0.12164990603923798 1.309124231338501
0.029194194823503494 0.013173136860132217 1.4312524795532227
0.008107814937829971 -0.0043601468205451965 1.5395710468292236
0.0185893215239048 0.10006065666675568 0.9660118222236633
0.030058374628424644 0.08463019132614136 0.9169179201126099
0.003956956788897514 -0.17469719052314758 1.402026891708374
0.011195622384548187 0.04000362008810043 1.0409681797027588
-0.0009337321389466524 -0.2125924527645111 1.1186470985412598
0.07896719872951508 0.1046164408326149 1.3346003293991089
0.0318920873105526 -0.045194655656814575 1.3238658905029297
0.06581760942935944 0.0765850841999054 1.4670319557189941
0.03599932789802551 0.020473115146160126 1.4779419898986816
0.045707110315561295 -0.04168454930186272 1.231177806854248
0.04234573245048523 0.10035903751850128 0.9181976318359375
0.026878204196691513 -0.03504539653658867 1.8007123470306396
0.08256462961435318 -0.34534066915512085 0.12190284579992294
0.09161016345024109 -0.37185919284820557 0.08712459355592728
0.07723259925842285 -0.25649720430374146 0.11777710914611816
0.0032486021518707275 -0.18172967433929443 1.6983091831207275
0.05390404537320137 -0.138950914144516 0.714223325252533
0.10326753556728363 0.015704244375228882 1.4464575052261353
0.06246819347143173 -0.10839150100946426 1.5332615375518799
0.1029159426689148 -0.11650077253580093 1.460618495941162
0.054930564016103745 -0.07175274193286896 1.4353631734848022
0.08285962045192719 -0.2165166437625885 0.4244350790977478
0.08971593528985977 -0.3316693603992462 0.28731486201286316
0.11137466877698898 -0.23338685929775238 0.24421079456806183
0.09385734051465988 0.10213589668273926 0.9707568883895874
0.07697610557079315 0.12806737422943115 0.9265217781066895
0.08213277161121368 -0.20001265406608582 0.7815356254577637
0.09231279790401459 -0.16231489181518555 0.6643818616867065
0.031779590994119644 -0.08785004913806915 1.795937418937683
0.07598856836557388 -0.09992687404155731 1.7505369186401367
0.08796890825033188 -0.2776404023170471 0.6041029691696167
0.046198051422834396 -0.022428475320339203 1.808782935142517
0.07349537312984467 -0.0439271479845047 1.7612746953964233
0.089678093791008 -0.094520702958107 1.152214527130127
0.09187532961368561 -0.07991665601730347 1.1221445798873901
0.087795190513134 -0.15696878731250763 1.1022284030914307
0.06375385820865631 -0.15405678749084473 1.6907294988632202
0.07490048557519913 -0.09378892928361893 1.5643099546432495
0.06967917829751968 -0.1387397050857544 1.573323369026184
0.139388769865036 0.08498808741569519 0.9264386892318726
0.09791107475757599 -0.15103766322135925 1.306107997894287
0.10786774754524231 -0.2123793065547943 1.251164197921753
0.10318503528833389 -0.12714095413684845 1.2567081451416016
0.16028285026550293 -0.2380613386631012 0.18206611275672913
0.13527297973632812 -0.3369821012020111 0.20345911383628845
0.15520796179771423 -0.33278414607048035 0.18424668908119202
0.09067133069038391 -0.016428355127573013 1.7793844938278198
0.1090315729379654 -0.17285418510437012 1.300491213798523
0.15764008462429047 -0.21958062052726746 0.4642362892627716
0.1302979439496994 -0.2618311047554016 0.5317550897598267
0.16264057159423828 -0.24448443949222565 0.41125598549842834
0.11920498311519623 -0.13748736679553986 1.4507038593292236
0.10377123951911926 -0.13023459911346436 1.446082353591919
0.12791329622268677 -0.10395072400569916 1.4113343954086304
0.12275531142950058 0.07196637243032455 0.9066308736801147
0.12051613628864288 -0.11066955327987671 0.8575425744056702
0.18235178291797638 -0.25873643159866333 0.28250652551651
0.18695324659347534 -0.29057174921035767 0.2938089966773987
0.13881921768188477 -0.09288030117750168 1.4076706171035767
0.1667824238538742 0.04858557879924774 1.2484642267227173
0.16918723285198212 0.07770584523677826 1.2150030136108398
0.11649740487337112 -0.2649382948875427 1.132886528968811
0.1641058772802353 -0.04742572829127312 0.9799062013626099
0.16641294956207275 -0.10363277792930603 0.9744558334350586
0.16277223825454712 -0.05352450907230377 1.2265115976333618
0.2279868870973587 -0.11991053074598312 1.0873289108276367
0.22432908415794373 -0.06885755062103271 1.0853607654571533
0.2557722330093384 -0.17333394289016724 1.135237455368042
-0.29236871004104614 -0.012580113485455513 1.0081809759140015
-0.3147786259651184 -0.07584837079048157 0.9702093601226807
-0.23905618488788605 -0.11468352377414703 1.1032445430755615
-0.26043617725372314 -0.13696697354316711 1.1502032279968262
-0.19952303171157837 -0.07918538898229599 1.1316441297531128
-0.18966573476791382 -0.035687919706106186 1.165711522102356
-0.19563841819763184 -0.15511858463287354 0.8672325611114502
-0.17788846790790558 0.07945530116558075 0.9707332849502563
-0.17171083390712738 0.07433106005191803 1.0870412588119507
-0.1287972778081894 -0.2647078335285187 1.095597743988037
-0.1378040313720703 -0.16998322308063507 0.9626890420913696
-0.1931738257408142 0.05407354235649109 0.28777244687080383
-0.17369531095027924 0.00467645563185215 0.2789325714111328
-0.13671992719173431 0.007438959553837776 0.5145990252494812
-0.15357182919979095 -0.195436030626297 0.8560219407081604
-0.1365358531475067 -0.07730729132890701 0.6154769659042358
-0.1312924176454544 -0.1145961806178093 0.6729501485824585
-0.12377995252609253 -0.04676799476146698 0.6818326711654663
-0.11081327497959137 -0.023223871365189552 1.1156015396118164
-0.10668446868658066 -0.09153181314468384 1.1395490169525146
-0.08006308972835541 0.14540985226631165 1.1481515169143677
-0.11686789989471436 -0.01497613824903965 0.8515512347221375
-0.1310984194278717 -0.014008352532982826 0.28642186522483826
-0.11116859316825867 -0.04831446707248688 1.2266900539398193
-0.09669400751590729 -0.050846558064222336 1.1503348350524902
-0.12741225957870483 -0.05291707441210747 0.4247184693813324
-0.12986797094345093 -0.025899594649672508 1.7777193784713745
-0.13029290735721588 -0.06494712829589844 1.7750581502914429
-0.0824962854385376 -0.10076205432415009 1.792036533355713
-0.09757962822914124 -0.14798390865325928 1.7557047605514526
-0.11572501063346863 -0.15454746782779694 1.649096965789795
-0.10873875766992569 0.011546238325536251 0.33756008744239807
-0.05872209742665291 -0.12205928564071655 0.7308386564254761
-0.08043485879898071 0.03141191974282265 0.26877713203430176
-0.10135401785373688 0.004349198192358017 0.25978967547416687
-0.10447248816490173 0.11368051171302795 0.2540287375450134
-0.05691012740135193 0.06620854139328003 0.9746448397636414
-0.07871337980031967 -0.0035501718521118164 1.8239437341690063
-0.09346149116754532 -0.019045427441596985 1.8110942840576172
0.024922383949160576 0.07517451047897339 1.1400117874145508
-0.07828616350889206 0.07259777188301086 1.1446301937103271
0.005490211769938469 0.06094990670681 1.2067606449127197
0.015035665594041348 -0.05736415460705757 1.2704901695251465
0.008349109441041946 0.15181022882461548 1.1816821098327637
0.004766005557030439 0.08042819797992706 1.0092666149139404
0.07193098962306976 0.16591781377792358 1.0839426517486572
0.023499038070440292 0.0919594019651413 1.6709725856781006
0.04653420299291611 0.07498867809772491 1.016401767730713
0.04615279659628868 -0.21305420994758606 0.9148743152618408
0.060916610062122345 -0.29005274176597595 0.2979353964328766
0.07939718663692474 -0.3024098873138428 0.24308322370052338
0.04176582023501396 -0.20463770627975464 0.7346424460411072
0.03671718388795853 0.014110584743320942 1.0766277313232422
0.06503976136445999 -0.19456660747528076 0.5946792960166931
0.0918426662683487 0.04926982522010803 1.2846336364746094
0.07837458699941635 -0.15854477882385254 1.4266555309295654
0.05853614583611488 0.07256053388118744 1.6360695362091064
0.05771399289369583 -0.0046014077961444855 1.625262975692749
0.06287946552038193 0.008889280259609222 1.5909605026245117
0.04471495375037193 -0.007791116833686829 1.8588194847106934
0.07959304749965668 -0.16622135043144226 1.3508174419403076
0.12911902368068695 -0.18545439839363098 0.5239909291267395
0.09663805365562439 -0.1711479127407074 0.5170542597770691
0.12406042963266373 -0.20672467350959778 0.3718557357788086
0.1468251794576645 -0.21746473014354706 0.34445005655288696
0.10125826299190521 -0.08655466139316559 1.5545895099639893
0.08867067098617554 -0.09722627699375153 1.5666940212249756
0.10209290683269501 -0.0947946161031723 1.5478850603103638
0.12385667860507965 -0.11059021949768066 0.7545968294143677
0.12339311093091965 -0.21403443813323975 0.6651813983917236
0.12597937881946564 0.03629789501428604 0.9504200220108032
0.12198309600353241 -0.06916890293359756 1.0938888788223267
0.11900636553764343 -0.12524718046188354 1.084476351737976
0.1256231665611267 -0.14260563254356384 1.0266005992889404
0.10121782124042511 -0.030995694920420647 1.674142599105835
0.11382170021533966 -0.04994752258062363 1.58499014377594
0.10004276037216187 -0.19641101360321045 1.2356164455413818
0.12386883795261383 0.022077593952417374 1.5585052967071533
0.11484478414058685 -0.0009218789637088776 1.6037802696228027
0.18411830067634583 -0.25475063920021057 0.0898391455411911
0.19206899404525757 -0.32360246777534485 0.09158641844987869
0.1376139372587204 -0.000347726047039032 1.5227428674697876
0.1430925577878952 0.012736580334603786 1.486590027809143
0.15200984477996826 0.005934655666351318 1.4397374391555786
0.15295225381851196 0.021641016006469727 1.41982102394104
0.10829862207174301 -0.27254006266593933 1.1508171558380127
0.17174488306045532 -0.1452624648809433 0.8687996864318848
0.13047000765800476 -0.24592629075050354 1.1690657138824463
0.12528783082962036 -0.2715749740600586 1.1512086391448975
0.20335330069065094 -0.10058753192424774 0.8755428194999695
0.20357927680015564 -0.0859740674495697 0.8528450131416321
0.21473050117492676 -0.050758153200149536 0.8526849746704102
-0.2181224226951599 -0.13506264984607697 1.172781229019165
-0.1592606157064438 -0.1541268229484558 1.261912226676941
-0.16700772941112518 -0.15008679032325745 1.2427772283554077
-0.15776793658733368 -0.142485111951828 1.2535333633422852
-0.15371248126029968 -0.14266222715377808 1.2704601287841797
-0.203015998005867 0.0037009837105870247 0.8625165820121765
-0.1289292573928833 -0.10575708746910095 1.303144931793213
-0.1479056477546692 -0.07353021204471588 1.0894769430160522
-0.144841730594635 0.040620796382427216 1.56295645236969
-0.1321169137954712 -0.11619311571121216 1.2080265283584595
-0.13828325271606445 -0.10031911730766296 1.1580793857574463
-0.12361513078212738 0.031345151364803314 1.4512660503387451
-0.11816954612731934 0.02579231560230255 1.3988641500473022
-0.12567266821861267 -0.15262924134731293 1.0526583194732666
-0.0905841588973999 -0.17669399082660675 1.01005220413208
-0.13020256161689758 -0.028269605711102486 0.7715299725532532
-0.07209400087594986 0.12604524195194244 1.231953501701355
-0.0852639377117157 0.09204347431659698 1.6462875604629517
-0.0844103991985321 0.20611904561519623 0.12965427339076996
-0.09732255339622498 0.22009998559951782 0.1292150914669037
-0.08770869672298431 0.027556492015719414 0.8692683577537537
-0.008890388533473015 0.09898393601179123 0.8534026145935059
-0.0674562007188797 -0.01622771844267845 0.8457807302474976
0.011227112263441086 0.03511132672429085 1.3182365894317627
-0.034463174641132355 -0.07841847836971283 0.761788010597229
-0.038598328828811646 -0.17569993436336517 1.6717064380645752
-0.012663212604820728 0.019765794277191162 0.8729493618011475
-0.006892147473990917 -0.020761312916874886 0.8522464632987976
0.01210166234523058 -0.11221574991941452 0.8604483008384705
-0.07920435070991516 -0.1673153042793274 0.8616344928741455
-0.0021745730191469193 -0.22375625371932983 0.8577835559844971
0.02192491479218006 -0.11109457910060883 0.8395227193832397
-0.0038441396318376064 -0.15960939228534698 0.8681521415710449
0.005430113524198532 -0.028302231803536415 1.5172923803329468
0.023605911061167717 -0.035743024200201035 0.8423393964767456
0.02445758320391178 -0.05950918048620224 0.8151677250862122
0.015960928052663803 -0.006263673305511475 1.5944145917892456
0.02064211294054985 -0.004789203405380249 1.565561056137085
0.03251909092068672 -0.12001881003379822 0.8525933027267456
0.12995080649852753 0.056796103715896606 0.8312737345695496
0.06852971017360687 -0.2599288821220398 0.29278674721717834
0.04804930090904236 -0.056358858942985535 0.7941784858703613
0.07370553910732269 0.07863438129425049 1.1718634366989136
0.09636582434177399 -0.27095866203308105 0.42278704047203064
0.09322641044855118 -0.2617388963699341 0.356209397315979
0.10609070211648941 -0.28286272287368774 0.37760061025619507
0.09926849603652954 -0.33369800448417664 0.33119237422943115
0.10590942203998566 0.02845623716711998 1.5259472131729126
0.07658148556947708 -0.0186918992549181 0.8336180448532104
0.10448537766933441 -0.05460819974541664 0.8062189817428589
0.10222563147544861 -0.0968165248632431 1.2609777450561523
0.12399889528751373 -0.276248037815094 0.47596001625061035
0.09756344556808472 0.021165374666452408 1.6371350288391113
0.08895447850227356 -0.06802421063184738 1.3230091333389282
0.1366337686777115 -0.28522858023643494 0.37996476888656616
0.09382487088441849 0.14625966548919678 1.1549545526504517
0.10504662990570068 -0.06440597772598267 1.2381117343902588
0.15438494086265564 -0.2373007833957672 0.245827779173851
0.13474136590957642 0.14273853600025177 1.0608599185943604
0.1397734135389328 -0.22493486106395721 0.2776917517185211
0.14126838743686676 -0.3471153974533081 0.3024810552597046
0.14525243639945984 0.038395192474126816 1.306944727897644
0.11312292516231537 -0.12376010417938232 1.494580626487732
0.1245163083076477 -0.11328695714473724 1.4601807594299316
0.11202540248632431 -0.12269549071788788 1.4927177429199219
0.13999629020690918 -0.09545890986919403 1.444007396697998
0.12148196250200272 -0.2212577611207962 1.2182281017303467
0.10670890659093857 -0.2321019023656845 1.2082562446594238
0.16393381357192993 0.06177886947989464 1.1971341371536255
0.17843680083751678 0.09546881914138794 1.1210798025131226
0.1706448495388031 0.08599705249071121 1.084370732307434
0.14527395367622375 -0.09384600818157196 1.2728623151779175
0.13128282129764557 -0.14006109535694122 1.2708717584609985
0.15792442858219147 -0.1665935516357422 0.8833671808242798
0.14331994950771332 -0.16049163043498993 1.2740614414215088
0.1757052093744278 -0.16176992654800415 1.1651700735092163
0.16215918958187103 -0.07884512841701508 1.1727086305618286
0.17323212325572968 -0.1278400421142578 1.1422202587127686
0.25806209444999695 -0.15875300765037537 1.177046775817871
0.2672547996044159 -0.08214128762483597 1.060839056968689
0.27171215415000916 -0.15785494446754456 1.091417908668518
-0.13553814589977264 -0.25891056656837463 1.1387205123901367
-0.14020676910877228 -0.19530785083770752 1.2007384300231934
-0.1484571248292923 -0.18556872010231018 1.221215844154358
-0.1238958016037941 -0.24327047169208527 1.142815351486206
-0.14002010226249695 0.03495904058218002 1.4843136072158813
-0.14746159315109253 0.02169288694858551 1.4671900272369385
-0.1537320911884308 0.03910420835018158 1.4181344509124756
-0.15498097240924835 -0.03678208589553833 1.739119291305542
-0.15369613468647003 -0.08468428254127502 1.6566574573516846
-0.16491252183914185 0.01426447369158268 0.3355533182621002
-0.13517341017723083 -0.0653601810336113 0.8473653793334961
-0.13407282531261444 -0.09032265841960907 0.8269639611244202
-0.16531507670879364 0.09600350260734558 0.9406764507293701
-0.0905284732580185 -0.16508778929710388 1.2585227489471436
-0.12066863477230072 -0.02669510245323181 0.8223978281021118
-0.09972880780696869 -0.04038132354617119 1.7939538955688477
-0.08905147016048431 -0.13821062445640564 1.141047716140747
-0.05084117129445076 -0.2003759741783142 1.133546233177185
-0.08631516247987747 0.08451354503631592 1.0586845874786377
0.0002659030142240226 0.0839218720793724 1.0538506507873535
-0.07394280284643173 -0.0328395776450634 1.1676589250564575
-0.055483631789684296 -0.11066308617591858 0.8512728214263916
-0.043758586049079895 -0.1983329802751541 1.070007085800171
-0.056837379932403564 0.015499232336878777 1.0682977437973022
-0.030287303030490875 -0.14891447126865387 1.7710487842559814
0.01687382161617279 -0.13942743837833405 0.7812730073928833
-0.05141095072031021 0.042584676295518875 1.2850590944290161
0.09107273817062378 -0.3165472149848938 0.047449707984924316
0.10989076644182205 0.1528923362493515 0.9892715811729431
0.0819232240319252 0.09129002690315247 1.0737760066986084
0.04513614624738693 0.1670733094215393 1.0008373260498047
0.09755374491214752 0.08849234133958817 0.8436142802238464
0.16028103232383728 -0.20715758204460144 0.07502707093954086
0.11869452893733978 -0.04138335958123207 0.8325015902519226
0.12790335714817047 -0.27585911750793457 0.4304056167602539
0.12268929928541183 -0.1494857668876648 1.4072365760803223
0.11816947907209396 -0.15560626983642578 1.3176387548446655
0.2015344202518463 -0.0015672417357563972 0.8375253081321716
0.20615848898887634 -0.0329136997461319 0.9069961309432983
0.2743024528026581 -0.12329714745283127 1.0651791095733643
-0.2725811004638672 -0.13625285029411316 1.1090773344039917
-0.20000489056110382 -0.08947260677814484 0.9258794784545898
-0.21894404292106628 -0.07342870533466339 0.8669785261154175
