-0.001049540936946869 0.053870610892772675 1.5101232528686523
-0.09057304263114929 -0.08026442676782608 1.3956974744796753
0.02777828276157379 0.16793562471866608 1.343231201171875
0.02340065874159336 0.0641440749168396 1.4294500350952148
-0.009903442114591599 0.046055976301431656 1.5107002258300781
0.07811592519283295 0.15503966808319092 1.0411384105682373
0.09595523774623871 0.1414673924446106 0.9980869889259338
-0.02658177725970745 -0.09794707596302032 1.3918957710266113
0.013686304911971092 0.03583024814724922 1.0349246263504028
-0.02900361269712448 -0.19935059547424316 1.1155741214752197
0.08952072262763977 0.13727347552776337 1.3683645725250244
0.009138563647866249 -0.012963943183422089 1.299938440322876
0.059200845658779144 0.11245235800743103 1.4706734418869019
0.025164656341075897 0.06598814576864243 1.4723918437957764
0.02410643920302391 -0.031012145802378654 1.211019515991211
0.0454670712351799 0.09377925097942352 0.9256877899169922
-0.010751165449619293 -0.012611817568540573 1.7409541606903076
0.13280144333839417 -0.09488600492477417 0.09283909201622009
0.12304562330245972 -0.1019665077328682 0.06860990077257156
0.12574392557144165 -0.04092594236135483 0.10594028234481812
-0.04609199985861778 -0.12891924381256104 1.6168403625488281
0.06990908086299896 -0.06246045231819153 0.7247535586357117
0.08150704950094223 0.05222465842962265 1.4417059421539307
0.023133816197514534 -0.044849053025245667 1.4833488464355469
0.06109955534338951 -0.03037909045815468 1.431578516960144
0.020114857703447342 0.0014669634401798248 1.4070255756378174
0.11842860281467438 -0.03306667134165764 0.4059705138206482
0.1418735682964325 -0.11590911448001862 0.24799171090126038
0.13616785407066345 -0.02872084267437458 0.21253614127635956
0.14265258610248566 0.14146116375923157 1.050592303276062
0.13738366961479187 0.1685764193534851 1.0175646543502808
0.10762125253677368 -0.14599516987800598 0.7524904012680054
0.11303765326738358 -0.05259660631418228 0.668471097946167
-0.012024644762277603 -0.06026998162269592 1.727120041847229
0.028276775032281876 -0.0721065104007721 1.6838035583496094
0.13051441311836243 -0.13024574518203735 0.5612070560455322
0.009393861517310143 -0.00674302875995636 1.7544572353363037
0.03237838298082352 -0.024255987256765366 1.7046128511428833
0.06100655347108841 -0.09787596017122269 1.1467311382293701
0.06576685607433319 -0.08589915931224823 1.1200850009918213
0.056535884737968445 -0.15847115218639374 1.1032500267028809
0.01272575929760933 -0.11126299202442169 1.6161730289459229
0.03588712587952614 -0.04403046518564224 1.5126498937606812
0.024752601981163025 -0.08313290774822235 1.5113534927368164
0.18046033382415771 0.11873654276132584 1.0121251344680786
0.05953636392951012 -0.08798763155937195 1.3021202087402344
0.07019977271556854 -0.15231537818908691 1.2647111415863037
0.06808283179998398 -0.1005668193101883 1.2480099201202393
0.17920467257499695 -0.01254696398973465 0.16478992998600006
0.19334296882152557 -0.09304629266262054 0.18467675149440765
0.20783372223377228 -0.08039823174476624 0.16987727582454681
0.05015353858470917 -0.0019364431500434875 1.728030800819397
0.06884236633777618 -0.0967419445514679 1.3033980131149292
0.1917574256658554 -0.03761925548315048 0.4462115168571472
0.17084521055221558 -0.09326337277889252 0.4985719323158264
0.20054417848587036 -0.050998933613300323 0.38990092277526855
0.07425392419099808 -0.04638798534870148 1.4252125024795532
0.061057932674884796 -0.04244126006960869 1.4216848611831665
0.08060222864151001 -0.033863458782434464 1.3798640966415405
0.11874127388000488 0.0639927089214325 0.9359699487686157
0.13180382549762726 -0.11690329015254974 0.8759465217590332
0.20738063752651215 -0.03328268602490425 0.26401185989379883
0.22311468422412872 -0.0641779825091362 0.27109453082084656
0.08436492085456848 -0.013370469212532043 1.3736146688461304
0.15820837020874023 0.07398395985364914 1.2862170934677124
0.16917940974235535 0.09899021685123444 1.262738585472107
0.07945099472999573 -0.22589614987373352 1.1632742881774902
0.14810559153556824 -0.06588545441627502 1.0076038837432861
0.15024735033512115 -0.1234642043709755 1.0025579929351807
0.11342337727546692 -0.011923350393772125 1.1994740962982178
0.13194335997104645 -0.12315631657838821 1.0976332426071167
0.1520775407552719 -0.08687419444322586 1.0792009830474854
0.1341085284948349 -0.15390156209468842 1.1638234853744507
-0.2996312081813812 -0.06505998224020004 1.071071743965149
-0.30764761567115784 -0.12264781445264816 1.0552173852920532
-0.23901784420013428 -0.1019495502114296 1.1487417221069336
-0.24990317225456238 -0.10138149559497833 1.196054458618164
-0.2172372192144394 -0.06727893650531769 1.155892252922058
-0.21688532829284668 -0.027726341038942337 1.1750783920288086
-0.1915312558412552 -0.1519595980644226 0.8838158249855042
-0.0811639130115509 0.17450056970119476 1.030769944190979
-0.09098178893327713 0.1650296002626419 1.1314846277236938
-0.1679767519235611 -0.22570562362670898 1.1309733390808105
-0.1387566477060318 -0.16028812527656555 0.96314537525177
-0.28013017773628235 -0.042625218629837036 0.28947749733924866
-0.25735244154930115 -0.09311092644929886 0.3038077652454376
-0.20469702780246735 0.010828767903149128 0.5083673000335693
-0.15101006627082825 -0.19221752882003784 0.8622786998748779
-0.18101654946804047 -0.04898512363433838 0.6513740420341492
-0.16898098587989807 -0.09177115559577942 0.7032806873321533
-0.1518312394618988 -0.033714164048433304 0.7095484733581543
-0.10242755711078644 -0.017752759158611298 1.0989701747894287
-0.11459702253341675 -0.07659617066383362 1.1246052980422974
-0.010144773870706558 0.2088717669248581 1.2042888402938843
-0.11384649574756622 -0.018497508019208908 0.8659544587135315
-0.2142491638660431 -0.1060715764760971 0.31580889225006104
-0.11877487599849701 -0.02065475471317768 1.2038078308105469
-0.0951765775680542 -0.03849562630057335 1.1322299242019653
-0.1967778354883194 -0.083555206656456 0.4560199975967407
-0.14453166723251343 0.016766566783189774 1.7217885255813599
-0.1511000543832779 -0.019130390137434006 1.7104754447937012
-0.11366012692451477 -0.05622423067688942 1.7197213172912598
-0.13240835070610046 -0.09266466647386551 1.6777172088623047
-0.146042138338089 -0.08480522781610489 1.577469825744629
-0.1891450583934784 -0.062299180775880814 0.3489098846912384
-0.08589720726013184 -0.11554393172264099 0.7432838678359985
-0.16842494904994965 -0.07155846059322357 0.27775177359580994
-0.18649646639823914 -0.10001262277364731 0.2831755578517914
-0.20397856831550598 -0.020586399361491203 0.21279598772525787
-0.046174462884664536 0.06489759683609009 0.9680721163749695
-0.09871716797351837 0.025658931583166122 1.767296552658081
-0.11649709939956665 0.014566633850336075 1.7534286975860596
0.062082163989543915 0.1283579170703888 1.187830924987793
-0.02096441388130188 0.14588764309883118 1.1864705085754395
0.03731606900691986 0.11796671152114868 1.2438905239105225
-0.0069973282516002655 -0.03161775693297386 1.2494676113128662
0.0562850683927536 0.19544973969459534 1.2377287149429321
0.06266725808382034 0.1419799029827118 1.074794054031372
0.119178406894207 0.20033937692642212 1.1602497100830078
0.010329492390155792 0.11266513168811798 1.654940128326416
0.09288760274648666 0.12771284580230713 1.0839182138442993
0.040171317756175995 -0.2186816930770874 0.9121975302696228
0.10678388178348541 -0.08062814176082611 0.2670251429080963
0.13805103302001953 -0.0888027548789978 0.2077367901802063
0.06926295161247253 -0.1301511824131012 0.7074271440505981
0.03222520649433136 0.008339815773069859 1.0720255374908447
0.09535098075866699 -0.049009956419467926 0.5778976082801819
0.09425219893455505 0.08948803693056107 1.3120332956314087
0.04550984874367714 -0.05475737154483795 1.4142060279846191
0.041065678000450134 0.09724230319261551 1.618845820426941
0.030941536650061607 0.03044828027486801 1.5881876945495605
0.03745735436677933 0.04625650495290756 1.563187837600708
0.005075275897979736 0.00012474879622459412 1.8018772602081299
0.04813004285097122 -0.07573617249727249 1.3499113321304321
0.16034553945064545 -0.01737218350172043 0.5120662450790405
0.12661488354206085 -0.005275629460811615 0.5078150033950806
0.15653257071971893 -0.009584352374076843 0.35807764530181885
0.17849625647068024 -0.011989641934633255 0.3298136591911316
0.05938024818897247 -0.040714703500270844 1.5040113925933838
0.046249184757471085 -0.0493803471326828 1.5139509439468384
0.06010281294584274 -0.046523161232471466 1.4975214004516602
0.13376674056053162 -0.052482422441244125 0.7756170630455017
0.15278059244155884 -0.09577949345111847 0.6456000804901123
0.11688130348920822 0.024205217137932777 0.9762049317359924
0.09698005765676498 -0.07764613628387451 1.0974806547164917
0.08976620435714722 -0.13154663145542145 1.0879466533660889
0.09934812784194946 -0.15653792023658752 1.0373013019561768
0.06280088424682617 -0.005108777433633804 1.6263763904571533
0.07475125044584274 -0.011344142258167267 1.543303370475769
0.06509034335613251 -0.14442512392997742 1.246211051940918
0.09547679126262665 0.05954575538635254 1.531385064125061
0.08221220225095749 0.032981328666210175 1.5714856386184692
0.2077353596687317 -0.007778540253639221 0.10019348561763763
0.22181572020053864 -0.049509674310684204 0.08727732300758362
0.1047767624258995 0.038035836070775986 1.4975453615188599
0.11250722408294678 0.0506608746945858 1.4642829895019531
0.12161649018526077 0.03801004961133003 1.4299051761627197
0.12443653494119644 0.051296986639499664 1.415819764137268
0.07504450529813766 -0.22713729739189148 1.182849645614624
0.17835088074207306 -0.1573190540075302 0.891800582408905
0.09047353267669678 -0.20188549160957336 1.193864107131958
0.08717149496078491 -0.2281925082206726 1.1827131509780884
0.2056611031293869 -0.11262199282646179 0.9126212000846863
0.20852236449718475 -0.08985552191734314 0.8929275870323181
0.2165747880935669 -0.05491378903388977 0.9034116268157959
-0.22154498100280762 -0.09192819893360138 1.2016723155975342
-0.18145455420017242 -0.09010294079780579 1.2669918537139893
-0.18940573930740356 -0.08921504020690918 1.2507715225219727
-0.1805586963891983 -0.0809430330991745 1.256875991821289
-0.17684650421142578 -0.07933048903942108 1.2737395763397217
-0.19657298922538757 0.002497578039765358 0.8918925523757935
-0.15148478746414185 -0.044858239591121674 1.2908437252044678
-0.14581625163555145 -0.06386559456586838 1.0738873481750488
-0.1379619687795639 0.10568347573280334 1.5354599952697754
-0.14900004863739014 -0.08045987784862518 1.1970250606536865
-0.14662383496761322 -0.07677469402551651 1.142996907234192
-0.10598383843898773 0.10680840164422989 1.4302797317504883
-0.09086909890174866 0.10027157515287399 1.3917267322540283
-0.13445909321308136 -0.1397550106048584 1.0405099391937256
-0.10039921849966049 -0.16585372388362885 1.0011255741119385
-0.13884566724300385 -0.02694971114397049 0.7951394319534302
-0.018847309052944183 0.18649141490459442 1.272474765777588
-0.08147376775741577 0.13048195838928223 1.6292762756347656
-0.20053617656230927 -0.03515653312206268 0.07953305542469025
-0.21381370723247528 -0.02185133658349514 0.07097975164651871
-0.08250226080417633 0.025569358840584755 0.8723452687263489
0.0011660102754831314 0.09501772373914719 0.8570767641067505
-0.06744299083948135 -0.019980065524578094 0.8508650064468384
0.025282975286245346 0.09016754478216171 1.3349075317382812
-0.05372912809252739 -0.07928082346916199 0.7684684991836548
-0.08087600767612457 -0.1157468929886818 1.5933202505111694
-0.007004950195550919 0.014470858499407768 0.8764938116073608
-0.005796280689537525 -0.02618362568318844 0.8554641008377075
0.018076369538903236 -0.11880198121070862 0.8609438538551331
-0.07919584959745407 -0.16401581466197968 0.8605567812919617
-0.007863400503993034 -0.22525769472122192 0.8532724976539612
0.03816722333431244 -0.1107349693775177 0.8416590094566345
-0.008077370002865791 -0.16102464497089386 0.8649483919143677
-0.0183698907494545 0.02956286445260048 1.4816654920578003
0.03000459261238575 -0.03711425140500069 0.8531749844551086
0.03485901653766632 -0.05036318302154541 0.8376718163490295
-0.006118372082710266 0.03763654828071594 1.5601028203964233
-0.001311909407377243 0.04277598112821579 1.5348165035247803
0.04649342969059944 -0.1248043105006218 0.8573476076126099
0.13263574242591858 0.057136937975883484 0.8692777156829834
0.10817427188158035 -0.05179240182042122 0.2670244872570038
0.05718947947025299 -0.0359291210770607 0.8269562125205994
0.09831731021404266 0.12083651125431061 1.2195311784744263
0.13683941960334778 -0.08462768793106079 0.39249566197395325
0.13336989283561707 -0.06272336840629578 0.33072924613952637
0.14964169263839722 -0.0851006805896759 0.3458351492881775
0.1485692709684372 -0.12339454144239426 0.28982779383659363
0.08228062838315964 0.07353575527667999 1.498279333114624
0.08326922357082367 -0.017060281708836555 0.8619772791862488
0.11164408922195435 -0.036344271153211594 0.8431686162948608
0.06757129728794098 -0.07313583791255951 1.2492239475250244
0.16689470410346985 -0.09813933074474335 0.44076353311538696
0.06699735671281815 0.04893546923995018 1.6068878173828125
0.05327078327536583 -0.027909066528081894 1.2983500957489014
0.1799432635307312 -0.0846860408782959 0.34773409366607666
0.12652155756950378 0.17778940498828888 1.2189204692840576
0.07447206974029541 -0.05621155723929405 1.2220401763916016
0.16737064719200134 -0.020043306052684784 0.22235794365406036
0.17046767473220825 0.167507603764534 1.1392767429351807
0.16458386182785034 -0.009581979364156723 0.2594749927520752
0.19228771328926086 -0.12383125722408295 0.26450324058532715
0.13203245401382446 0.06860534846782684 1.332883358001709
0.06981097161769867 -0.02894047275185585 1.4616034030914307
0.07826802134513855 -0.026397641748189926 1.428253412246704
0.06755350530147552 -0.027415987104177475 1.4610705375671387
0.09233614057302475 -0.026182737201452255 1.4077216386795044
0.08263552933931351 -0.1689247488975525 1.2337440252304077
0.06915833055973053 -0.1782696396112442 1.228139877319336
0.1629093587398529 0.08721882849931717 1.243141531944275
0.19057823717594147 0.11801063269376755 1.1835602521896362
0.18619149923324585 0.11147891730070114 1.1498247385025024
0.08869761228561401 -0.03526768460869789 1.2546379566192627
0.08140319585800171 -0.0664108395576477 1.2692570686340332
0.16081565618515015 -0.18227654695510864 0.900653064250946
0.08781787753105164 -0.07650099694728851 1.2794384956359863
0.0875650942325592 -0.10167237371206284 1.1773325204849243
0.10907720029354095 -0.04056244343519211 1.1580016613006592
0.09571165591478348 -0.08375649899244308 1.1459858417510986
0.145457923412323 -0.13276717066764832 1.1959675550460815
0.17384345829486847 -0.12191682308912277 1.0681720972061157
0.1456100046634674 -0.16349180042743683 1.120469331741333
-0.1710590124130249 -0.21120700240135193 1.1695152521133423
-0.1680290549993515 -0.1420401781797409 1.2149462699890137
-0.17457862198352814 -0.12805354595184326 1.2345070838928223
-0.16045702993869781 -0.1978681981563568 1.1700031757354736
-0.1239190548658371 0.11171528697013855 1.4591314792633057
-0.12977845966815948 0.10015691071748734 1.4430797100067139
-0.12562298774719238 0.11625013500452042 1.4001758098602295
-0.16760937869548798 0.01661897450685501 1.6838942766189575
-0.17168490588665009 -0.017811503261327744 1.5999443531036377
-0.24654555320739746 -0.06027763709425926 0.34748396277427673
-0.13382548093795776 -0.06691449880599976 0.8643519878387451
-0.13755179941654205 -0.09124389290809631 0.8440938591957092
-0.06604807078838348 0.187167689204216 1.010035514831543
-0.11744225025177002 -0.11582405865192413 1.2540247440338135
-0.12103303521871567 -0.02868177928030491 0.839728593826294
-0.12205344438552856 -0.0005386248230934143 1.7331292629241943
-0.10750972479581833 -0.11955901235342026 1.1325018405914307
-0.07566962391138077 -0.18204301595687866 1.130431056022644
-0.01760799065232277 0.1615893393754959 1.1143049001693726
0.05388276278972626 0.1437121033668518 1.1139476299285889
-0.0729522854089737 -0.02324800007045269 1.1475532054901123
-0.05592205375432968 -0.11425115168094635 0.8538229465484619
-0.06319586932659149 -0.18745774030685425 1.0624668598175049
-0.051695555448532104 0.017082801088690758 1.056928277015686
-0.07230976223945618 -0.1039668619632721 1.6918494701385498
0.03778849169611931 -0.10262756049633026 0.7780848741531372
-0.02064783126115799 0.10941300541162491 1.3042610883712769
0.12006489932537079 -0.06419682502746582 0.06282846629619598
0.16141140460968018 0.18222911655902863 1.0770320892333984
0.11762835085391998 0.1347643882036209 1.1362590789794922
0.11136317253112793 0.2076578289270401 1.0853824615478516
0.10135041177272797 0.08635399490594864 0.8698619604110718
0.17932991683483124 0.017667755484580994 0.09044820070266724
0.12542667984962463 -0.038186393678188324 0.8704351186752319
0.17018458247184753 -0.08829595893621445 0.39889466762542725
0.07559630274772644 -0.04829748719930649 1.3942527770996094
0.07263365387916565 -0.07061296701431274 1.3175139427185059
0.20155587792396545 -0.0009046196937561035 0.8934929370880127
0.19771797955036163 -0.051356036216020584 0.9581398963928223
0.1626642793416977 -0.14992469549179077 1.0854904651641846
-0.25926968455314636 -0.11604428291320801 1.1654576063156128
-0.19488376379013062 -0.08352789282798767 0.9466162919998169
-0.21389037370681763 -0.07224459946155548 0.8950496912002563
-0.12903772294521332 0.09988953173160553 1.3954131603240967
-0.10169865190982819 0.12976565957069397 1.2592291831970215
-0.15030421316623688 0.02850865200161934 1.5194165706634521
-0.13855794072151184 -0.05577655881643295 1.0417591333389282
-0.1458616703748703 -0.08434520661830902 1.0807819366455078
-0.1496385633945465 0.03237372264266014 1.5202867984771729
-0.15042994916439056 0.019198045134544373 1.506943702697754
-0.14996464550495148 0.024913903325796127 1.5148839950561523
-0.1516381949186325 0.022972166538238525 1.5183639526367188
-0.1568431556224823 0.012236550450325012 1.507590413093567
-0.24203312397003174 -0.12036643922328949 0.19692294299602509
-0.17117130756378174 -0.0536637082695961 1.6507645845413208
-0.046871840953826904 -0.014473918825387955 1.2024853229522705
-0.20604915916919708 -0.13680043816566467 0.0698833018541336
-0.06447096914052963 -0.018586132675409317 1.2449548244476318
-0.01874101534485817 -0.028665851801633835 1.1597316265106201
-0.03509605675935745 0.09303636848926544 0.9310582876205444
-0.06203150004148483 -0.014132678508758545 1.7508459091186523
-0.07629194855690002 -0.06753338873386383 0.7085461616516113
0.0046752700582146645 0.110137440264225 1.2706151008605957
-0.0037591420114040375 -0.19200995564460754 1.0116007328033447
-0.05629344284534454 -0.17892110347747803 1.231763243675232
0.057707905769348145 0.1304091215133667 1.156690001487732
0.12807446718215942 -0.05378561466932297 0.19680596888065338
0.05356132984161377 -0.18036213517189026 0.9993693828582764
0.10455433279275894 -0.17432458698749542 0.9881283640861511
0.05423903092741966 0.04705019295215607 1.530857801437378
0.04272867739200592 -0.1647365391254425 1.1810851097106934
0.0214084405452013 -0.03863514959812164 1.159959316253662
0.07975519448518753 -0.03194328024983406 1.0896309614181519
0.07740738987922668 0.057457711547613144 0.9657700657844543
0.1684291958808899 -0.08727163076400757 0.03342127799987793
0.144374281167984 -0.08170296251773834 0.03334188833832741
0.19850338995456696 -0.06467396020889282 0.042792972177267075
0.21085307002067566 -0.09833952784538269 0.2508893609046936
0.06704477220773697 -0.02781764790415764 1.458441972732544
0.06612662971019745 -0.027499496936798096 1.4588963985443115
0.059640876948833466 -0.04261394962668419 1.3219273090362549
0.07180202007293701 -0.06548222154378891 1.3057496547698975
0.20698466897010803 0.13221530616283417 1.0844112634658813
0.20474708080291748 0.11142846196889877 1.0389797687530518
0.2137269228696823 0.11456677317619324 1.035506010055542
0.187212735414505 -0.11503060907125473 1.0700709819793701
0.1628345251083374 -0.17200982570648193 1.0661070346832275
0.16852930188179016 -0.19870102405548096 1.0605015754699707
-0.25762081146240234 -0.08109408617019653 1.090854525566101
-0.17776547372341156 -0.17058968544006348 1.2056529521942139
-0.21629874408245087 -0.06546300649642944 0.3761555552482605
-0.030761877074837685 0.16531327366828918 0.9856116771697998
-0.11389312148094177 -0.14067474007606506 1.0802695751190186
-0.03725208714604378 -0.04244624823331833 0.8482841849327087
-0.06292932480573654 -0.02978914976119995 0.8146851062774658
-0.05850366875529289 -0.08247026056051254 0.8156200647354126
-0.010538170114159584 0.0071588121354579926 1.1024097204208374
0.024096067994832993 -0.2083064168691635 0.8438904881477356
0.09829685091972351 0.013715040870010853 0.8776751756668091
0.13538137078285217 0.13092836737632751 1.103047490119934
0.07144635170698166 0.009739886969327927 1.5465031862258911
0.08418639004230499 0.03032475709915161 1.5249741077423096
0.18509098887443542 -0.12031902372837067 0.9579053521156311
-0.18198204040527344 -0.18432238698005676 1.1752361059188843
-0.14639797806739807 0.0756799504160881 1.5521926879882812
-0.004546495154500008 0.1733061522245407 1.0316193103790283
-0.12547825276851654 0.10049706697463989 1.583886981010437
-0.10406547784805298 0.06274795532226562 1.572689414024353
-0.07382352650165558 0.05198937654495239 1.5526474714279175
0.017323456704616547 -0.19504928588867188 1.0705952644348145
0.030064625665545464 -0.13559380173683167 1.2670892477035522
0.1685899943113327 -0.10130514204502106 0.16963517665863037
0.06870455294847488 -0.12747794389724731 1.2254199981689453
0.08191026002168655 -0.12222021818161011 1.1724331378936768
0.10759177803993225 0.058721866458654404 1.427786111831665
0.09655708074569702 0.08740146458148956 1.4389853477478027
0.0873396247625351 -0.07919546961784363 1.177478313446045
0.13057073950767517 -0.07550450414419174 0.8539482355117798
0.05398597940802574 -0.15985362231731415 1.252210259437561
0.13558703660964966 0.08386658877134323 1.3530700206756592
-0.09829838573932648 0.12501537799835205 1.342722773551941
-0.20761463046073914 0.010768992826342583 0.38308271765708923
0.05300474539399147 -0.10237312316894531 0.737318217754364
-0.019233353435993195 -0.11250422894954681 1.6727540493011475
-0.08133167028427124 0.18597498536109924 1.0761544704437256
-0.17054986953735352 -0.08047588914632797 1.2763309478759766
-0.1650170087814331 -0.030107280239462852 0.4163554012775421
0.017263289541006088 0.13203763961791992 1.46834135055542
0.12698738276958466 -0.09098007529973984 0.039629772305488586
0.06243782490491867 -0.045837610960006714 1.498082160949707
0.06170918419957161 -0.045722540467977524 1.495420217514038
0.065108522772789 -0.032625697553157806 1.4154013395309448
0.20284423232078552 -0.08192174881696701 0.2221369743347168
0.1992606520652771 -0.04749162867665291 0.20978400111198425
0.09579262137413025 -0.09997056424617767 1.2259972095489502
-0.17283707857131958 -0.15663811564445496 0.9419951438903809
-0.11017869412899017 0.1120920330286026 1.3710591793060303
-0.11023128032684326 0.10905248671770096 1.3712717294692993
-0.11438656598329544 0.10800802707672119 1.3717061281204224
-0.18529397249221802 -0.05896715447306633 0.21482525765895844
-0.03610251843929291 -0.0968371257185936 0.8492212295532227
0.139908567070961 -0.0804804116487503 0.15815123915672302
0.107685387134552 -0.129900723695755 1.187190294265747
0.04284162074327469 -0.06981385499238968 1.6318848133087158
0.14784179627895355 -0.09789138287305832 0.8042874336242676
0.12357142567634583 0.04802877828478813 1.3975706100463867
0.13094432651996613 0.06521648168563843 1.3641538619995117
0.1279231607913971 -0.01587604731321335 0.07180483639240265
-0.04071208834648132 -0.459121972322464 1.1248830556869507
-0.03195808827877045 -0.4318472743034363 1.097216248512268
-0.0353555753827095 -0.44214069843292236 1.1013615131378174
-0.04150334373116493 -0.4346298575401306 1.105975866317749
-0.045742202550172806 -0.45716920495033264 1.1122932434082031
-0.03451976180076599 -0.44878947734832764 1.1258865594863892
0.04642878472805023 -0.3337481617927551 1.08730947971344
0.03357396274805069 -0.33500272035598755 1.081602692604065
0.0321456715464592 -0.3549065887928009 1.0915511846542358
0.02299393340945244 -0.36120444536209106 1.0947692394256592
0.11473024636507034 -0.21289284527301788 1.0028815269470215
0.10842496156692505 -0.2231520414352417 1.021135687828064
0.1083540990948677 -0.22431030869483948 0.9960933923721313
0.021168943494558334 -0.3498610258102417 1.0493254661560059
0.015678828582167625 -0.3619990944862366 1.0646573305130005
0.020214209333062172 -0.3822052776813507 1.1193172931671143
0.023553555831313133 -0.3719741106033325 1.105631947517395
0.08577486872673035 -0.25313010811805725 0.9822637438774109
0.08212143182754517 -0.25826650857925415 1.006395697593689
0.0860569030046463 -0.28530532121658325 1.0751161575317383
0.08345864713191986 -0.27752694487571716 1.0683730840682983
-0.016188614070415497 -0.43645739555358887 1.1343235969543457
-0.02093254216015339 -0.4258495271205902 1.087044596672058
0.11224085092544556 -0.22834442555904388 0.9863372445106506
0.10410334169864655 -0.232005774974823 0.9838805198669434
0.23930373787879944 -0.08459216356277466 1.0507656335830688
0.23112136125564575 -0.09427835792303085 1.0502171516418457
0.23609678447246552 -0.08544991910457611 1.0301525592803955
0.0033541563898324966 -0.4018750786781311 1.115593433380127
-0.009188178926706314 -0.4205981194972992 1.1219629049301147
0.1092425212264061 -0.23096370697021484 0.9801911115646362
0.10861603915691376 -0.22996869683265686 0.97080397605896
-0.05794660374522209 -0.47859954833984375 1.0763121843338013
-0.061596013605594635 -0.4898195266723633 1.087332010269165
0.24949684739112854 -0.0770229622721672 1.0428781509399414
0.24567274749279022 -0.0841354951262474 1.0561696290969849
0.24424952268600464 -0.07660473138093948 1.036737084388733
0.2403254508972168 -0.08492740243673325 1.0276474952697754
-0.0680435374379158 -0.5124504566192627 1.1419304609298706
-0.07418155670166016 -0.5289204716682434 1.154739499092102
-0.0793498158454895 -0.5281243920326233 1.13703453540802
0.05294548720121384 -0.3086501955986023 1.0203475952148438
0.047964513301849365 -0.32468122243881226 1.0210473537445068
0.03259280323982239 -0.3404487073421478 1.0180317163467407
0.038766007870435715 -0.3404015898704529 1.0140624046325684
0.24475668370723724 -0.0914752408862114 1.0616203546524048
0.24865782260894775 -0.07812608033418655 1.0322890281677246
0.017069969326257706 -0.4003008008003235 1.1307419538497925
0.022404253482818604 -0.40195274353027344 1.1312092542648315
0.006657209247350693 -0.41052427887916565 1.1329072713851929
0.0007596961222589016 -0.42749476432800293 1.1406712532043457
0.07683252543210983 -0.27965104579925537 1.0024464130401611
0.06739017367362976 -0.29422736167907715 0.9995416402816772
0.06452631205320358 -0.29357630014419556 1.0059888362884521
0.2514406442642212 -0.08051461726427078 1.0372872352600098
0.24605531990528107 -0.09272009134292603 1.0590234994888306
0.24185213446617126 -0.08979733288288116 1.0310208797454834
0.11783083528280258 -0.21143749356269836 0.9393211007118225
0.11388309299945831 -0.21700188517570496 0.9324438571929932
0.11341769993305206 -0.22363781929016113 0.9570932388305664
0.11462312936782837 -0.22227174043655396 0.9470794200897217
0.11321061104536057 -0.21681392192840576 0.9429168701171875
0.027708664536476135 -0.3603551685810089 1.0120848417282104
0.02865699678659439 -0.34709346294403076 1.006636381149292
0.0262303426861763 -0.35282301902770996 0.9962048530578613
0.023197518661618233 -0.3570665717124939 0.9975807666778564
0.24330247938632965 -0.09332054108381271 1.0389810800552368
-0.07265031337738037 -0.5369415879249573 1.161949634552002
-0.07511880248785019 -0.5339410901069641 1.1441820859909058
-0.07552763819694519 -0.5453634262084961 1.1600773334503174
-0.08354245126247406 -0.5461320281028748 1.1631495952606201
-0.07888805866241455 -0.5285712480545044 1.1295506954193115
0.13554497063159943 -0.2279532104730606 0.9973185658454895
0.11861242353916168 -0.23358888924121857 0.9853013753890991
-0.042148031294345856 -0.4685463011264801 1.067255973815918
-0.05788502097129822 -0.48748698830604553 1.0788357257843018
-0.06375425308942795 -0.5047578811645508 1.094516396522522
0.1030338853597641 -0.28354117274284363 1.0741339921951294
0.09056836366653442 -0.29561519622802734 1.0765104293823242
0.08971795439720154 -0.3092162609100342 1.073212742805481
0.026977283880114555 -0.39991024136543274 1.134121298789978
0.021642692387104034 -0.40694907307624817 1.1259878873825073
-0.005686447024345398 -0.4448566436767578 1.139535665512085
0.03595948964357376 -0.3752427101135254 1.1155474185943604
-0.020098276436328888 -0.44915980100631714 1.081624150276184
-0.0406278558075428 -0.47451192140579224 1.0840705633163452
0.10615546256303787 -0.28438904881477356 1.0684168338775635
0.03484346345067024 -0.3912866711616516 1.0995694398880005
0.04363646358251572 -0.3763367533683777 1.0896384716033936
0.025956323370337486 -0.4041295647621155 1.1052051782608032
-0.05730971693992615 -0.5130326747894287 1.1291992664337158
-0.05139228329062462 -0.5048043131828308 1.1170175075531006
0.022495096549391747 -0.3797009587287903 1.046454668045044
0.028624625876545906 -0.38456857204437256 1.061754822731018
0.01654653623700142 -0.39432430267333984 1.0663173198699951
0.022316591814160347 -0.39836061000823975 1.0759825706481934
0.0685308501124382 -0.3375549912452698 1.0786547660827637
0.044944290071725845 -0.3632091283798218 1.0885846614837646
-0.006625808775424957 -0.44637346267700195 1.1188410520553589
-0.015684824436903 -0.4637157618999481 1.1183197498321533
-0.027229856699705124 -0.4654845595359802 1.1238162517547607
-0.0065422626212239265 -0.44107943773269653 1.092572808265686
-0.011524581350386143 -0.4481847882270813 1.089411735534668
0.052154507488012314 -0.35330191254615784 1.043998122215271
0.04176340997219086 -0.3657311797142029 1.0482611656188965
0.047619715332984924 -0.3438774347305298 1.0281574726104736
0.04168890416622162 -0.36151325702667236 1.0386170148849487
0.03226454555988312 -0.37139594554901123 1.0505735874176025
0.06464232504367828 -0.3405495285987854 1.051677942276001
0.07503476738929749 -0.32990726828575134 1.0550670623779297
0.06984817981719971 -0.3163175582885742 1.0261058807373047
0.07046151161193848 -0.32756370306015015 1.0437477827072144
-0.013964472338557243 -0.4560442566871643 1.0962677001953125
-0.02157919853925705 -0.47079673409461975 1.10542893409729
-0.023157482966780663 -0.4626528322696686 1.0975617170333862
-0.011677548289299011 -0.4691617488861084 1.1015557050704956
0.13493961095809937 -0.24094954133033752 1.0129883289337158
-0.022705720737576485 -0.4130454957485199 1.1115636825561523
-0.03514248505234718 -0.4232306480407715 1.1047697067260742
0.011101126670837402 -0.36625272035598755 1.090047001838684
0.012064475566148758 -0.36434781551361084 1.0850759744644165
0.0008928440511226654 -0.37561845779418945 1.096967339515686
0.0068909600377082825 -0.36989396810531616 1.0840375423431396
0.0014582714065909386 -0.3793453574180603 1.0939421653747559
0.03060133196413517 -0.34229639172554016 1.0647016763687134
0.02256125956773758 -0.35156702995300293 1.0666148662567139
0.041241224855184555 -0.328505277633667 1.0587773323059082
0.007880101911723614 -0.3778737187385559 1.101435899734497
-0.03463316336274147 -0.44531190395355225 1.0778287649154663
-0.043524544686079025 -0.45497384667396545 1.1053670644760132
0.008533904328942299 -0.3692421317100525 1.0621545314788818
-0.056064486503601074 -0.47213369607925415 1.1193207502365112
-0.06613511592149734 -0.4914819002151489 1.119792103767395
-0.054015032947063446 -0.47936803102493286 1.1096820831298828
-0.06876077502965927 -0.5049322247505188 1.1329708099365234
0.12835828959941864 -0.2111106961965561 1.0204867124557495
0.1244451105594635 -0.24776813387870789 1.0941327810287476
0.11116970330476761 -0.25080156326293945 1.0864776372909546
0.11814932525157928 -0.2541347146034241 1.0926676988601685
0.07589036971330643 -0.2765495777130127 1.010184645652771
0.22737166285514832 -0.08929866552352905 1.0199167728424072
0.2306707799434662 -0.10228917002677917 1.0629571676254272
0.2226811796426773 -0.11164236068725586 1.058933973312378
0.22150558233261108 -0.10734744369983673 1.0509129762649536
0.05255685746669769 -0.34371626377105713 1.0949474573135376
-0.021968528628349304 -0.4512166976928711 1.150246262550354
-0.07201139628887177 -0.5075604319572449 1.1113239526748657
0.1894012689590454 -0.13741587102413177 1.020289659500122
0.17850178480148315 -0.1602228283882141 1.0135842561721802
0.06579505652189255 -0.32648712396621704 1.0977386236190796
0.05663108080625534 -0.33077096939086914 1.0918647050857544
0.03311111405491829 -0.36281007528305054 1.0998412370681763
-0.07509277760982513 -0.5173972249031067 1.11483633518219
-0.07658715546131134 -0.5384011268615723 1.167418360710144
-0.07924437522888184 -0.5427869558334351 1.1706454753875732
-0.08175810426473618 -0.5416821241378784 1.151987910270691
0.14715340733528137 -0.1939813494682312 1.017338514328003
0.1400821954011917 -0.21375052630901337 1.020577311515808
0.04375045374035835 -0.3661538362503052 1.099858045578003
0.12475970387458801 -0.2148691564798355 1.0002233982086182
-0.0636783018708229 -0.4949149489402771 1.0897043943405151
0.15557485818862915 -0.217920184135437 1.1046278476715088
0.1557171642780304 -0.2215074896812439 1.1025865077972412
0.1465270072221756 -0.227685809135437 1.0915724039077759
0.14744919538497925 -0.23306995630264282 1.102723240852356
0.14209383726119995 -0.24401088058948517 1.1074203252792358
0.13389348983764648 -0.22436189651489258 1.0703456401824951
0.1427387297153473 -0.22863483428955078 1.074182152748108
-0.07947499305009842 -0.5439132452011108 1.172385573387146
0.010456649586558342 -0.3873136639595032 1.0502947568893433
0.0067685386165976524 -0.396074116230011 1.0584355592727661
0.0013821301981806755 -0.39755696058273315 1.0607465505599976
0.01901436597108841 -0.3717995285987854 1.0339478254318237
0.15067210793495178 -0.23464351892471313 1.1015799045562744
0.1421012282371521 -0.2459874451160431 1.104224443435669
0.11477905511856079 -0.23790434002876282 0.973290741443634
0.15323452651500702 -0.2288391888141632 1.0997095108032227
0.14760378003120422 -0.233936607837677 1.092003345489502
0.029818043112754822 -0.3914390802383423 1.1233822107315063
0.10616692900657654 -0.24056768417358398 0.9459412693977356
0.1044301986694336 -0.23894694447517395 0.9414374828338623
0.09518638998270035 -0.24812686443328857 0.9314619302749634
0.09087829291820526 -0.2553240656852722 0.9376047849655151
0.14527876675128937 -0.22340980172157288 1.0191020965576172
0.13499805331230164 -0.25264161825180054 1.0899927616119385
0.017223434522747993 -0.40867745876312256 1.1129883527755737
0.004411410074681044 -0.426216721534729 1.1211096048355103
0.10845700651407242 -0.24980513751506805 0.9730349183082581
0.1050766333937645 -0.2569614052772522 0.9727688431739807
0.09986872971057892 -0.25090956687927246 0.959006130695343
0.008638957515358925 -0.42623043060302734 1.111877679824829
0.018747368827462196 -0.41304028034210205 1.1019251346588135
0.008115721866488457 -0.4206858277320862 1.0886400938034058
0.02115703374147415 -0.40603524446487427 1.0839771032333374
-0.04626424238085747 -0.4854363203048706 1.0980360507965088
-0.0434035062789917 -0.4915456473827362 1.1049143075942993
0.11900286376476288 -0.251941442489624 0.9912682175636292
0.12987671792507172 -0.25506100058555603 1.0394554138183594
0.115892693400383 -0.27224189043045044 1.0378445386886597
0.11999277770519257 -0.2673133909702301 1.0258545875549316
0.1082935631275177 -0.2838536500930786 1.0393611192703247
0.09686948359012604 -0.28957492113113403 1.0320950746536255
0.007307249121367931 -0.4352405071258545 1.096466302871704
0.015101088210940361 -0.42739951610565186 1.092057466506958
-0.0019280239939689636 -0.45904821157455444 1.1127351522445679
0.050599340349435806 -0.37889978289604187 1.0798925161361694
0.03237460181117058 -0.40000638365745544 1.0899569988250732
0.04312343895435333 -0.3832077383995056 1.080238699913025
0.03542047739028931 -0.3930528461933136 1.0783737897872925
0.03459314629435539 -0.3989824652671814 1.0860689878463745
0.03575965017080307 -0.38824838399887085 1.0843037366867065
0.030413825064897537 -0.40302127599716187 1.0836573839187622
-0.008463878184556961 -0.46976202726364136 1.1098976135253906
-0.00811883807182312 -0.46256786584854126 1.1000479459762573
-0.032502494752407074 -0.42899656295776367 1.1185927391052246
-0.042445797473192215 -0.44255590438842773 1.1181457042694092
-0.03548070043325424 -0.42828866839408875 1.1007277965545654
-0.046226657927036285 -0.443600594997406 1.111741304397583
0.11025221645832062 -0.23799258470535278 1.0748482942581177
0.10280681401491165 -0.23177506029605865 1.0080031156539917
0.09438003599643707 -0.24074649810791016 1.0055508613586426
0.1243073120713234 -0.2159658670425415 1.0470548868179321
-0.018615592271089554 -0.42320019006729126 1.1201200485229492
-0.011414781212806702 -0.40751510858535767 1.0908310413360596
0.08026687055826187 -0.26760604977607727 1.0343294143676758
0.07576178759336472 -0.2758730947971344 1.0231943130493164
0.09972293674945831 -0.2525593340396881 1.0684304237365723
0.092336006462574 -0.26833030581474304 1.070709466934204
-0.006460707634687424 -0.4015399217605591 1.0904258489608765
-0.022557862102985382 -0.4354276657104492 1.1257723569869995
0.06362955272197723 -0.2951567471027374 1.0352210998535156
0.04579116404056549 -0.3200836181640625 1.0511109828948975
0.04953646659851074 -0.3121963441371918 1.0309449434280396
0.0013020853511989117 -0.3850635588169098 1.078216314315796
-0.06066526845097542 -0.49382561445236206 1.1367013454437256
-0.07624252140522003 -0.5205894708633423 1.1425306797027588
-0.07628588378429413 -0.5184813141822815 1.1234781742095947
0.13147424161434174 -0.2388157844543457 1.1015914678573608
0.11033598333597183 -0.26521778106689453 1.0986474752426147
0.07803068310022354 -0.2996658384799957 1.080805778503418
0.06380216032266617 -0.3181059658527374 1.0894659757614136
0.045468639582395554 -0.325390100479126 1.0264239311218262
0.10648991912603378 -0.27766484022140503 1.1083136796951294
0.10470195859670639 -0.2625606656074524 1.0746887922286987
0.1005403995513916 -0.2767519950866699 1.0747734308242798
-0.03269602358341217 -0.4683910608291626 1.1488550901412964
-0.04510411620140076 -0.48531538248062134 1.1438308954238892
-0.0008420683443546295 -0.3957822024822235 1.0654206275939941
0.17139624059200287 -0.16975519061088562 1.0415771007537842
0.17781831324100494 -0.1590782254934311 1.0413415431976318
0.026874668896198273 -0.3461408019065857 1.0093135833740234
0.07631192356348038 -0.3159751296043396 1.0833497047424316
0.07202503830194473 -0.32773852348327637 1.100595235824585
-0.024704109877347946 -0.4625577926635742 1.1496050357818604
-0.02421828918159008 -0.46796515583992004 1.1456265449523926
-0.03692508116364479 -0.4768260717391968 1.1453278064727783
0.09540966153144836 -0.25792255997657776 0.9704181551933289
0.08570381253957748 -0.26934146881103516 0.9704675674438477
0.0817432627081871 -0.26743969321250916 0.9714191555976868
0.0909486711025238 -0.2507704496383667 0.9629626870155334
0.09494254738092422 -0.25389543175697327 0.9593218564987183
0.08887659758329391 -0.2541664242744446 0.9453948140144348
0.07712334394454956 -0.27364176511764526 0.993674635887146
0.08507675677537918 -0.2510032653808594 0.9400209188461304
0.078377366065979 -0.2605489492416382 0.9328999519348145
0.14569488167762756 -0.2202622890472412 1.0462397336959839
0.14065729081630707 -0.22486761212348938 1.0492922067642212
0.1350230872631073 -0.21587395668029785 1.0172460079193115
0.13212749361991882 -0.2476242184638977 1.0989253520965576
0.12657007575035095 -0.25639110803604126 1.090882420539856
0.026806620880961418 -0.39983952045440674 1.1447371244430542
0.0273435041308403 -0.3943873643875122 1.1450527906417847
0.02530108205974102 -0.3897993862628937 1.1303250789642334
0.08689051866531372 -0.2591904401779175 0.9296491146087646
0.09061180055141449 -0.2454070746898651 0.9305009841918945
0.08150032162666321 -0.27519887685775757 0.990729033946991
-0.017684249207377434 -0.4372069835662842 1.0738329887390137
-0.0327569842338562 -0.4509059488773346 1.0726836919784546
0.14543414115905762 -0.23655398190021515 1.076979398727417
0.1565927416086197 -0.20827040076255798 1.0441749095916748
-0.016728760674595833 -0.4597991704940796 1.1290838718414307
0.03653914853930473 -0.3473260998725891 1.0127121210098267
0.22057858109474182 -0.12112361937761307 1.0218944549560547
0.2130916863679886 -0.13185971975326538 1.0209230184555054
0.03898288682103157 -0.3536572754383087 1.0194395780563354
0.16069531440734863 -0.20577320456504822 1.032246708869934
0.15166805684566498 -0.21938326954841614 1.036086916923523
0.14661769568920135 -0.21708786487579346 1.0244324207305908
0.002388332039117813 -0.432468056678772 1.0924688577651978
0.13166865706443787 -0.23550871014595032 0.9943798184394836
0.05708242580294609 -0.3381919264793396 1.0336060523986816
0.14504237473011017 -0.23404914140701294 1.0369961261749268
0.13839289546012878 -0.2477329969406128 1.04075288772583
0.14094004034996033 -0.24634695053100586 1.0657962560653687
0.12808841466903687 -0.2558726966381073 1.0504810810089111
0.1480764001607895 -0.22716882824897766 1.0252987146377563
0.14128822088241577 -0.2299322783946991 1.0115633010864258
0.010580901056528091 -0.434181272983551 1.101456880569458
0.025750700384378433 -0.34499669075012207 1.0832890272140503
0.019227368757128716 -0.3452344536781311 1.0798753499984741
0.016742698848247528 -0.3546195924282074 1.0901639461517334
0.02080630138516426 -0.3416101336479187 1.0736531019210815
0.011447468772530556 -0.35697388648986816 1.0845015048980713
-0.012933582067489624 -0.4012041389942169 1.1069399118423462
-0.014950028620660305 -0.41041451692581177 1.114618182182312
0.01323794387280941 -0.3653164207935333 1.0810296535491943
0.006279489956796169 -0.3730689287185669 1.0743846893310547
-0.002643052488565445 -0.38978803157806396 1.0919835567474365
-0.0030312445014715195 -0.39382243156433105 1.1043641567230225
0.08789041638374329 -0.25494447350502014 1.031054139137268
0.11886061728000641 -0.23805564641952515 1.0872312784194946
0.12978500127792358 -0.2253274917602539 1.0752949714660645
0.14243781566619873 -0.19266989827156067 1.0399134159088135
0.14509376883506775 -0.1892780065536499 1.028429388999939
0.016299402341246605 -0.3702128827571869 1.0430439710617065
0.03373662754893303 -0.3351832330226898 1.0321482419967651
0.018443970009684563 -0.35731953382492065 1.008146047592163
0.025273051112890244 -0.3451223373413086 1.035246729850769
0.21857178211212158 -0.11688017845153809 1.0584428310394287
0.23228110373020172 -0.09493108838796616 1.0359961986541748
0.22250202298164368 -0.10465916991233826 1.0422346591949463
0.21791857481002808 -0.10750607401132584 1.0322401523590088
0.2087142914533615 -0.11280304193496704 1.027064561843872
0.1700982302427292 -0.16217902302742004 1.0162416696548462
0.15925289690494537 -0.17569950222969055 1.0163655281066895
0.14723950624465942 -0.21935048699378967 1.1019082069396973
0.022564774379134178 -0.39591747522354126 1.144538164138794
-0.003895280882716179 -0.42982935905456543 1.1389273405075073
-0.045209601521492004 -0.46373283863067627 1.0647883415222168
-0.04506345093250275 -0.4602251648902893 1.0692468881607056
0.09966059774160385 -0.2368258237838745 0.9397231340408325
0.08741573989391327 -0.24317553639411926 0.934054970741272
0.1841224879026413 -0.16562536358833313 1.0405586957931519
0.17527978122234344 -0.17931827902793884 1.0406358242034912
0.02450280822813511 -0.3939918875694275 1.1481671333312988
0.05937996879220009 -0.3170992434024811 1.0173323154449463
0.05413496866822243 -0.3308049738407135 1.0253442525863647
0.07360315322875977 -0.3232596516609192 1.0885558128356934
0.06291009485721588 -0.3351488709449768 1.0903234481811523
0.05103528872132301 -0.34936898946762085 1.0914390087127686
0.1024947315454483 -0.2759067118167877 1.0008991956710815
0.2092481553554535 -0.14185255765914917 1.0334689617156982
0.2029447704553604 -0.15189409255981445 1.022748589515686
-0.04749863222241402 -0.4972986578941345 1.1132169961929321
0.10609413683414459 -0.2875595688819885 1.0583641529083252
0.0973830372095108 -0.303358793258667 1.0496429204940796
0.1069810688495636 -0.27354490756988525 1.0159947872161865
0.10382366925477982 -0.2696036696434021 0.9892642498016357
0.08553697168827057 -0.28398597240448 1.0066436529159546
0.12309066951274872 -0.26605796813964844 1.047149419784546
0.13046088814735413 -0.26424935460090637 1.0629326105117798
0.12152616679668427 -0.27161481976509094 1.061937689781189
0.11581724882125854 -0.27643805742263794 1.0470285415649414
0.10569456964731216 -0.2365715354681015 1.0490251779556274
0.11581262201070786 -0.2170432060956955 1.0301662683486938
0.10982679575681686 -0.2249833643436432 1.040499210357666
0.10161314159631729 -0.2328547239303589 1.0286542177200317
-0.024867001920938492 -0.42269277572631836 1.0981223583221436
0.09611321985721588 -0.23582333326339722 0.9977424144744873
-0.03525673970580101 -0.45685288310050964 1.130428433418274
0.06700889766216278 -0.28583234548568726 1.0215460062026978
0.19762220978736877 -0.12708905339241028 1.0391674041748047
0.18951265513896942 -0.13607028126716614 1.0330525636672974
0.1917818784713745 -0.1340773105621338 1.0229837894439697
0.10738290846347809 -0.26099538803100586 1.0761547088623047
0.10518191009759903 -0.2732419967651367 1.0993928909301758
0.10866360366344452 -0.2639124393463135 1.0841807126998901
0.09137044101953506 -0.2536892890930176 0.9715726971626282
0.07732421904802322 -0.25612759590148926 0.9313054084777832
-0.008558893576264381 -0.4137416481971741 1.0690324306488037
-0.013595032505691051 -0.42191511392593384 1.0698555707931519
-0.021835636347532272 -0.43107831478118896 1.0747748613357544
0.13380640745162964 -0.22000612318515778 1.0502643585205078
0.11207576096057892 -0.2772621214389801 1.1028752326965332
0.10371910780668259 -0.27958744764328003 1.1010280847549438
0.10849285125732422 -0.2750822901725769 1.0890740156173706
0.10737854242324829 -0.2721770405769348 1.0723222494125366
-0.05977281928062439 -0.4850916862487793 1.0758742094039917
-0.06944499909877777 -0.5113801956176758 1.1075843572616577
0.22611334919929504 -0.1090792864561081 1.030140995979309
0.23132885992527008 -0.09724986553192139 1.0102636814117432
0.23096969723701477 -0.09738318622112274 1.0248918533325195
0.22588250041007996 -0.1074601411819458 1.0241038799285889
0.2239862084388733 -0.11118593066930771 1.0162158012390137
0.22366823256015778 -0.09903991967439651 1.007179617881775
0.21926923096179962 -0.1105644628405571 1.0114914178848267
0.08223205804824829 -0.2828662395477295 1.0001256465911865
0.20856903493404388 -0.12547090649604797 1.006574273109436
0.18682394921779633 -0.16561555862426758 1.0194892883300781
0.17364662885665894 -0.17667347192764282 1.0163085460662842
0.1740265190601349 -0.18602335453033447 1.0314996242523193
0.14641621708869934 -0.2308070957660675 1.0431153774261475
0.14364080131053925 -0.235521599650383 1.0586400032043457
0.09525979310274124 -0.2691251039505005 0.9786951541900635
0.07806925475597382 -0.33014392852783203 1.0636168718338013
0.08565013855695724 -0.31426846981048584 1.043963074684143
0.01873082108795643 -0.42503663897514343 1.0980688333511353
0.06724236905574799 -0.35158804059028625 1.0678337812423706
0.05815327167510986 -0.3689228892326355 1.0754154920578003
0.06261400133371353 -0.3629627823829651 1.0686922073364258
0.047369904816150665 -0.3804266154766083 1.0750007629394531
0.05482211709022522 -0.3113126754760742 1.0730462074279785
0.04116152226924896 -0.3192821145057678 1.071654200553894
0.06796976923942566 -0.29720544815063477 1.0733630657196045
0.04826868325471878 -0.31193673610687256 1.0607751607894897
-0.05120426416397095 -0.4685867428779602 1.0913581848144531
0.1439715176820755 -0.1941150724887848 1.0221397876739502
0.13306298851966858 -0.20651668310165405 1.024478554725647
