0.19242626428604126 -0.12724588811397552 0.06714200973510742
0.047485046088695526 0.005134902894496918 1.7111337184906006
0.03417383134365082 -0.16079410910606384 1.1417267322540283
0.03740765154361725 -0.1351253092288971 1.2657357454299927
0.03790408745408058 -0.15132871270179749 1.2633565664291382
0.12464268505573273 -0.19001147150993347 0.9364246726036072
0.03499042987823486 -0.06783629208803177 1.5425691604614258
0.04564570635557175 0.00489015132188797 1.5423067808151245
0.040881529450416565 -0.020358484238386154 1.5287549495697021
0.04677079617977142 -0.03629312664270401 1.523967981338501
0.05451420322060585 -0.04835832864046097 1.5008368492126465
0.13907964527606964 -0.06596364825963974 0.6539921760559082
0.13711045682430267 -0.13152968883514404 0.6734551191329956
0.06075487285852432 -0.05159677565097809 1.3827580213546753
0.06592847406864166 -0.0067798905074596405 1.322096824645996
0.034528184682130814 -0.009118393063545227 1.3395299911499023
0.043958116322755814 -0.0298976581543684 1.3154242038726807
0.12603487074375153 -0.11928339302539825 0.8360218405723572
0.19324991106987 -0.012547038495540619 0.07015657424926758
0.20630988478660583 -0.03664975240826607 0.06544506549835205
0.05694954842329025 -0.0030140280723571777 1.6652852296829224
0.0731489509344101 -0.02964670956134796 1.3747940063476562
0.2022244930267334 -0.06834246218204498 0.31731757521629333
0.08170060068368912 0.013183463364839554 1.6413755416870117
0.06026693806052208 0.04027842357754707 1.6460061073303223
0.06805084645748138 0.010439008474349976 1.6100597381591797
0.20926342904567719 -0.0435430184006691 0.1417262852191925
0.21632975339889526 -0.09492349624633789 0.06843181699514389
0.20541808009147644 -0.1246228963136673 0.094990074634552
0.1509985327720642 -0.015809807926416397 0.9765325784683228
0.15109612047672272 -0.01648661680519581 0.8779494166374207
0.0823780745267868 -0.011195626109838486 1.7245513200759888
0.16803982853889465 0.03686108440160751 0.8846651315689087
0.17927765846252441 0.0003242436796426773 0.9481795430183411
0.08952312171459198 -0.016912654042243958 1.3171064853668213
0.10037775337696075 -0.037147827446460724 1.304617166519165
0.07181650400161743 -0.05403691530227661 1.3515642881393433
0.10094992816448212 -0.026664484292268753 1.2633156776428223
0.091185063123703 -0.029766768217086792 1.2431440353393555
0.10372835397720337 -0.10349667072296143 1.232116460800171
0.11660345643758774 -0.06026021018624306 1.2655680179595947
0.13822457194328308 -0.03991175442934036 1.1996734142303467
0.15373307466506958 -0.04941838979721069 1.1245685815811157
0.17792418599128723 -0.06455053389072418 1.1397230625152588
0.1631172150373459 -0.07717185467481613 1.1903939247131348
0.1343313753604889 -0.11030835658311844 1.2107006311416626
0.18157458305358887 -0.08843483030796051 1.0887824296951294
0.1943325698375702 -0.1507910043001175 1.1438686847686768
0.20426885783672333 -0.1305815577507019 1.1235679388046265
0.19699959456920624 -0.10539178550243378 1.095729112625122
0.15051692724227905 -0.18442705273628235 1.128465175628662
0.17536798119544983 -0.15721161663532257 1.094750165939331
0.17752446234226227 -0.13888418674468994 1.0804369449615479
0.2087944746017456 -0.22391599416732788 0.983081579208374
0.15390484035015106 -0.1720682978630066 1.0955463647842407
0.15354982018470764 -0.19067715108394623 1.0673006772994995
0.19393157958984375 -0.1754152774810791 1.012419581413269
0.15893666446208954 -0.1814204752445221 1.0416374206542969
0.15132004022598267 -0.20761153101921082 1.0462301969528198
0.17515410482883453 -0.20576636493206024 1.0163198709487915
0.19293871521949768 -0.21259692311286926 1.0117344856262207
0.146681547164917 -0.2296491265296936 1.0207479000091553
0.17059050500392914 -0.2252097725868225 1.0114803314208984
0.15798234939575195 -0.22529074549674988 1.0205165147781372
0.20122215151786804 -0.229834645986557 0.9635473489761353
0.16430750489234924 -0.24007263779640198 1.008547067642212
0.18593338131904602 -0.21263530850410461 0.9768752455711365
0.18512779474258423 -0.24509930610656738 0.9770247340202332
0.20125380158424377 -0.23981736600399017 0.9795827865600586
-0.31137335300445557 -0.04619960859417915 1.088698148727417
-0.30125582218170166 -0.10090368241071701 1.0781339406967163
-0.2888689339160919 -0.08493189513683319 1.0745933055877686
-0.304548978805542 -0.11713137477636337 1.114691138267517
-0.2585364282131195 -0.04492543637752533 1.0831267833709717
-0.27976733446121216 -0.11847607046365738 1.0976749658584595
-0.20401614904403687 -0.008742623031139374 1.2264752388000488
-0.20166604220867157 -0.061148472130298615 1.2050697803497314
-0.1714990735054016 -0.09670639038085938 0.9651340246200562
-0.1754293441772461 -0.014868834987282753 0.9468801021575928
-0.12558555603027344 0.051150478422641754 0.93071049451828
-0.09130900353193283 0.14596636593341827 1.252471685409546
-0.0838487297296524 0.14324115216732025 1.1944694519042969
-0.0814024806022644 0.16644707322120667 1.1680372953414917
-0.15005961060523987 -0.011126481927931309 0.9664127826690674
-0.20099219679832458 0.03969733417034149 1.702979564666748
-0.15369249880313873 0.007295235991477966 1.343524694442749
-0.1740472912788391 0.00669417530298233 1.278313159942627
-0.016686394810676575 0.1555803418159485 1.073383092880249
-0.03879755362868309 0.1596810668706894 0.9943937063217163
-0.29528382420539856 -0.08126646280288696 0.1253730207681656
-0.3140954077243805 -0.1325693428516388 0.07615518569946289
-0.17848563194274902 0.028474025428295135 1.6863571405410767
-0.16300347447395325 0.04062176123261452 1.6325249671936035
-0.157713383436203 -0.12095572799444199 1.2400321960449219
-0.1575949341058731 -0.13703256845474243 1.2144873142242432
-0.16195449233055115 -0.15674425661563873 1.2102205753326416
-0.10048441588878632 0.10835451632738113 1.3637317419052124
-0.09238669276237488 0.10023409873247147 1.3598016500473022
-0.13847404718399048 -0.12361256778240204 1.2552748918533325
-0.14749272167682648 -0.05394156649708748 1.1975609064102173
-0.26626530289649963 -0.09801042824983597 0.19002574682235718
-0.27373045682907104 -0.052968937903642654 0.1978977918624878
-0.04391462728381157 0.12257015705108643 1.2472243309020996
-0.15948918461799622 -0.009780876338481903 1.4392459392547607
-0.15803685784339905 -0.0042067840695381165 1.4186387062072754
-0.14452983438968658 -0.007641874253749847 1.4015086889266968
-0.15889137983322144 -0.0026587732136249542 1.3984217643737793
-0.15858116745948792 -0.020725779235363007 1.3889755010604858
-0.149887815117836 -0.10826511681079865 0.7943624258041382
-0.1620580554008484 -0.06957939267158508 0.7901132106781006
-0.006756586953997612 0.21216893196105957 1.0838946104049683
-0.00987209565937519 0.20993803441524506 1.1333956718444824
-0.129471555352211 -0.11685089021921158 1.2503548860549927
-0.1278323531150818 -0.10900019854307175 0.8661503791809082
-0.26803258061408997 -0.01876312494277954 0.12236310541629791
-0.2732793390750885 -0.018827904015779495 0.08516398072242737
-0.1388392597436905 -0.1850859671831131 0.8516955971717834
-0.04124193638563156 0.18191634118556976 1.2301242351531982
-0.16200567781925201 -0.08362918347120285 1.5941604375839233
-0.1297023445367813 0.025449007749557495 1.5163379907608032
-0.09393150359392166 0.10702747106552124 1.488576889038086
-0.0960993766784668 0.07237520068883896 1.5446648597717285
-0.11618050932884216 0.0725831389427185 1.518611192703247
-0.10047034919261932 0.08921230584383011 1.435853362083435
-0.049352873116731644 0.126503586769104 1.53253173828125
-0.12215279042720795 -0.009306151419878006 1.4685633182525635
-0.08366405963897705 0.04370531812310219 0.9737168550491333
-0.1399032175540924 0.03440731763839722 1.7851552963256836
-0.14904028177261353 0.028568387031555176 1.7790367603302002
-0.15415039658546448 0.01789284497499466 1.7654343843460083
-0.01910555548965931 0.06900931894779205 1.4307297468185425
-0.07063544541597366 0.12051398307085037 1.4071191549301147
-0.21258528530597687 -0.08159463852643967 0.04699937254190445
-0.018915841355919838 0.15570181608200073 1.356029987335205
-0.12735909223556519 -0.0852203443646431 1.5084638595581055
-0.18227310478687286 -0.058427002280950546 0.3998599350452423
-0.060576748102903366 0.06915585696697235 1.4886103868484497
-0.08540446311235428 0.03098984807729721 1.4703381061553955
-0.026990897953510284 0.13086752593517303 1.4555244445800781
-0.03232106938958168 0.05083940923213959 0.8568518161773682
-0.19114108383655548 0.004002977162599564 0.35066986083984375
0.038221925497055054 0.1705484390258789 0.9972100257873535
-0.03110123611986637 0.035577356815338135 1.0315645933151245
-0.11125989258289337 -0.1486015021800995 1.2498624324798584
-0.1040128618478775 -0.15138301253318787 1.1510131359100342
-0.17981263995170593 -0.023902196437120438 0.32812830805778503
-0.16527098417282104 -0.03847452253103256 0.2657037675380707
-0.19580227136611938 0.010817436501383781 0.26110517978668213
-0.06744223833084106 0.05229349806904793 1.5056750774383545
-0.09318433701992035 -0.10138745605945587 0.6893748641014099
-0.11891096830368042 -0.02724863588809967 0.662875771522522
0.04281696677207947 0.21213001012802124 1.1255273818969727
0.049315232783555984 0.20350927114486694 1.043575644493103
-0.05911462381482124 -0.18462353944778442 1.1768580675125122
-0.19426383078098297 -0.06749065220355988 0.13034744560718536
0.037660107016563416 0.15496885776519775 1.0343431234359741
0.027363868430256844 0.1341419517993927 1.0699944496154785
-0.000701218843460083 0.047771766781806946 1.4987890720367432
-0.09328337758779526 -0.08165054023265839 1.3828495740890503
0.03316706046462059 0.158940851688385 1.3386017084121704
0.025582551956176758 0.05850163847208023 1.4215285778045654
-0.010342605412006378 0.040739718824625015 1.4987809658050537
0.08494538813829422 0.14458541572093964 1.0446434020996094
0.10294784605503082 0.13191266357898712 1.0010775327682495
-0.03081490285694599 -0.09892215579748154 1.3789300918579102
0.013353787362575531 0.03374384343624115 1.0299996137619019
-0.03196150064468384 -0.20005637407302856 1.105985164642334
0.09210741519927979 0.12812410295009613 1.3637114763259888
0.008256567642092705 -0.016460200771689415 1.290268898010254
0.06038125604391098 0.1039561927318573 1.4626061916351318
0.026096438989043236 0.059805504977703094 1.4631043672561646
0.02248471789062023 -0.035208411514759064 1.2030572891235352
0.0455959253013134 0.0928100049495697 0.9211829900741577
-0.014678619801998138 -0.01818767935037613 1.7218570709228516
0.1319156289100647 -0.10590345412492752 0.0862971693277359
0.1226751059293747 -0.11516905575990677 0.06107056885957718
0.12550967931747437 -0.049579791724681854 0.09885391592979431
-0.05101000890135765 -0.13030241429805756 1.5979695320129395
0.07000713050365448 -0.06235850602388382 0.7190949320793152
0.08122263848781586 0.044053815305233 1.4330247640609741
0.018748221918940544 -0.04815724492073059 1.4681410789489746
0.056623924523591995 -0.03398206830024719 1.4182542562484741
0.01736447773873806 -0.004254922270774841 1.395062804222107
0.11823692917823792 -0.03589518368244171 0.39956843852996826
0.14112085103988647 -0.1217627078294754 0.24271205067634583
0.13604667782783508 -0.035377033054828644 0.20481659471988678
0.14700114727020264 0.13020426034927368 1.0530967712402344
0.14277295768260956 0.15607354044914246 1.0221368074417114
0.10716851055622101 -0.1458679586648941 0.7466981410980225
0.11330302804708481 -0.052315425127744675 0.6633118391036987
-0.017335962504148483 -0.06491881608963013 1.7069337368011475
0.02321327105164528 -0.07740974426269531 1.664771556854248
0.1305502951145172 -0.13019856810569763 0.5559024214744568
0.006607329472899437 -0.012211725115776062 1.7356467247009277
0.029813183471560478 -0.02955147624015808 1.6858811378479004
0.058309756219387054 -0.10007941722869873 1.1388137340545654
0.06354377418756485 -0.08880911767482758 1.1127073764801025
0.05369429662823677 -0.16018784046173096 1.0954818725585938
0.0063919797539711 -0.11459092795848846 1.5972875356674194
0.03173123300075531 -0.04863489791750908 1.4980549812316895
0.0205606110394001 -0.08786284923553467 1.495238184928894
0.18471680581569672 0.10761171579360962 1.0161855220794678
0.051974277943372726 -0.0926297977566719 1.2912871837615967
0.06142902746796608 -0.15532343089580536 1.2548195123672485
0.06249738484621048 -0.10446743667125702 1.2370449304580688
0.17714256048202515 -0.019334133714437485 0.15787948668003082
0.19256174564361572 -0.10107269138097763 0.17976176738739014
0.2069634348154068 -0.088099405169487 0.1652289479970932
0.0456436388194561 -0.009124964475631714 1.7101376056671143
0.0603327676653862 -0.10120789706707001 1.2934528589248657
0.19159172475337982 -0.03914095088839531 0.44050610065460205
0.171113520860672 -0.09432724118232727 0.4933503568172455
0.20000910758972168 -0.0534452460706234 0.38354119658470154
0.06890668720006943 -0.05023413524031639 1.4116721153259277
0.05582841485738754 -0.04728612303733826 1.4081765413284302
0.07551717758178711 -0.039422407746315 1.3675026893615723
0.11795106530189514 0.06285952776670456 0.9304739832878113
0.13036911189556122 -0.11718247830867767 0.8714472055435181
0.2052914947271347 -0.03863677382469177 0.2578279376029968
0.2218974232673645 -0.06928413361310959 0.2652580142021179
0.07844434678554535 -0.02018393948674202 1.3601982593536377
0.15786457061767578 0.06318867206573486 1.2825963497161865
0.16980768740177155 0.08763092011213303 1.260632038116455
0.06880317628383636 -0.22757300734519958 1.154378056526184
0.1467711329460144 -0.06679882109165192 1.0019065141677856
0.1486474573612213 -0.12407547980546951 0.9961996078491211
0.10363233834505081 -0.02448911964893341 1.1886262893676758
0.11333300918340683 -0.13828223943710327 1.0897489786148071
0.13427741825580597 -0.10308505594730377 1.0698201656341553
0.11546608060598373 -0.16655942797660828 1.1569314002990723
-0.29541411995887756 -0.06085233390331268 1.0641158819198608
-0.304574579000473 -0.11691798269748688 1.0492287874221802
-0.23831717669963837 -0.0974966436624527 1.1407594680786133
-0.2492881715297699 -0.09663929045200348 1.187509298324585
-0.21706117689609528 -0.0654471144080162 1.1489304304122925
-0.21552738547325134 -0.02680492028594017 1.1671096086502075
-0.1901562511920929 -0.15103939175605774 0.8794222474098206
-0.06797551363706589 0.16881109774112701 1.0326813459396362
-0.08001402020454407 0.1592513471841812 1.1306232213974
-0.171172097325325 -0.2216714322566986 1.1211094856262207
-0.13861879706382751 -0.15915589034557343 0.9567515850067139
-0.27894842624664307 -0.0403103232383728 0.28615087270736694
-0.25679948925971985 -0.08997274935245514 0.30057165026664734
-0.20382937788963318 0.013518369756639004 0.504589855670929
-0.14978545904159546 -0.19113558530807495 0.8575782775878906
-0.18103283643722534 -0.046363770961761475 0.6470271944999695
-0.1695833057165146 -0.09009193629026413 0.6987475156784058
-0.15146252512931824 -0.03336704522371292 0.7057301998138428
-0.1024375855922699 -0.01950637251138687 1.0927733182907104
-0.11555742472410202 -0.07656177133321762 1.11629319190979
-0.00016783550381660461 0.20013928413391113 1.2021198272705078
-0.11287926137447357 -0.019029812887310982 0.8617474436759949
-0.2132698893547058 -0.10227709263563156 0.31245720386505127
-0.11826613545417786 -0.022888444364070892 1.1955983638763428
-0.09516344219446182 -0.039678290486335754 1.1252673864364624
-0.19594864547252655 -0.07993245869874954 0.45247188210487366
-0.14373724162578583 0.013326022773981094 1.7038731575012207
-0.15094715356826782 -0.021301954984664917 1.6908189058303833
-0.11530344188213348 -0.05821799486875534 1.6995549201965332
-0.13460871577262878 -0.09276587516069412 1.65802001953125
-0.14790983498096466 -0.08560922741889954 1.5594873428344727
-0.18958252668380737 -0.059539105743169785 0.34493717551231384
-0.08526933938264847 -0.1149430200457573 0.7387835383415222
-0.16858097910881042 -0.06855029612779617 0.27358880639076233
-0.18682950735092163 -0.09721966087818146 0.27959156036376953
-0.20420345664024353 -0.017480261623859406 0.20861129462718964
-0.045352496206760406 0.06419183313846588 0.9628705382347107
-0.09920962154865265 0.021496038883924484 1.7483267784118652
-0.11709509789943695 0.011477243155241013 1.7349854707717896
0.06661143153905869 0.12020981311798096 1.1876267194747925
-0.013010146096348763 0.13969609141349792 1.1832356452941895
0.04116535186767578 0.11178290098905563 1.2404006719589233
-0.008810963481664658 -0.034751951694488525 1.2400225400924683
0.063161700963974 0.18475282192230225 1.2357428073883057
0.06998796761035919 0.13275577127933502 1.0756616592407227
0.12488038092851639 0.18822601437568665 1.1617517471313477
0.010937795042991638 0.10494264960289001 1.6422314643859863
0.09927704930305481 0.11678231507539749 1.0858150720596313
0.03907269984483719 -0.21813401579856873 0.9071260094642639
0.10643263161182404 -0.08493604511022568 0.2612573802471161
0.13755542039871216 -0.09555083513259888 0.20149485766887665
0.06886313855648041 -0.1298917531967163 0.7017908692359924
0.03170765936374664 0.005285858176648617 1.067043662071228
0.09539277106523514 -0.048688508570194244 0.572430431842804
0.09594833850860596 0.08077703416347504 1.3063488006591797
0.039512764662504196 -0.05852751433849335 1.4018380641937256
0.04115249961614609 0.0885828509926796 1.6066546440124512
0.029349809512495995 0.023647628724575043 1.5732924938201904
0.035306476056575775 0.0393323078751564 1.5506846904754639
0.00098457932472229 -0.0061841607093811035 1.7820990085601807
0.0401628240942955 -0.08055756986141205 1.3391929864883423
0.16034699976444244 -0.017979811877012253 0.5057975053787231
0.12745356559753418 -0.005540341138839722 0.50138258934021
0.15644030272960663 -0.012298515066504478 0.3512433171272278
0.17879539728164673 -0.01588037610054016 0.32266706228256226
0.05542539805173874 -0.04624178260564804 1.4891571998596191
0.042559172958135605 -0.05486477166414261 1.4987508058547974
0.05581967532634735 -0.0505593940615654 1.4829074144363403
0.1323746293783188 -0.05216830223798752 0.770867645740509
0.15251335501670837 -0.09544622898101807 0.6410384774208069
0.11657541990280151 0.02297612652182579 0.9709852337837219
0.09453051537275314 -0.07986906170845032 1.0919171571731567
0.0868847519159317 -0.13353149592876434 1.0810359716415405
0.09719327837228775 -0.15781372785568237 1.031000018119812
0.058114007115364075 -0.011892084032297134 1.6100153923034668
0.07018764317035675 -0.017284853383898735 1.5289311408996582
0.05640232563018799 -0.14809006452560425 1.2360646724700928
0.0932638943195343 0.051759928464889526 1.5183923244476318
0.07905164361000061 0.024654462933540344 1.5576987266540527
0.20707397162914276 -0.017068207263946533 0.09367147088050842
0.22098590433597565 -0.060369133949279785 0.08037211000919342
0.10208096355199814 0.030093874782323837 1.4847807884216309
0.11045226454734802 0.04232332482933998 1.4535496234893799
0.12046362459659576 0.030242186039686203 1.420837163925171
0.12346222996711731 0.04241252690553665 1.406882643699646
0.06566020846366882 -0.2288232147693634 1.173371434211731
0.17638856172561646 -0.15820595622062683 0.8863742351531982
0.07922778278589249 -0.20478114485740662 1.1846022605895996
0.07589095085859299 -0.23082587122917175 1.1738885641098022
0.20344297587871552 -0.11355358362197876 0.9068305492401123
0.20611144602298737 -0.0906614437699318 0.8873645663261414
0.21467384696006775 -0.0557442232966423 0.8977810740470886
-0.22154384851455688 -0.08847099542617798 1.1932564973831177
-0.1819928139448166 -0.0873924270272255 1.2569160461425781
-0.19006547331809998 -0.08730773627758026 1.2412656545639038
-0.18162477016448975 -0.07906535267829895 1.2467236518859863
-0.17667889595031738 -0.07833228260278702 1.26365065574646
-0.19523027539253235 0.0024108262732625008 0.887794017791748
-0.15135888755321503 -0.04537886753678322 1.2806649208068848
-0.1458742469549179 -0.06380447000265121 1.0664913654327393
-0.13403300940990448 0.10150022804737091 1.5233826637268066
-0.14911581575870514 -0.08089183270931244 1.1882752180099487
-0.14767228066921234 -0.07644317299127579 1.134207010269165
-0.10166215896606445 0.10218740254640579 1.4199888706207275
-0.08539913594722748 0.09517811983823776 1.3829824924468994
-0.1349429041147232 -0.1395552158355713 1.0311691761016846
-0.10084651410579681 -0.16519814729690552 0.9926139116287231
-0.13835452497005463 -0.02688385546207428 0.7909732460975647
-0.010276885703206062 0.17845337092876434 1.2682212591171265
-0.07752914726734161 0.12404708564281464 1.616826057434082
-0.20029038190841675 -0.03406236320734024 0.07529645413160324
-0.21391619741916656 -0.019380079582333565 0.06673941016197205
-0.08144150674343109 0.02502693049609661 0.8673644065856934
0.001565033569931984 0.09421703219413757 0.8531836271286011
-0.06704574823379517 -0.021021880209445953 0.8462411165237427
0.028497522696852684 0.0832839235663414 1.3290536403656006
-0.053952407091856 -0.07964400947093964 0.7642478942871094
-0.08456307649612427 -0.11742174625396729 1.5737085342407227
-0.006918211467564106 0.014194680377840996 0.8722563982009888
-0.005865662358701229 -0.027027783915400505 0.8511961102485657
0.017568068578839302 -0.11927015334367752 0.8565114140510559
-0.07849951833486557 -0.16300591826438904 0.8563563227653503
-0.00846935622394085 -0.22418177127838135 0.8489249348640442
0.037490107119083405 -0.11121164262294769 0.8367922306060791
-0.009163286536931992 -0.1602133959531784 0.8604172468185425
-0.01947467029094696 0.02440277859568596 1.468384027481079
0.029530605301260948 -0.03780052065849304 0.8488463163375854
0.03447903320193291 -0.05062759667634964 0.832630455493927
-0.006789259612560272 0.03128552436828613 1.5464388132095337
-0.001883476972579956 0.03758789598941803 1.5219849348068237
0.04594770073890686 -0.12502411007881165 0.85260009765625
0.13164298236370087 0.05632589012384415 0.8648800849914551
0.10750287771224976 -0.05638842657208443 0.2603842616081238
0.05596292391419411 -0.0358671210706234 0.8224321603775024
0.10136862099170685 0.11175520718097687 1.2174224853515625
0.13594849407672882 -0.08612462133169174 0.38602903485298157
0.13295970857143402 -0.0673147663474083 0.32463663816452026
0.14917443692684174 -0.08918727934360504 0.3406679630279541
0.14755214750766754 -0.1276562511920929 0.2842060923576355
0.08092211931943893 0.06659047305583954 1.4867498874664307
0.08249533176422119 -0.01738058403134346 0.8569512963294983
0.11002495884895325 -0.03634059429168701 0.8379838466644287
0.06304915249347687 -0.07728509604930878 1.2394883632659912
0.16671769320964813 -0.10015641152858734 0.43472951650619507
0.0641985759139061 0.04206207022070885 1.5929372310638428
0.04909490793943405 -0.032660603523254395 1.2869341373443604
0.1798076033592224 -0.08843369036912918 0.3418654501438141
0.13021865487098694 0.16757656633853912 1.2186179161071777
0.07159535586833954 -0.06099754571914673 1.2125111818313599
0.16583433747291565 -0.025509504601359367 0.21570917963981628
0.17447033524513245 0.1541796177625656 1.140263319015503
0.16375814378261566 -0.015075717121362686 0.25211915373802185
0.191562220454216 -0.12804251909255981 0.2602843642234802
0.13185659050941467 0.05908043682575226 1.3283463716506958
0.06465964764356613 -0.032628972083330154 1.446599006652832
0.07231971621513367 -0.031668949872255325 1.4147088527679443
0.06253968924283981 -0.030690032988786697 1.4468975067138672
0.08688558638095856 -0.031369805335998535 1.3945008516311646
0.07305093854665756 -0.17120645940303802 1.223602294921875
0.05910249799489975 -0.18116562068462372 1.217867136001587
0.1630454957485199 0.07620949298143387 1.2406165599822998
0.19237175583839417 0.10586462169885635 1.18337881565094
0.1877475380897522 0.10048500448465347 1.149980068206787
0.07883599400520325 -0.044104788452386856 1.2439970970153809
0.0702536404132843 -0.07445717602968216 1.2592675685882568
0.15944966673851013 -0.18326586484909058 0.8954874873161316
0.07733076065778732 -0.08373980224132538 1.2705819606781006
0.07298851758241653 -0.11166005581617355 1.1700999736785889
0.09639480710029602 -0.05483024939894676 1.1479532718658447
0.08200057595968246 -0.09476813673973083 1.137617826461792
0.1274174302816391 -0.1438407301902771 1.1884181499481201
0.155366450548172 -0.1396554559469223 1.05998957157135
0.12501126527786255 -0.1774768978357315 1.1140406131744385
-0.17394261062145233 -0.20681078732013702 1.1589605808258057
-0.16854101419448853 -0.13990457355976105 1.2047061920166016
-0.17548547685146332 -0.12568114697933197 1.2245590686798096
-0.16329975426197052 -0.1942058801651001 1.1604673862457275
-0.11914975196123123 0.1078108549118042 1.4491214752197266
-0.1241677924990654 0.09606210142374039 1.4330923557281494
-0.11946119368076324 0.11163379997015 1.3905291557312012
-0.166366845369339 0.014940038323402405 1.6670717000961304
-0.1705390363931656 -0.018590934574604034 1.5833932161331177
-0.24721118807792664 -0.05699874833226204 0.34353920817375183
-0.1331518292427063 -0.06736716628074646 0.8590047359466553
-0.13656318187713623 -0.09167799353599548 0.8396840691566467
-0.053310658782720566 0.18037907779216766 1.0122644901275635
-0.11836963891983032 -0.11522930860519409 1.2429828643798828
-0.12005191296339035 -0.029249491170048714 0.8356747627258301
-0.1216091513633728 -0.00399327278137207 1.7139898538589478
-0.10920105874538422 -0.11978349089622498 1.1235268115997314
-0.07790714502334595 -0.18141132593154907 1.120540976524353
-0.008256083354353905 0.15488596260547638 1.1142183542251587
0.06113269180059433 0.13508901000022888 1.114454984664917
-0.07278650999069214 -0.025851035490632057 1.1404356956481934
-0.05538612976670265 -0.11457344889640808 0.8497650027275085
-0.06451745331287384 -0.18752765655517578 1.0532172918319702
-0.051631275564432144 0.015853125602006912 1.0516785383224487
-0.07519078254699707 -0.10563281923532486 1.6713993549346924
0.03743288666009903 -0.10247223824262619 0.7727481126785278
-0.01586621068418026 0.10338975489139557 1.29780113697052
0.11984995752573013 -0.07601013779640198 0.05673868954181671
0.16565966606140137 0.16903431713581085 1.080557107925415
0.12244294583797455 0.1250510960817337 1.1362273693084717
0.11901336163282394 0.19560237228870392 1.089047908782959
0.10029290616512299 0.0855259969830513 0.8652557134628296
0.1783370077610016 0.008802689611911774 0.08253924548625946
0.12434236705303192 -0.03850262612104416 0.8650964498519897
0.16950678825378418 -0.09085237979888916 0.3933719992637634
0.0688832700252533 -0.05287144333124161 1.382591962814331
0.06321655213832855 -0.07662458717823029 1.3080672025680542
0.19970984756946564 -0.001600942574441433 0.8881070017814636
0.1954917311668396 -0.052416346967220306 0.9526412487030029
0.14301550388336182 -0.16612881422042847 1.0784590244293213
-0.2584860622882843 -0.11112841963768005 1.1575249433517456
-0.19343219697475433 -0.08263766765594482 0.9412217140197754
-0.21190646290779114 -0.07219547033309937 0.8902108669281006
-0.12260028719902039 0.09666861593723297 1.385589599609375
-0.0931173637509346 0.12483501434326172 1.2536046504974365
-0.14870283007621765 0.02711392566561699 1.5059726238250732
-0.13898110389709473 -0.055411648005247116 1.0345321893692017
-0.14607985317707062 -0.08465389907360077 1.0726392269134521
-0.1478160321712494 0.030347537249326706 1.5065639019012451
-0.14800438284873962 0.017148591578006744 1.4934265613555908
-0.1489524096250534 0.02354249730706215 1.5017098188400269
-0.15011125802993774 0.020776182413101196 1.5041208267211914
-0.15592937171459198 0.010130316019058228 1.4938451051712036
-0.2419695258140564 -0.117427296936512 0.19336102902889252
-0.17123238742351532 -0.053816862404346466 1.6326451301574707
-0.04668743163347244 -0.016770008951425552 1.1948447227478027
-0.20617395639419556 -0.13366061449050903 0.06683012843132019
-0.06500691175460815 -0.020897002890706062 1.2362251281738281
-0.019304240122437477 -0.03160835802555084 1.152626872062683
-0.03480466827750206 0.09247971326112747 0.9258214235305786
-0.06445836275815964 -0.018930673599243164 1.7307837009429932
-0.07651469111442566 -0.06600150465965271 0.7042266130447388
0.009266720153391361 0.1037202998995781 1.2662756443023682
-0.004916619509458542 -0.1922445148229599 1.0034458637237549
-0.05999051034450531 -0.17883601784706116 1.221111536026001
0.06402293592691422 0.1225709617137909 1.1557070016860962
0.12703055143356323 -0.0597786121070385 0.19037245213985443
0.05150308832526207 -0.1804102063179016 0.9930522441864014
0.10309040546417236 -0.17462004721164703 0.9820055961608887
0.05355703458189964 0.04040491580963135 1.518322467803955
0.03824562579393387 -0.16682732105255127 1.1706489324569702
0.0195984598249197 -0.041568905115127563 1.1531615257263184
0.07836341112852097 -0.03449229151010513 1.0848932266235352
0.07759898900985718 0.05636650696396828 0.9611647129058838
0.16778573393821716 -0.1017417460680008 0.02696954645216465
0.1439342200756073 -0.09609478712081909 0.02624404802918434
0.19697989523410797 -0.07796471565961838 0.03618214651942253
0.2093542218208313 -0.10394583642482758 0.24578839540481567
0.06227691471576691 -0.031503066420555115 1.443718433380127
0.061907991766929626 -0.03179803863167763 1.445446252822876
0.052840784192085266 -0.0481816865503788 1.3102915287017822
0.06223512440919876 -0.07198789715766907 1.2954463958740234
0.2089231163263321 0.11955660581588745 1.0870784521102905
0.20698054134845734 0.0991077721118927 1.0428756475448608
0.2158673107624054 0.10160142183303833 1.0392159223556519
0.1677679717540741 -0.13343428075313568 1.0629841089248657
0.1408378630876541 -0.1887476146221161 1.060011625289917
0.14553016424179077 -0.21501651406288147 1.054616093635559
-0.25607791543006897 -0.07732705771923065 1.0844820737838745
-0.17979887127876282 -0.16673800349235535 1.195702314376831
-0.21591544151306152 -0.06173119321465492 0.3728020489215851
-0.01895694062113762 0.1573370099067688 0.9888203740119934
-0.11540158092975616 -0.1404396891593933 1.071425437927246
-0.03682088479399681 -0.04333008825778961 0.8438570499420166
-0.06256615370512009 -0.030290815979242325 0.8101300001144409
-0.05834551900625229 -0.0830501914024353 0.8112620115280151
-0.011134262196719646 0.003964276984333992 1.0972437858581543
0.023292936384677887 -0.20747089385986328 0.8391602039337158
0.09766610711812973 0.013239395804703236 0.8727625608444214
0.13887163996696472 0.12057410180568695 1.1045562028884888
0.06851959973573685 0.002826198935508728 1.532448410987854
0.08154535293579102 0.02272910624742508 1.5124835968017578
0.18299613893032074 -0.12111862003803253 0.9522331953048706
-0.18397952616214752 -0.18073126673698425 1.1658729314804077
-0.14291274547576904 0.07210994511842728 1.5392111539840698
0.006614095531404018 0.1650337129831314 1.0342044830322266
-0.12217352539300919 0.0952804684638977 1.570898175239563
-0.10199212282896042 0.05918901041150093 1.5588910579681396
-0.07277178019285202 0.04745001345872879 1.5390222072601318
0.014556968584656715 -0.19593310356140137 1.0623879432678223
0.024789663031697273 -0.13735002279281616 1.2560330629348755
0.16820700466632843 -0.10837693512439728 0.1638852059841156
0.06343532353639603 -0.13100238144397736 1.2151063680648804
0.07801689207553864 -0.12476608902215958 1.162821650505066
0.10689890384674072 0.05013822391629219 1.418480634689331
0.09656661748886108 0.07942776381969452 1.4312371015548706
0.0843539908528328 -0.08348497748374939 1.168229579925537
0.1292785406112671 -0.07572349905967712 0.8486809730529785
0.04512929171323776 -0.16326329112052917 1.242965817451477
0.13527488708496094 0.07381053268909454 1.3476563692092896
-0.09233343601226807 0.11998321861028671 1.3350415229797363
-0.20738485455513 0.013855986297130585 0.37966787815093994
0.05221692472696304 -0.10267584025859833 0.7319275736808777
-0.0244576558470726 -0.11521470546722412 1.653212547302246
-0.06831944733858109 0.18079763650894165 1.0762207508087158
-0.1704883873462677 -0.07935404032468796 1.2663140296936035
-0.16474831104278564 -0.026757756248116493 0.4120824337005615
0.020171858370304108 0.12401147186756134 1.4603042602539062
0.1266794055700302 -0.1046634092926979 0.03408024460077286
0.05875018611550331 -0.05062590166926384 1.4817633628845215
0.05738266184926033 -0.04999193176627159 1.48012113571167
0.05990743637084961 -0.0377492718398571 1.4022164344787598
0.20192928612232208 -0.08845717459917068 0.21641939878463745
0.19840501248836517 -0.05376874655485153 0.20279598236083984
0.0820515975356102 -0.10817976295948029 1.2182185649871826
-0.17152345180511475 -0.15562087297439575 0.9363504648208618
-0.10345102846622467 0.10770447552204132 1.3622334003448486
-0.10395602136850357 0.10457075387239456 1.362825870513916
-0.10835446417331696 0.10408397018909454 1.3631540536880493
-0.18553896248340607 -0.057258184999227524 0.21114258468151093
-0.03546227887272835 -0.09735633432865143 0.8453097343444824
0.13870199024677277 -0.08750665187835693 0.15285852551460266
0.08971350640058517 -0.13830550014972687 1.180983066558838
0.038275815546512604 -0.07527676224708557 1.613511562347412
0.1464361548423767 -0.09739451110363007 0.7995929718017578
0.12352940440177917 0.0398579016327858 1.3890959024429321
0.12988540530204773 0.05627213045954704 1.3578112125396729
0.12759074568748474 -0.025976382195949554 0.0652463287115097
-0.07215997576713562 -0.45616403222084045 1.1284762620925903
-0.0623130239546299 -0.4314523935317993 1.0989415645599365
-0.06638187915086746 -0.4406890273094177 1.1039340496063232
-0.07215030491352081 -0.4316428601741791 1.1093257665634155
-0.07683335989713669 -0.4537965953350067 1.1158634424209595
-0.06656134128570557 -0.44704410433769226 1.1284161806106567
0.018458273261785507 -0.33886510133743286 1.0855388641357422
0.0065077487379312515 -0.33981186151504517 1.081842303276062
0.00395599752664566 -0.35965657234191895 1.0915789604187012
-0.005061730742454529 -0.3655129075050354 1.0953351259231567
0.09006577730178833 -0.2271605134010315 0.9988906979560852
0.08416645228862762 -0.23457235097885132 1.0179433822631836
0.08555811643600464 -0.238529235124588 0.993087887763977
-0.0071032363921403885 -0.354614794254303 1.0498769283294678
-0.012705175206065178 -0.36631155014038086 1.0658433437347412
-0.007691370323300362 -0.3843013644218445 1.1196210384368896
-0.004881419241428375 -0.3754860758781433 1.106947660446167
0.06213919818401337 -0.2645491361618042 0.9807744026184082
0.05679958686232567 -0.26955288648605347 1.0036442279815674
0.06021532788872719 -0.2936074137687683 1.0731298923492432
0.058446746319532394 -0.2864740788936615 1.0659637451171875
-0.046983517706394196 -0.43573102355003357 1.1367714405059814
-0.051231395453214645 -0.4254353642463684 1.0905814170837402
0.08783558756113052 -0.24181002378463745 0.9831228256225586
0.0799165815114975 -0.24543990194797516 0.9795976281166077
0.21920809149742126 -0.10847704112529755 1.0419807434082031
0.21205946803092957 -0.1168426126241684 1.0416374206542969
0.21668632328510284 -0.10923177003860474 1.0214227437973022
-0.027003958821296692 -0.4035845696926117 1.1173102855682373
-0.03937182575464249 -0.4204360544681549 1.1234796047210693
0.08553191274404526 -0.2441914826631546 0.977155327796936
0.08392178267240524 -0.2449963241815567 0.9678258299827576
-0.08991610258817673 -0.4761701822280884 1.0798008441925049
-0.09269942343235016 -0.4859221577644348 1.0923229455947876
0.23143270611763 -0.09997586905956268 1.0342875719070435
0.22633543610572815 -0.1067809909582138 1.0475190877914429
0.2262032926082611 -0.10005775094032288 1.0275495052337646
0.22045892477035522 -0.10775166749954224 1.0191905498504639
-0.10135617107152939 -0.5069051384925842 1.1473298072814941
-0.10816337913274765 -0.5224800705909729 1.1610524654388428
-0.11191517114639282 -0.5217542052268982 1.143216609954834
0.025528879836201668 -0.3173954486846924 1.019716501235962
0.02043980360031128 -0.33207982778549194 1.0220887660980225
0.004419396631419659 -0.3468228578567505 1.01703679561615
0.012293370440602303 -0.3457314968109131 1.0157902240753174
0.2253083735704422 -0.11476924270391464 1.052203893661499
0.23023319244384766 -0.10233663767576218 1.0223455429077148
-0.012718969956040382 -0.4014337658882141 1.1324106454849243
-0.006509697064757347 -0.4027960002422333 1.1340935230255127
-0.023360909894108772 -0.4108077585697174 1.1353068351745605
-0.030911730602383614 -0.4276246130466461 1.1429109573364258
0.05060078203678131 -0.29122212529182434 1.001413106918335
0.041134439408779144 -0.30450037121772766 0.9990013241767883
0.03780554607510567 -0.3029555082321167 1.0055289268493652
0.232873797416687 -0.10465299338102341 1.0276793241500854
0.22596462070941925 -0.1150122657418251 1.050153374671936
0.22241565585136414 -0.11387426406145096 1.0223031044006348
0.09378780424594879 -0.22773811221122742 0.935570478439331
0.09010318666696548 -0.2322872430086136 0.9291191101074219
0.08991937339305878 -0.23757247626781464 0.953987717628479
0.09070912003517151 -0.23845398426055908 0.9437311291694641
0.08940783888101578 -0.2328774780035019 0.9390506148338318
0.00036853738129138947 -0.36627715826034546 1.0129677057266235
0.0005652885884046555 -0.3545997142791748 1.0068705081939697
-0.0014207810163497925 -0.3595396876335144 0.9964430332183838
-0.005916960071772337 -0.3619716167449951 0.9987539052963257
0.22341947257518768 -0.11567241698503494 1.0313276052474976
-0.10545911639928818 -0.5300562381744385 1.1678556203842163
-0.10960035026073456 -0.5272982716560364 1.150774598121643
-0.10939739644527435 -0.539251446723938 1.1665706634521484
-0.11809493601322174 -0.5384290218353271 1.1703319549560547
-0.11302550137042999 -0.5219745635986328 1.1353495121002197
0.11124096810817719 -0.24261271953582764 0.9943279027938843
0.09397098422050476 -0.24799618124961853 0.9826075434684753
-0.07370481640100479 -0.467917799949646 1.0720674991607666
-0.09143497794866562 -0.48599082231521606 1.0839704275131226
-0.09687218815088272 -0.5007890462875366 1.1006006002426147
0.07677479833364487 -0.2941758930683136 1.0711541175842285
0.06477636843919754 -0.30555009841918945 1.0746872425079346
0.06213108450174332 -0.3183634281158447 1.0716408491134644
-0.0035548079758882523 -0.40219977498054504 1.1353373527526855
-0.008214747533202171 -0.4086501896381378 1.1276072263717651
-0.03641146048903465 -0.4438202977180481 1.1425285339355469
0.005804737098515034 -0.37898242473602295 1.1160905361175537
-0.050020866096019745 -0.4487769901752472 1.0851935148239136
-0.07250353693962097 -0.4725557565689087 1.0884865522384644
0.07980556041002274 -0.2943022847175598 1.066300630569458
0.004223656840622425 -0.3952716290950775 1.1003209352493286
0.015096788294613361 -0.3806547522544861 1.0911409854888916
-0.0038093384355306625 -0.40607166290283203 1.107275128364563
-0.09123849123716354 -0.5088348388671875 1.1355832815170288
-0.08526379615068436 -0.5007425546646118 1.1227357387542725
-0.005958799738436937 -0.3831762671470642 1.0484293699264526
-0.0014564264565706253 -0.38790327310562134 1.0627561807632446
-0.013406351208686829 -0.39799779653549194 1.0687637329101562
-0.007175808772444725 -0.40241676568984985 1.0780633687973022
0.04034745693206787 -0.3440929651260376 1.0773345232009888
0.01428944617509842 -0.3679432272911072 1.0895975828170776
-0.037943027913570404 -0.4447938799858093 1.12339186668396
-0.04779854789376259 -0.4627772271633148 1.1223022937774658
-0.059076037257909775 -0.46272921562194824 1.1281501054763794
-0.037612348794937134 -0.4411156177520752 1.0968105792999268
-0.042779963463544846 -0.4479981064796448 1.0933820009231567
0.02451252192258835 -0.36047065258026123 1.0445783138275146
0.012275242246687412 -0.37228572368621826 1.0499480962753296
0.019446346908807755 -0.3506731390953064 1.0285264253616333
0.01258900761604309 -0.3688868582248688 1.039690375328064
0.0018851524218916893 -0.37624627351760864 1.0514007806777954
0.0361221581697464 -0.34686070680618286 1.0521047115325928
0.04690767079591751 -0.33801257610321045 1.0543019771575928
0.04281896352767944 -0.3248097896575928 1.0252301692962646
0.04338284581899643 -0.3350162208080292 1.0423437356948853
-0.04698111116886139 -0.4554949402809143 1.100085973739624
-0.05460550636053085 -0.46916890144348145 1.110033631324768
-0.05542294681072235 -0.46138373017311096 1.1017277240753174
-0.04445616900920868 -0.46827054023742676 1.106011986732483
0.11060241609811783 -0.25491252541542053 1.0099447965621948
-0.051296066492795944 -0.41285866498947144 1.113843560218811
-0.06395828723907471 -0.4225198030471802 1.107628345489502
-0.016632020473480225 -0.3690492510795593 1.090531826019287
-0.016446340829133987 -0.3675278425216675 1.0859545469284058
-0.027333879843354225 -0.3776412606239319 1.0970927476882935
-0.02160554565489292 -0.3727262020111084 1.085402488708496
-0.025724489241838455 -0.3808988928794861 1.0951589345932007
0.0046952939592301846 -0.34734392166137695 1.0643227100372314
-0.0049485452473163605 -0.35436010360717773 1.0670781135559082
0.01431675348430872 -0.3342932462692261 1.057601809501648
-0.021993981674313545 -0.38081759214401245 1.1018904447555542
-0.06598558276891708 -0.4446397125720978 1.0815880298614502
-0.07480902969837189 -0.4536214768886566 1.1078513860702515
-0.02008017897605896 -0.3728027939796448 1.0631568431854248
-0.08828189224004745 -0.46771660447120667 1.1241812705993652
-0.09808666259050369 -0.48730993270874023 1.1251206398010254
-0.08539442718029022 -0.4758107662200928 1.1139267683029175
-0.10225541889667511 -0.49934011697769165 1.1386845111846924
0.10540774464607239 -0.22560684382915497 1.0158063173294067
0.09917154908180237 -0.25932756066322327 1.089637041091919
0.08687731623649597 -0.26139310002326965 1.082980990409851
0.09332090616226196 -0.2643851339817047 1.0900039672851562
0.050971869379282 -0.28574660420417786 1.007440447807312
0.2080383598804474 -0.11288540810346603 1.0117660760879517
0.2112947702407837 -0.12333083152770996 1.0551977157592773
0.2027338445186615 -0.13247519731521606 1.0507009029388428
0.20117419958114624 -0.12841080129146576 1.0423123836517334
0.024444853886961937 -0.3487645983695984 1.0948426723480225
-0.053683262318372726 -0.4491063356399536 1.1523058414459229
-0.10529971867799759 -0.5022120475769043 1.117431402206421
0.16799622774124146 -0.15682904422283173 1.0130609273910522
0.15686659514904022 -0.17926177382469177 1.0082210302352905
0.03740738332271576 -0.3326394557952881 1.096441388130188
0.027901064604520798 -0.3373216390609741 1.090905785560608
0.004053029231727123 -0.36620816588401794 1.1003334522247314
-0.10833325982093811 -0.511505126953125 1.120133399963379
-0.1108291745185852 -0.5308586359024048 1.173550009727478
-0.11273039132356644 -0.5356762409210205 1.1771187782287598
-0.1168803796172142 -0.5341600179672241 1.158440113067627
0.12423652410507202 -0.21079586446285248 1.0125991106033325
0.11604857444763184 -0.2279198169708252 1.0164917707443237
0.014653865247964859 -0.3698681592941284 1.0999215841293335
0.1015227735042572 -0.22888851165771484 0.9970015287399292
-0.09567807614803314 -0.49172243475914 1.0944808721542358
0.13180649280548096 -0.2304898500442505 1.100125789642334
0.1320578157901764 -0.23396939039230347 1.0969058275222778
0.12265030294656754 -0.24025364220142365 1.0874688625335693
0.12251003086566925 -0.244992196559906 1.0990887880325317
0.11666186898946762 -0.2555124759674072 1.1026546955108643
0.10965663194656372 -0.23886549472808838 1.0651123523712158
0.11863863468170166 -0.24163004755973816 1.0694650411605835
-0.11479160189628601 -0.5366430282592773 1.1786460876464844
-0.020059464499354362 -0.3898140788078308 1.052483081817627
-0.02357073687016964 -0.399361252784729 1.0604331493377686
-0.028300471603870392 -0.40007543563842773 1.0632246732711792
-0.009566898457705975 -0.37625759840011597 1.0349892377853394
0.1266799420118332 -0.2466379851102829 1.0971996784210205
0.11687852442264557 -0.25850552320480347 1.1001527309417725
0.08914870768785477 -0.25166091322898865 0.970496416091919
0.12818191945552826 -0.2417561560869217 1.095610499382019
0.12277863174676895 -0.2458091378211975 1.0881493091583252
-0.0016952529549598694 -0.3927663564682007 1.1238783597946167
0.08171345293521881 -0.25571975111961365 0.9433363080024719
0.08009129762649536 -0.25365737080574036 0.9379948973655701
0.06943069398403168 -0.2620472013950348 0.9298615455627441
0.06537383794784546 -0.2690792679786682 0.9359035491943359
0.12199390679597855 -0.23917070031166077 1.0156766176223755
0.10874845087528229 -0.2652167081832886 1.0866310596466064
-0.013822196051478386 -0.4105907082557678 1.1147358417510986
-0.027596205472946167 -0.4277840852737427 1.1236523389816284
0.08277188241481781 -0.26404809951782227 0.9708090424537659
0.0807238519191742 -0.2704003155231476 0.9710659980773926
0.07503411918878555 -0.2643601894378662 0.9566885828971863
-0.022942468523979187 -0.42731553316116333 1.115500807762146
-0.01303507387638092 -0.41474342346191406 1.1045613288879395
-0.021960219368338585 -0.42197611927986145 1.0903794765472412
-0.009245594963431358 -0.4093201160430908 1.0849895477294922
-0.07984831184148788 -0.48351070284843445 1.103931188583374
-0.07640571147203445 -0.4885028898715973 1.1094893217086792
0.09391732513904572 -0.2651260197162628 0.9884634017944336
0.10339351743459702 -0.2693279981613159 1.0362088680267334
0.09079855680465698 -0.2849368751049042 1.034726858139038
0.09418150037527084 -0.27987146377563477 1.0236889123916626
0.08060689270496368 -0.29507744312286377 1.038329005241394
0.06949816644191742 -0.299992173910141 1.0314546823501587
-0.024997368454933167 -0.43639710545539856 1.0999547243118286
-0.015659833326935768 -0.42834120988845825 1.0960592031478882
-0.03531501069664955 -0.4589729905128479 1.1162047386169434
0.021322885528206825 -0.3840146064758301 1.0812253952026367
0.0024837907403707504 -0.40409421920776367 1.0924402475357056
0.013849434442818165 -0.3870897591114044 1.0816161632537842
0.003535449504852295 -0.39658138155937195 1.08021879196167
0.003195054829120636 -0.40287184715270996 1.0874303579330444
0.004252966493368149 -0.3923611044883728 1.0862592458724976
-0.00037185661494731903 -0.40678709745407104 1.0865401029586792
-0.04030340909957886 -0.46984782814979553 1.1148056983947754
-0.041261471807956696 -0.4631292223930359 1.1045328378677368
-0.06111854687333107 -0.4271053671836853 1.1203155517578125
-0.07377155870199203 -0.441140353679657 1.121699333190918
-0.06544017791748047 -0.4267176687717438 1.103171706199646
-0.07484286278486252 -0.4408084750175476 1.1144591569900513
0.0862109512090683 -0.24956637620925903 1.070764422416687
0.07821545749902725 -0.24406403303146362 1.0049223899841309
0.06969927996397018 -0.25222018361091614 1.0033135414123535
0.10098247230052948 -0.22969499230384827 1.0430153608322144
-0.04777173697948456 -0.4226529002189636 1.1221249103546143
-0.04182136803865433 -0.40955230593681335 1.0931439399719238
0.05536891520023346 -0.27797359228134155 1.0320048332214355
0.05024722218513489 -0.2848009765148163 1.0211082696914673
0.07514094561338425 -0.26355740427970886 1.0652086734771729
0.06793312728404999 -0.27761656045913696 1.068590521812439
-0.035700950771570206 -0.40353667736053467 1.0918737649917603
-0.05256340652704239 -0.4333503246307373 1.1276081800460815
0.03885195404291153 -0.30349671840667725 1.0341986417770386
0.018849393352866173 -0.3255429267883301 1.0498816967010498
0.022339370101690292 -0.32074689865112305 1.029435157775879
-0.028342798352241516 -0.3869434893131256 1.0787688493728638
-0.0927988663315773 -0.4896336793899536 1.1404552459716797
-0.10853385180234909 -0.5135684609413147 1.1482598781585693
-0.10777629911899567 -0.5137462615966797 1.1304279565811157
0.10715270042419434 -0.2500116229057312 1.0980422496795654
0.08477398008108139 -0.27513596415519714 1.095755934715271
0.051312223076820374 -0.3070729374885559 1.0795189142227173
0.0368635430932045 -0.32453322410583496 1.0883299112319946
0.018213381990790367 -0.33305197954177856 1.0264174938201904
0.08029066026210785 -0.2868846654891968 1.1059168577194214
0.07847808301448822 -0.2724078297615051 1.0718657970428467
0.07462973892688751 -0.28659456968307495 1.072181224822998
-0.06468643248081207 -0.46509212255477905 1.1529208421707153
-0.07792782038450241 -0.48208844661712646 1.1480238437652588
-0.03110862337052822 -0.3985520601272583 1.0663799047470093
0.1492457091808319 -0.18677416443824768 1.0358332395553589
