-0.1655581146478653 -0.2654211223125458 0.18435567617416382
-0.111630380153656 0.15530234575271606 1.2460525035858154
-0.1359892338514328 -0.09827244281768799 1.4709999561309814
-0.13555699586868286 -0.09056252986192703 1.445784330368042
-0.12070316076278687 -0.08883480727672577 1.4230648279190063
-0.13574135303497314 -0.08533594012260437 1.42231285572052
-0.13268470764160156 -0.10338381677865982 1.4063684940338135
-0.12654252350330353 -0.1390572339296341 0.7860947847366333
-0.14009803533554077 -0.11062602698802948 0.7613651752471924
-0.10397277772426605 0.3062421381473541 1.0476595163345337
-0.10610228031873703 0.29175621271133423 1.1045596599578857
-0.08794649690389633 -0.16502591967582703 1.2499821186065674
-0.12230038642883301 -0.10603637248277664 0.8509737253189087
-0.16338492929935455 -0.20897269248962402 0.10031712055206299
-0.16948430240154266 -0.21268057823181152 0.05451506748795509
-0.13691174983978271 -0.19076430797576904 0.8509819507598877
-0.12581351399421692 0.22486361861228943 1.2248256206512451
-0.13120409846305847 -0.17673268914222717 1.6535433530807495
-0.11698310077190399 -0.04692010208964348 1.55803382396698
-0.10895856469869614 0.06340986490249634 1.5315871238708496
-0.0965299904346466 0.013380825519561768 1.5857982635498047
-0.11838840693235397 0.01016009971499443 1.5596449375152588
-0.11748744547367096 0.050151266157627106 1.4772672653198242
-0.06564369797706604 0.10013564676046371 1.5729587078094482
-0.09722916036844254 -0.09092045575380325 1.508184552192688
-0.09966863691806793 0.044212326407432556 0.9656283855438232
-0.13635952770709991 -0.05321388319134712 1.8451714515686035
-0.1504717469215393 -0.06282705068588257 1.8403174877166748
-0.14756423234939575 -0.07406052947044373 1.8262255191802979
-0.027143189683556557 0.062498319894075394 1.459210991859436
-0.1110827773809433 0.1106271967291832 1.4405421018600464
-0.09826526045799255 -0.28599783778190613 0.029964430257678032
-0.07609798014163971 0.1774628460407257 1.3703289031982422
-0.08767975866794586 -0.17180654406547546 1.5626540184020996
-0.08792358636856079 -0.256215363740921 0.3911336362361908
-0.05866735056042671 0.029043328016996384 1.5236639976501465
-0.06680409610271454 -0.03503533452749252 1.5075068473815918
-0.05568190664052963 0.12344010919332504 1.4878203868865967
-0.0436834879219532 0.05212963744997978 0.8430052995681763
-0.09439980238676071 -0.20600703358650208 0.3298411965370178
-0.04547710716724396 0.29816174507141113 0.9455174207687378
-0.03690307214856148 0.04331490397453308 1.0345818996429443
-0.06480424106121063 -0.1908809393644333 1.2449593544006348
-0.06608083099126816 -0.1646820604801178 1.1516588926315308
-0.08091433346271515 -0.23682637512683868 0.31581947207450867
-0.062032051384449005 -0.2637525796890259 0.2614910900592804
-0.09295649826526642 -0.21790558099746704 0.24796876311302185
-0.05481204390525818 -0.0002458244562149048 1.542708158493042
-0.03695851191878319 -0.19234734773635864 0.701598584651947
-0.062478065490722656 -0.14087577164173126 0.6364324688911438
-0.04335527867078781 0.3150608539581299 1.093862533569336
-0.03601621836423874 0.32607242465019226 0.9978203773498535
-0.012052652426064014 -0.19862771034240723 1.171043872833252
-0.08415304124355316 -0.2614273130893707 0.12128189951181412
-0.03675065189599991 0.2696409821510315 0.9918829202651978
-0.041647639125585556 0.23652049899101257 1.032976746559143
0.01566815935075283 0.02224797196686268 1.5318078994750977
-0.05071672052145004 -0.1543024778366089 1.3928967714309692
-0.017057403922080994 0.20419472455978394 1.344144582748413
0.02656228095293045 0.06772985309362411 1.4440512657165527
0.012217231094837189 -0.0013700425624847412 1.5329631567001343
0.026693861931562424 0.27425795793533325 1.0007165670394897
0.04609296843409538 0.2722727358341217 0.9508755803108215
0.013136159628629684 -0.16821874678134918 1.3827769756317139
0.014097535982728004 0.04647374525666237 1.0278421640396118
0.008312901481986046 -0.19743523001670837 1.1125812530517578
0.0687258392572403 0.18363237380981445 1.3660372495651245
0.040711697190999985 -0.03439207747578621 1.3159849643707275
0.059867583215236664 0.1197652667760849 1.4897241592407227
0.035249970853328705 0.05796000361442566 1.4901372194290161
0.05484459921717644 -0.027307620272040367 1.223109483718872
0.039527978748083115 0.10043936967849731 0.9110114574432373
0.02324051223695278 -0.07759451121091843 1.7781764268875122
0.09385398030281067 0.194888174533844 0.13950057327747345
0.09861793369054794 0.21228660643100739 0.1254151165485382
0.08299537003040314 0.22223275899887085 0.17821790277957916
0.0038775168359279633 -0.20606206357479095 1.6594916582107544
0.05313565582036972 -0.04097958654165268 0.6941852569580078
0.10179969668388367 0.06560532003641129 1.4545331001281738
0.06922438740730286 -0.10630328953266144 1.510303258895874
0.11690052598714828 -0.0999850481748581 1.4419620037078857
0.06353221833705902 -0.061935100704431534 1.4230016469955444
0.09219159930944443 0.08973921090364456 0.4217289686203003
0.10984589904546738 0.09057239443063736 0.2530284821987152
0.12069855630397797 0.18735769391059875 0.28057390451431274
0.1054186224937439 0.2740015387535095 1.0083991289138794
0.09109625965356827 0.3104071319103241 0.9725328683853149
0.09002532064914703 -0.12763041257858276 0.7079576253890991
0.09434985369443893 -0.0227075032889843 0.6393487453460693
0.030264699831604958 -0.12929676473140717 1.7666853666305542
0.07502022385597229 -0.12906332314014435 1.7210432291030884
0.10725685209035873 -0.06576007604598999 0.5136448740959167
0.041625674813985825 -0.06837381422519684 1.7902365922927856
0.07266002148389816 -0.07815440744161606 1.7395190000534058
0.09762504696846008 -0.07704374194145203 1.1400381326675415
0.09989482164382935 -0.06396714597940445 1.1091972589492798
0.09441114962100983 -0.14297020435333252 1.0917373895645142
0.06839484721422195 -0.17308740317821503 1.6571376323699951
0.08253379911184311 -0.09560158103704453 1.5422838926315308
0.07510263472795486 -0.14194557070732117 1.5453073978424072
0.1521536260843277 0.2674356997013092 0.9616811871528625
0.11263829469680786 -0.13557466864585876 1.2866690158843994
0.127849280834198 -0.19552624225616455 1.2280445098876953
0.11541743576526642 -0.11016681045293808 1.2406229972839355
0.16761858761310577 0.20691263675689697 0.23354683816432953
0.14969126880168915 0.13011740148067474 0.20081736147403717
0.16934652626514435 0.14274734258651733 0.18935786187648773
0.08832872658967972 -0.0506330206990242 1.7614731788635254
0.125001922249794 -0.15475568175315857 1.280065894126892
0.16667568683624268 0.06494759023189545 0.45449283719062805
0.14596396684646606 -0.007611971348524094 0.47382184863090515
0.17476612329483032 0.0795678198337555 0.4012437164783478
0.13497602939605713 -0.11822770535945892 1.4293404817581177
0.11866103112697601 -0.11250802874565125 1.4266481399536133
0.14204081892967224 -0.08034685254096985 1.394008755683899
0.11964009702205658 0.06931172311306 0.9063858389854431
0.11719092726707458 -0.11458668112754822 0.8275246024131775
0.19307853281497955 0.1465739756822586 0.30038750171661377
0.20119717717170715 0.1174231469631195 0.29157182574272156
0.15129795670509338 -0.07007589936256409 1.3911081552505493
0.15719221532344818 0.15501858294010162 1.2673664093017578
0.15838667750358582 0.19013990461826324 1.2410961389541626
0.14145682752132416 -0.24210689961910248 1.107905387878418
0.1675635576248169 -0.05546053498983383 0.9705120325088501
0.17046323418617249 -0.11724637448787689 0.9588792324066162
0.19014672935009003 -0.013630159199237823 1.2197272777557373
0.2838348150253296 -0.06418991088867188 1.0719680786132812
0.2776623070240021 -0.010070540010929108 1.0754387378692627
0.3061801493167877 -0.1269240528345108 1.1166237592697144
-0.3035677969455719 -0.006780629046261311 1.00247061252594
-0.32665857672691345 -0.07080184668302536 0.966277003288269
-0.23865708708763123 -0.1091802716255188 1.0944969654083252
-0.2566324770450592 -0.13119731843471527 1.1400490999221802
-0.19927330315113068 -0.07167002558708191 1.1224302053451538
-0.18782320618629456 -0.026711439713835716 1.1566436290740967
-0.1926056444644928 -0.15313944220542908 0.8653689622879028
-0.16857744753360748 0.24706301093101501 0.9921238422393799
-0.17258797585964203 0.20964132249355316 1.1059271097183228
-0.12085610628128052 -0.2548006772994995 1.0779130458831787
-0.14120712876319885 -0.16076339781284332 0.9550087451934814
-0.17840556800365448 -0.2654431164264679 0.2694682478904724
-0.15568064153194427 -0.3092940151691437 0.29378747940063477
-0.12066524475812912 -0.16452643275260925 0.4745415449142456
-0.14789250493049622 -0.19676068425178528 0.8576108813285828
-0.11822224408388138 -0.17675866186618805 0.6169824600219727
-0.11659595370292664 -0.18558314442634583 0.6866022348403931
-0.10843410342931747 -0.12469327449798584 0.669516921043396
-0.10180075466632843 -0.011120209470391273 1.1090246438980103
-0.09300260245800018 -0.07905194163322449 1.1311798095703125
-0.08856519311666489 0.26681941747665405 1.1866319179534912
-0.11332343518733978 -0.01930738240480423 0.8272879123687744
-0.11222835630178452 -0.31751391291618347 0.31304746866226196
-0.09995085000991821 -0.03899272903800011 1.2199549674987793
-0.08302510529756546 -0.03675626590847969 1.1447019577026367
-0.10541315376758575 -0.26616138219833374 0.44514861702919006
-0.1353735774755478 -0.07121403515338898 1.7598762512207031
-0.1353917419910431 -0.10830388218164444 1.7494876384735107
-0.08677223324775696 -0.14443698525428772 1.7612724304199219
-0.09839620441198349 -0.18550008535385132 1.7188791036605835
-0.11110122501850128 -0.17496781051158905 1.6163804531097412
-0.09075616300106049 -0.26784589886665344 0.33799827098846436
-0.04512271657586098 -0.16955114901065826 0.7555035948753357
-0.06533226370811462 -0.2916581332683563 0.27291765809059143
-0.08326150476932526 -0.31823375821113586 0.28153565526008606
-0.09745793044567108 -0.23569618165493011 0.21148182451725006
-0.06040744110941887 0.06716855615377426 0.9585887789726257
-0.08721514791250229 -0.0557519793510437 1.8068106174468994
-0.10043980926275253 -0.07125769555568695 1.7927756309509277
0.01668868213891983 0.20628711581230164 1.1656454801559448
-0.08691562712192535 0.19779656827449799 1.1691975593566895
-0.0057731689885258675 0.17510703206062317 1.229886531829834
0.022975293919444084 -0.04576808586716652 1.2615970373153687
-0.0041994089260697365 0.2663176357746124 1.2223398685455322
0.007535478100180626 0.24601276218891144 1.038184404373169
0.06634171307086945 0.3052344024181366 1.1331629753112793
0.0212447177618742 0.0766122117638588 1.6861872673034668
0.048973508179187775 0.23917651176452637 1.0463327169418335
0.05004594847559929 -0.2187528908252716 0.8960028886795044
0.07684881240129471 0.11254976689815521 0.28657516837120056
0.09381044656038284 0.13723400235176086 0.2401178926229477
0.050992269068956375 -0.10513770580291748 0.6665125489234924
0.04313746839761734 0.024181049317121506 1.063617467880249
0.07247873395681381 -0.003379087895154953 0.5589060187339783
0.08086681365966797 0.14707635343074799 1.3034541606903076
0.09082725644111633 -0.14663735032081604 1.4051117897033691
0.058487147092819214 0.0667743906378746 1.6449553966522217
0.06137377768754959 -0.012212533503770828 1.6138792037963867
0.06465718895196915 0.00917116180062294 1.5862720012664795
0.03561843931674957 -0.06512423604726791 1.8403679132461548
0.09421440958976746 -0.15305477380752563 1.3286032676696777
0.13571873307228088 0.05128663778305054 0.5170092582702637
0.101473867893219 0.06422795355319977 0.5187575817108154
0.13146473467350006 0.13024500012397766 0.39394325017929077
0.15524117648601532 0.1401015818119049 0.3681170344352722
0.10757548362016678 -0.08498610556125641 1.5324974060058594
0.09391215443611145 -0.09767075628042221 1.5433154106140137
0.11034314334392548 -0.09189558029174805 1.5248825550079346
0.11817408353090286 -0.04111258685588837 0.7456216216087341
0.13332517445087433 -0.06172321364283562 0.6075627207756042
0.12831813097000122 0.029334425926208496 0.9446253180503845
0.13000334799289703 -0.056653738021850586 1.080016016960144
0.1259945183992386 -0.11252252012491226 1.0718257427215576
0.13185667991638184 -0.14253926277160645 1.014405369758606
0.10368171334266663 -0.046180035918951035 1.6562674045562744
0.11847105622291565 -0.04733246564865112 1.5669174194335938
0.11925383657217026 -0.1777598261833191 1.2139091491699219
0.12703822553157806 0.0369979664683342 1.5554423332214355
0.11968785524368286 0.0020599253475666046 1.59382963180542
0.18544936180114746 0.22775471210479736 0.1744622141122818
0.19645830988883972 0.20912986993789673 0.155339777469635
0.14067736268043518 0.025638218969106674 1.5160847902297974
0.14417457580566406 0.04857320711016655 1.4865875244140625
0.15246035158634186 0.05690094456076622 1.440958857536316
0.14977788925170898 0.0797029510140419 1.425614595413208
0.133363276720047 -0.2515223026275635 1.1254847049713135
0.17082539200782776 -0.15173225104808807 0.8332421779632568
0.1531842201948166 -0.2255215346813202 1.1444849967956543
0.15099643170833588 -0.2506785988807678 1.1260170936584473
0.19896447658538818 -0.10972881317138672 0.8500468134880066
0.1987268626689911 -0.087286077439785 0.8318484425544739
0.2086203396320343 -0.05265599861741066 0.8440752029418945
-0.21331053972244263 -0.12871913611888885 1.161210060119629
-0.14908461272716522 -0.14857888221740723 1.2469525337219238
-0.15880726277828217 -0.14298689365386963 1.2291412353515625
-0.14849479496479034 -0.13690271973609924 1.239971399307251
-0.14427685737609863 -0.13690540194511414 1.2584912776947021
-0.20561328530311584 -0.0008625835180282593 0.8328803181648254
-0.11808318644762039 -0.10018902271986008 1.2900209426879883
-0.13798372447490692 -0.06360289454460144 1.083019733428955
-0.1459386795759201 0.03878428041934967 1.5677268505096436
-0.12153492122888565 -0.10691791027784348 1.1982351541519165
-0.12545788288116455 -0.08812469244003296 1.1495863199234009
-0.1253175586462021 0.06909871846437454 1.462962031364441
-0.12397930771112442 0.08242573589086533 1.4136353731155396
-0.11740575730800629 -0.14333808422088623 1.0477211475372314
-0.08495303243398666 -0.17156890034675598 1.0070595741271973
-0.11951003223657608 -0.0661541298031807 0.7477539777755737
-0.08634758740663528 0.22504279017448425 1.2660610675811768
-0.089559406042099 0.07678239047527313 1.6643470525741577
-0.09312038123607635 -0.21930572390556335 0.05861419439315796
-0.1076473742723465 -0.20711547136306763 0.045906707644462585
-0.08933193981647491 0.023057058453559875 0.8441801071166992
-0.015182485803961754 0.09797552227973938 0.8404899835586548
-0.06070253252983093 -0.021341856569051743 0.8262463808059692
0.0017731096595525742 0.12125761806964874 1.3360042572021484
-0.023903943598270416 -0.11593171954154968 0.7649354934692383
-0.034720614552497864 -0.19553320109844208 1.6349742412567139
-0.016493694856762886 0.018513314425945282 0.861830472946167
-0.007409669458866119 -0.02299625240266323 0.841640293598175
0.007215698249638081 -0.11582477390766144 0.8433142900466919
-0.07754279673099518 -0.1681707501411438 0.8567021489143372
0.0005004666745662689 -0.22767172753810883 0.8447780609130859
0.020239757373929024 -0.10588763654232025 0.8098506927490234
-0.0056808036752045155 -0.1636999100446701 0.8564834594726562
0.010624788701534271 -0.0272815078496933 1.506408929824829
0.015771549195051193 -0.03252214565873146 0.8351866006851196
0.01900247111916542 -0.04625195637345314 0.8109607100486755
0.019353749230504036 -0.012473847717046738 1.5855790376663208
0.02443387545645237 -0.006094835698604584 1.5585676431655884
0.029618464410305023 -0.11985018849372864 0.8282965421676636
0.12011660635471344 0.06416058540344238 0.8383511900901794
0.07996877282857895 0.13881182670593262 0.3009914755821228
0.039514798671007156 -0.03180280327796936 0.7994372844696045
0.06374099105596542 0.20235317945480347 1.199975848197937
0.11063507199287415 0.05113525688648224 0.38939163088798523
0.1069861426949501 0.09809652715921402 0.34577232599258423
0.12288585305213928 0.07162821292877197 0.3483934998512268
0.12022612243890762 0.06438005715608597 0.2851490378379822
0.10634499788284302 0.05164788290858269 1.5277197360992432
0.06936652958393097 -0.012842402793467045 0.8345688581466675
0.09487569332122803 -0.033701568841934204 0.8115547895431519
0.11250820755958557 -0.07989966869354248 1.2498300075531006
0.14085666835308075 0.017676979303359985 0.42370548844337463
0.09849373251199722 0.013548363000154495 1.6307549476623535
0.09883058071136475 -0.051253240555524826 1.311002492904663
0.15381589531898499 0.07002748548984528 0.35039427876472473
0.08388890326023102 0.27059701085090637 1.196432113647461
0.11438784003257751 -0.047435835003852844 1.2277708053588867
0.1634853631258011 0.18124555051326752 0.28226861357688904
0.13377776741981506 0.28928864002227783 1.107377052307129
0.14699602127075195 0.1749621331691742 0.31362485885620117
0.1626695990562439 0.07158435136079788 0.2605764865875244
0.13606250286102295 0.1314871907234192 1.3221157789230347
0.1299135684967041 -0.10747304558753967 1.4732948541641235
0.13955217599868774 -0.09403548389673233 1.441060185432434
0.12873190641403198 -0.10654260218143463 1.4725301265716553
0.15965425968170166 -0.06659164279699326 1.4256508350372314
0.1420305222272873 -0.20112326741218567 1.1945607662200928
0.1268593966960907 -0.21246445178985596 1.184357762336731
0.15284214913845062 0.18124976754188538 1.2203208208084106
0.17022933065891266 0.2323920875787735 1.153836727142334
0.16684576869010925 0.2304447442293167 1.1169105768203735
0.1677732914686203 -0.06350041180849075 1.2594670057296753
0.1585920751094818 -0.11345052719116211 1.252869725227356
0.1562078595161438 -0.17761412262916565 0.8471115827560425
0.16900862753391266 -0.1358640193939209 1.2548229694366455
0.21502400934696198 -0.12181630730628967 1.145370602607727
0.19873806834220886 -0.034030258655548096 1.1622365713119507
0.21577946841716766 -0.08323900401592255 1.1262264251708984
0.30046865344047546 -0.1171913743019104 1.1593263149261475
0.3198477029800415 -0.021053247153759003 1.0516554117202759
0.32546326518058777 -0.10422322154045105 1.0743958950042725
-0.12648801505565643 -0.25108054280281067 1.1206027269363403
-0.12891261279582977 -0.18813255429267883 1.185270071029663
-0.13807986676692963 -0.17977380752563477 1.206674337387085
-0.11530283838510513 -0.2350638210773468 1.126288652420044
-0.1412842720746994 0.062237173318862915 1.494644284248352
-0.14881053566932678 0.05548261106014252 1.4766302108764648
-0.15684446692466736 0.08462764322757721 1.4305675029754639
-0.158297598361969 -0.07217448949813843 1.7211086750030518
-0.1531699150800705 -0.10973916202783585 1.6347814798355103
-0.14783480763435364 -0.26837530732154846 0.3303085267543793
-0.12783515453338623 -0.06783552467823029 0.8317152261734009
-0.12523335218429565 -0.09834024310112 0.8223344087600708
-0.15263333916664124 0.2722022235393524 0.9657995104789734
-0.0781923234462738 -0.1556372344493866 1.2445032596588135
-0.11095846444368362 -0.04055594652891159 0.7961940765380859
-0.10676366090774536 -0.08572408556938171 1.7725560665130615
-0.07796800136566162 -0.12497812509536743 1.1318576335906982
-0.03884217143058777 -0.18564242124557495 1.125074028968811
-0.08777888119220734 0.23282390832901 1.0877313613891602
-0.001729173120111227 0.23612652719020844 1.0845732688903809
-0.06118915230035782 -0.01945246383547783 1.1618623733520508
-0.04962192475795746 -0.11425422132015228 0.8432025909423828
-0.036209385842084885 -0.1898009181022644 1.0665359497070312
-0.0540088452398777 0.025003831833600998 1.0583566427230835
-0.03156045824289322 -0.18577952682971954 1.7338494062423706
0.01905788481235504 -0.08957874774932861 0.7422255277633667
-0.0643322616815567 0.1335340291261673 1.304238200187683
0.09177356958389282 0.22845029830932617 0.13572973012924194
0.11665808409452438 0.31862008571624756 1.0371787548065186
0.07862366735935211 0.23999641835689545 1.107271432876587
0.04866490513086319 0.3303794264793396 1.049520492553711
0.08810415863990784 0.09499134123325348 0.8461747169494629
0.1586562544107437 0.25528573989868164 0.18621966242790222
0.11116805672645569 -0.03641335666179657 0.8315785527229309
0.14440356194972992 0.044936880469322205 0.39252907037734985
0.13390648365020752 -0.13516423106193542 1.3871240615844727
0.13579465448856354 -0.13594232499599457 1.297709584236145
0.19287145137786865 0.0022463686764240265 0.8412340879440308
0.20105424523353577 -0.049899086356163025 0.9033640623092651
0.3309771716594696 -0.06538794189691544 1.0513098239898682
-0.2708967328071594 -0.13115838170051575 1.0998036861419678
-0.20518119633197784 -0.07917466014623642 0.9055376052856445
-0.21922209858894348 -0.07361674308776855 0.8485337495803833
-0.15678450465202332 0.06576699018478394 1.4254865646362305
-0.16861289739608765 0.13849367201328278 1.2573163509368896
-0.13848288357257843 -0.05270213633775711 1.547360897064209
-0.1362522542476654 -0.054536204785108566 1.0461838245391846
-0.13331452012062073 -0.08512672781944275 1.0892648696899414
-0.13879099488258362 -0.04741528257727623 1.548374056816101
-0.13397760689258575 -0.06514818221330643 1.5346274375915527
-0.13596269488334656 -0.058543674647808075 1.5429973602294922
-0.1364249885082245 -0.05882652476429939 1.5470669269561768
-0.14000365138053894 -0.0742088258266449 1.5350897312164307
-0.13286638259887695 -0.3292430639266968 0.17324750125408173
-0.1473298966884613 -0.15012496709823608 1.6902072429656982
-0.025587135925889015 -0.023190515115857124 1.2184219360351562
-0.08370251953601837 -0.3337417244911194 0.06685840338468552
-0.03931786119937897 -0.042384449392557144 1.2598904371261597
0.0011850266018882394 -0.019675225019454956 1.1715177297592163
-0.048910953104496 0.0954466462135315 0.917449951171875
-0.037959985435009 -0.09014511108398438 1.7896801233291626
-0.029307879507541656 -0.14640358090400696 0.7027411460876465
-0.03834161534905434 0.1503380388021469 1.2642014026641846
0.022219017148017883 -0.19064274430274963 1.0112831592559814
-0.010513346642255783 -0.20579472184181213 1.2113659381866455
0.009454903192818165 0.21354655921459198 1.1314061880111694
0.09612930566072464 0.17456336319446564 0.2564413547515869
0.08085916936397552 -0.17137926816940308 0.9877654314041138
0.1267305612564087 -0.16703560948371887 0.9559010863304138
0.08309277147054672 0.019878167659044266 1.5509388446807861
0.09003712981939316 -0.16124704480171204 1.1650117635726929
0.0477752760052681 -0.02253437414765358 1.1686879396438599
0.10326327383518219 -0.011841153725981712 1.0740764141082764
0.08286724239587784 0.06321781128644943 0.9457592964172363
0.1611364781856537 0.23856885731220245 0.11301258951425552
0.13492099940776825 0.24308958649635315 0.11599509418010712
0.18972237408161163 0.23842427134513855 0.1278858333826065
0.18180415034294128 0.09338481724262238 0.25182971358299255
0.1266101598739624 -0.10554929077625275 1.4694736003875732
0.12699860334396362 -0.10544488579034805 1.470015525817871
0.11399178951978683 -0.09843011200428009 1.3209688663482666
0.13415101170539856 -0.12280493974685669 1.2918636798858643
0.18340665102005005 0.27046623826026917 1.0441441535949707
0.18363170325756073 0.2584792375564575 0.9918303489685059
0.19440114498138428 0.2662461996078491 0.9887551665306091
0.32935774326324463 -0.007729232311248779 1.0586986541748047
0.3517436385154724 -0.07334969937801361 1.0221717357635498
0.37576156854629517 -0.09063771367073059 1.0044481754302979
-0.25217121839523315 -0.045866917818784714 1.0324457883834839
-0.13840818405151367 -0.2187068909406662 1.1662575006484985
-0.11930996179580688 -0.26700055599212646 0.36263537406921387
-0.10591986030340195 0.2669224441051483 0.9388277530670166
-0.08922254294157028 -0.14219246804714203 1.0843896865844727
-0.03191825747489929 -0.04213602840900421 0.8334705829620361
-0.04759521037340164 -0.04353092610836029 0.7883224487304688
-0.04116377979516983 -0.09337915480136871 0.807876706123352
-0.0018711495213210583 0.023540720343589783 1.1029623746871948
0.027303289622068405 -0.20801416039466858 0.8298617005348206
0.08841029554605484 0.019541867077350616 0.8510637283325195
0.10012182593345642 0.24792203307151794 1.0676805973052979
0.1109754890203476 -0.022965196520090103 1.56834077835083
0.12036733329296112 0.007327292114496231 1.5447486639022827
0.18845872581005096 -0.11742859333753586 0.9001349806785583
-0.1415283977985382 -0.22459626197814941 1.1311084032058716
-0.14813892543315887 0.004059001803398132 1.5828766822814941
-0.07969280332326889 0.27174341678619385 0.9913414716720581
-0.12963885068893433 0.03360936790704727 1.614885687828064
-0.09684165567159653 -0.0032142773270606995 1.6016180515289307
-0.058459021151065826 -0.010152917355298996 1.5790530443191528
0.051423609256744385 -0.18665355443954468 1.065915822982788
0.07711078971624374 -0.1625438928604126 1.2490346431732178
0.11472220718860626 0.13721303641796112 0.19281043112277985
0.11726416647434235 -0.13064290583133698 1.2133315801620483
0.12500925362110138 -0.10450471937656403 1.1636173725128174
0.13241912424564362 0.07441645860671997 1.4465913772583008
0.10949864983558655 0.10740812122821808 1.454331398010254
0.12582027912139893 -0.057547781616449356 1.1763434410095215
0.11480823904275894 -0.07353398948907852 0.8153636455535889
0.10572979599237442 -0.19918841123580933 1.2139198780059814
0.1389627456665039 0.14246365427970886 1.3462543487548828
-0.15117321908473969 0.11756236106157303 1.3541055917739868
-0.11304397135972977 -0.19203050434589386 0.35434094071388245
0.035778649151325226 -0.08176013827323914 0.7015155553817749
0.030266204848885536 -0.18068227171897888 1.7138724327087402
-0.17040902376174927 0.2493368685245514 1.0447876453399658
-0.1367492824792862 -0.13982969522476196 1.262704610824585
-0.07197306305170059 -0.22182123363018036 0.3983430862426758
0.0025972221046686172 0.1318085640668869 1.4885011911392212
0.11260231584310532 0.23490843176841736 0.11425630003213882
0.1112116128206253 -0.09070845693349838 1.5262181758880615
0.1111958920955658 -0.09112508594989777 1.5230793952941895
0.1229701116681099 -0.09767913073301315 1.4250712394714355
0.17372772097587585 0.11881278455257416 0.2341824173927307
0.1846289485692978 0.1536296159029007 0.24464918673038483
0.20846718549728394 -0.14185592532157898 1.1923232078552246
-0.18137343227863312 -0.15320169925689697 0.9239654541015625
-0.15464453399181366 0.093243308365345 1.389718770980835
-0.15332724153995514 0.09093160927295685 1.390771508216858
-0.15855444967746735 0.08788128197193146 1.3908733129501343
-0.07825718820095062 -0.2751271426677704 0.20780062675476074
-0.031020082533359528 -0.09472811222076416 0.837389349937439
0.08932095766067505 0.16708442568778992 0.20474465191364288
0.2598634958267212 -0.14035548269748688 1.145221471786499
0.09304895251989365 -0.12219291925430298 1.668943166732788
0.13089215755462646 -0.09011182188987732 0.7647384405136108
0.1467275470495224 0.08590439707040787 1.402396321296692
0.14275839924812317 0.11682231724262238 1.3622894287109375
0.09155648946762085 0.2506181597709656 0.16176792979240417
0.3663770854473114 -0.5030225515365601 0.8979039788246155
0.3568462133407593 -0.4579803943634033 0.8891361951828003
0.35796016454696655 -0.4733496904373169 0.8879014849662781
0.3495062589645386 -0.4769986867904663 0.8946789503097534
0.3587673306465149 -0.5003972053527832 0.8892307281494141
0.36292755603790283 -0.49118995666503906 0.9061064720153809
0.36213961243629456 -0.31688976287841797 0.9400695562362671
0.3453809320926666 -0.3233335018157959 0.9313569068908691
0.36049023270606995 -0.34613072872161865 0.9313093423843384
0.36014553904533386 -0.3570583462715149 0.929967999458313
0.3428817689418793 -0.11570161581039429 0.9333826303482056
0.3401099443435669 -0.13969333469867706 0.9453885555267334
0.33938756585121155 -0.1285070925951004 0.9200555086135864
0.35228851437568665 -0.3302280008792877 0.8924703598022461
0.3549572229385376 -0.34882593154907227 0.8998784422874451
0.3664039373397827 -0.39216148853302 0.9424698352813721
0.36418718099594116 -0.3731871247291565 0.9343550801277161
0.33912941813468933 -0.1666254699230194 0.8887300491333008
0.3434332013130188 -0.18111899495124817 0.9097251892089844
0.366645485162735 -0.23989436030387878 0.9587087631225586
0.3556898236274719 -0.2290005385875702 0.9563736319541931
0.37319421768188477 -0.4739358127117157 0.9221292734146118
0.360713392496109 -0.44491511583328247 0.8829831480979919
0.3487655818462372 -0.12339969724416733 0.9111595153808594
0.3436124324798584 -0.13020457327365875 0.9055152535438538
0.3588718771934509 0.07361260056495667 1.0668951272964478
0.3549770414829254 0.05892730504274368 1.0599550008773804
0.3523678779602051 0.07867281138896942 1.0460079908370972
0.3691727817058563 -0.41873699426651 0.9263849854469299
0.3701745867729187 -0.44527342915534973 0.9233647584915161
0.34714069962501526 -0.12546052038669586 0.9030381441116333
0.34612149000167847 -0.12018441408872604 0.8934947848320007
0.3616642951965332 -0.5077809691429138 0.8426082730293274
0.3609901964664459 -0.5287579298019409 0.8452268242835999
0.35885465145111084 0.08688057214021683 1.0639410018920898
0.35925719141960144 0.06927463412284851 1.0711455345153809
0.35385119915008545 0.08908946812152863 1.058943271636963
0.3580111861228943 0.08196204900741577 1.0450849533081055
0.3720702528953552 -0.5769627094268799 0.8828742504119873
0.3807247281074524 -0.601530909538269 0.8857887387275696
0.37085652351379395 -0.599333643913269 0.8682816624641418
0.3548034727573395 -0.25438523292541504 0.8898143768310547
0.36072593927383423 -0.2753913104534149 0.8822863101959229
0.35369107127189636 -0.29612332582473755 0.8715029358863831
0.35772573947906494 -0.29371917247772217 0.8657891750335693
0.36545512080192566 0.06679387390613556 1.0748664140701294
0.35807159543037415 0.09456191211938858 1.0553501844406128
0.37868449091911316 -0.4172540009021759 0.9420148134231567
0.38509196043014526 -0.4160608649253845 0.9420217275619507
0.3755435347557068 -0.4343222379684448 0.9365275502204895
0.38706645369529724 -0.4561467170715332 0.9339339137077332
0.3548618257045746 -0.20430880784988403 0.8925809860229492
0.3555977940559387 -0.2209741771221161 0.8823550939559937
0.352383553981781 -0.22769784927368164 0.8856258988380432
0.3624262809753418 0.09026610106229782 1.0581340789794922
0.37008166313171387 0.06366350501775742 1.0700407028198242
0.3610791265964508 0.07883657515048981 1.0457706451416016
0.34378582239151 -0.07928208261728287 0.8753029704093933
0.34381023049354553 -0.08645308762788773 0.8653299808502197
0.34433451294898987 -0.10759764164686203 0.884006142616272
0.3473812937736511 -0.09590912610292435 0.8769617676734924
0.3401268422603607 -0.0906577855348587 0.8758689761161804
0.3579501807689667 -0.3179391622543335 0.8526971936225891
0.35859617590904236 -0.2993283271789551 0.8554832935333252
0.3553263545036316 -0.30195480585098267 0.8421287536621094
0.3567836880683899 -0.30952319502830505 0.8393035531044006
0.36912137269973755 0.07076670974493027 1.0518144369125366
0.38568225502967834 -0.6127347946166992 0.8895235657691956
0.384956032037735 -0.6035420298576355 0.8719919323921204
0.3880995213985443 -0.6172022223472595 0.8830499053001404
0.38585731387138367 -0.6245692372322083 0.8831692337989807
0.3796316683292389 -0.5940974950790405 0.8623720407485962
0.37152886390686035 -0.11377681791782379 0.9241071939468384
0.3588131070137024 -0.12419470399618149 0.9065927267074585
0.3689189851284027 -0.4836781322956085 0.8394385576248169
0.37336763739585876 -0.5150299072265625 0.8380051851272583
0.3748835623264313 -0.543471097946167 0.8454450964927673
0.3806091248989105 -0.22277608513832092 0.9611572623252869
0.37696200609207153 -0.24511700868606567 0.954926609992981
0.3856329917907715 -0.25480711460113525 0.9458092451095581
0.39148104190826416 -0.40783289074897766 0.9467239379882812
0.3859545588493347 -0.4165130853652954 0.9358883500099182
0.38769102096557617 -0.47620677947998047 0.925148606300354
0.3802047669887543 -0.373382031917572 0.9424156546592712
0.3780534565448761 -0.45990028977394104 0.8668192625045776
0.3775237202644348 -0.49932530522346497 0.8541247844696045
0.3852887749671936 -0.22029060125350952 0.9555103778839111
0.3923090100288391 -0.37954312562942505 0.9202306270599365
0.38969314098358154 -0.3588871359825134 0.9176018834114075
0.39247000217437744 -0.3986473083496094 0.9181049466133118
0.38793206214904785 -0.5619678497314453 0.873945951461792
0.38791441917419434 -0.5484630465507507 0.8657724261283875
0.3707677721977234 -0.3539304733276367 0.8724216818809509
0.3857746720314026 -0.35921791195869446 0.8872476816177368
0.3781302273273468 -0.3795381784439087 0.8836503028869629
0.3854905962944031 -0.3824591636657715 0.8925931453704834
0.38543716073036194 -0.3019733130931854 0.9336691498756409
0.3860912322998047 -0.3418939709663391 0.9237633943557739
0.3917071223258972 -0.46751871705055237 0.9037913084030151
0.392384797334671 -0.4888750910758972 0.8926889896392822
0.38736477494239807 -0.5012940168380737 0.897280752658844
0.38817840814590454 -0.44876259565353394 0.881926953792572
0.3900427520275116 -0.4577719569206238 0.8739541172981262
0.3780182898044586 -0.3104603886604309 0.8902463912963867
0.3801898658275604 -0.3286401033401489 0.8848957419395447
0.37566500902175903 -0.2953176498413086 0.8796084523200989
0.3780502378940582 -0.31835198402404785 0.8787766695022583
0.3794950544834137 -0.34091055393218994 0.8836328387260437
0.3803347945213318 -0.29089847207069397 0.9051952362060547
0.3879346251487732 -0.27423882484436035 0.9162847399711609
0.37134474515914917 -0.25619903206825256 0.8940837383270264
0.38018953800201416 -0.27298274636268616 0.9046145677566528
0.3905155062675476 -0.46923255920410156 0.8777583837509155
0.3941909372806549 -0.4929100573062897 0.8767197132110596
0.3868522346019745 -0.48280930519104004 0.8733391761779785
0.40096285939216614 -0.48259878158569336 0.8742947578430176
0.38226544857025146 -0.13416355848312378 0.9309486746788025
0.346667617559433 -0.4471772313117981 0.9128673076629639
0.3422846794128418 -0.4582626223564148 0.8993722796440125
0.35014989972114563 -0.36976027488708496 0.9212594032287598
0.34835344552993774 -0.3661979138851166 0.9181572794914246
0.34714996814727783 -0.3874779939651489 0.9235665202140808
0.34789371490478516 -0.37210792303085327 0.9129869937896729
0.34507977962493896 -0.3896535634994507 0.9158518314361572
0.349087655544281 -0.32413822412490845 0.912274956703186
0.3495415449142456 -0.33873486518859863 0.9076448678970337
0.35112079977989197 -0.2993605136871338 0.9168828725814819
0.35779067873954773 -0.3865204453468323 0.9260684251785278
0.3613678812980652 -0.466788649559021 0.8625978231430054
0.35602709650993347 -0.4909702241420746 0.8849037289619446
0.3533974885940552 -0.35994046926498413 0.8941077589988708
0.36324384808540344 -0.5218765139579773 0.8834629654884338
0.3619312047958374 -0.5441941022872925 0.874483048915863
0.3578338027000427 -0.5240542888641357 0.8740388751029968
0.36681225895881653 -0.5649860501289368 0.8797017335891724
0.35137316584587097 -0.11211199313402176 0.9535893201828003
0.36949747800827026 -0.18624870479106903 1.0023291110992432
0.3655918538570404 -0.19410893321037292 0.9914512634277344
0.37173402309417725 -0.1994227170944214 0.9958072304725647
0.3489369750022888 -0.2054879367351532 0.9029947519302368
0.35122448205947876 0.07558687031269073 1.0336641073226929
0.3635096549987793 0.041797250509262085 1.067166805267334
0.3632884621620178 0.029894493520259857 1.0572190284729004
0.35631656646728516 0.035563863813877106 1.0510858297348022
0.3729153871536255 -0.32514047622680664 0.9424771070480347
0.38035693764686584 -0.4953001141548157 0.9296320676803589
0.3678925037384033 -0.5656259059906006 0.8559076189994812
0.35303783416748047 0.001880362629890442 1.0028263330459595
0.3582267761230469 -0.029111333191394806 0.9803885221481323
0.37713345885276794 -0.29843568801879883 0.9566476941108704
0.3738144338130951 -0.3064785301685333 0.9468624591827393
0.3735550045967102 -0.35415953397750854 0.9359109997749329
0.3739071786403656 -0.572382926940918 0.8569182753562927
0.3838046193122864 -0.6180976629257202 0.892702579498291
0.3804025650024414 -0.6254783868789673 0.8938441872596741
0.38005557656288147 -0.6160839200019836 0.8762102723121643
0.35683828592300415 -0.0804021805524826 0.9624131321907043
0.3634556829929352 -0.10782917588949203 0.9531742334365845
0.3811359107494354 -0.35376763343811035 0.9335979223251343
0.34535181522369385 -0.11221008002758026 0.9306883811950684
0.3674115538597107 -0.5370588302612305 0.8426386117935181
0.3789622187614441 -0.1441265195608139 1.031720757484436
0.3820403218269348 -0.14286743104457855 1.0299867391586304
0.3794808089733124 -0.1502399444580078 1.0144932270050049
0.3849717974662781 -0.16318853199481964 1.0201753377914429
0.38735297322273254 -0.17729060351848602 1.0195841789245605
0.3684680461883545 -0.14217102527618408 0.9945435523986816
0.377895712852478 -0.14727744460105896 0.9962848424911499
0.38724714517593384 -0.6289604902267456 0.8951427936553955
0.37149593234062195 -0.36982476711273193 0.872105062007904
0.3716098964214325 -0.3838418126106262 0.8754799365997314
0.36675509810447693 -0.3887023329734802 0.8746486306190491
0.3596186935901642 -0.34341961145401 0.8673610687255859
0.38506004214286804 -0.1602189987897873 1.0197057723999023
0.3914527893066406 -0.17272146046161652 1.015750527381897
0.3594766855239868 -0.12630870938301086 0.8937340974807739
0.38971012830734253 -0.14990437030792236 1.0221219062805176
0.38742488622665405 -0.15685951709747314 1.0113589763641357
0.3917253017425537 -0.39624810218811035 0.9421459436416626
0.3525564670562744 -0.11968694627285004 0.8652008771896362
0.34667572379112244 -0.11640791594982147 0.8618758916854858
0.34863632917404175 -0.12638045847415924 0.8455300331115723
0.3509846329689026 -0.14108127355575562 0.8471866846084595
0.3741157650947571 -0.111949622631073 0.9479547739028931
0.38970518112182617 -0.18001584708690643 0.9969024658203125
0.38759592175483704 -0.41517138481140137 0.9211298227310181
0.39070746302604675 -0.4384184181690216 0.9163054823875427
0.36298128962516785 -0.13733205199241638 0.8855438232421875
0.36080026626586914 -0.15106885135173798 0.8806818723678589
0.35706761479377747 -0.13823017477989197 0.8706194758415222
0.3920859694480896 -0.43504953384399414 0.9083317518234253
0.3930075466632843 -0.4131245017051697 0.907476007938385
0.38536715507507324 -0.41752174496650696 0.8926777243614197
0.3893049657344818 -0.3930518925189972 0.8978804349899292
0.3851410448551178 -0.5169926881790161 0.8576357364654541
0.3862505257129669 -0.5230165719985962 0.8637845516204834
0.3731544315814972 -0.14369413256645203 0.9029198884963989
0.38764891028404236 -0.16006189584732056 0.9476343393325806
0.3833141326904297 -0.1862461119890213 0.9348686933517456
0.3869916498661041 -0.17368179559707642 0.9281233549118042
0.3855207860469818 -0.20438191294670105 0.9289095401763916
0.3818463087081909 -0.21376460790634155 0.9160597920417786
0.3995174765586853 -0.437764972448349 0.8903374075889587
0.39598548412323 -0.4271721839904785 0.8898501992225647
0.4012908339500427 -0.4706071615219116 0.8906692266464233
0.39978376030921936 -0.3514866232872009 0.9091863036155701
0.3966001570224762 -0.38639697432518005 0.906428873538971
0.3904017210006714 -0.36034542322158813 0.9071052670478821
0.39859944581985474 -0.3696736693382263 0.8981257081031799
0.4021013081073761 -0.37921833992004395 0.9027795195579529
0.39771658182144165 -0.366394579410553 0.907402515411377
0.3990687429904938 -0.3853943347930908 0.8977487087249756
0.4025901257991791 -0.4831791818141937 0.8823214769363403
0.4032723903656006 -0.4696255326271057 0.8770584464073181
0.34494346380233765 -0.46951818466186523 0.9114149212837219
0.35347047448158264 -0.4867514371871948 0.9018261432647705
0.347746878862381 -0.46196433901786804 0.8926897644996643
0.34800440073013306 -0.48772430419921875 0.8939889669418335
0.3547893464565277 -0.1762671172618866 0.9880859851837158
0.3427576422691345 -0.14338327944278717 0.927946925163269
0.3418148159980774 -0.157062828540802 0.917677104473114
0.3467407822608948 -0.1336393654346466 0.9748013019561768
0.36425167322158813 -0.4556332230567932 0.9153792262077332
0.3607204854488373 -0.4213821589946747 0.8968372941017151
0.34418734908103943 -0.20649591088294983 0.9289592504501343
0.34753161668777466 -0.213460773229599 0.9133383631706238
0.35370588302612305 -0.19212692975997925 0.9739020466804504
0.357059121131897 -0.2154218554496765 0.9644402265548706
0.35885918140411377 -0.4098597764968872 0.9000493288040161
0.3678666353225708 -0.4706687033176422 0.9147468209266663
0.35048601031303406 -0.24418386816978455 0.9124613404273987
0.35200512409210205 -0.28624290227890015 0.9128533601760864
0.3507589101791382 -0.26516208052635193 0.8998653292655945
0.3585500419139862 -0.38672322034835815 0.8982815742492676
0.37236684560775757 -0.5505214929580688 0.8902371525764465
0.3714267909526825 -0.589966356754303 0.8797067999839783
0.367158979177475 -0.5782394409179688 0.8620732426643372
0.3723946213722229 -0.17860321700572968 1.0154086351394653
0.3739300072193146 -0.21435768902301788 0.9959086775779724
0.3684736490249634 -0.25999754667282104 0.9550666809082031
0.3711676001548767 -0.2890223264694214 0.952410876750946
0.3515109717845917 -0.2781292200088501 0.8881412148475647
0.3796899914741516 -0.23232118785381317 0.9977271556854248
0.37140920758247375 -0.2056424468755722 0.9730464220046997
0.3715267777442932 -0.22047346830368042 0.9659438133239746
0.3823181092739105 -0.5165079236030579 0.9179342985153198
0.3795074224472046 -0.5381824970245361 0.9020708799362183
0.3616250157356262 -0.39290106296539307 0.8806619644165039
0.36038604378700256 -0.05659795552492142 1.0006823539733887
0.35884323716163635 -0.04097308591008186 1.0077112913131714
0.3537618815898895 -0.30266425013542175 0.8570758104324341
0.37847551703453064 -0.27612584829330444 0.9501333236694336
0.3826758563518524 -0.29779043793678284 0.9595067501068115
0.38433295488357544 -0.5095834732055664 0.9228086471557617
0.3858822286128998 -0.5102707743644714 0.9170237183570862
0.38428208231925964 -0.5272185802459717 0.9100733995437622
0.3551623225212097 -0.15435698628425598 0.8764824867248535
0.35380318760871887 -0.171314999461174 0.869845986366272
0.3487602174282074 -0.17382319271564484 0.871058464050293
0.34683462977409363 -0.14802463352680206 0.8729995489120483
0.3538236916065216 -0.14462000131607056 0.8700423240661621
0.3453005254268646 -0.14440037310123444 0.853310763835907
0.35403627157211304 -0.19021305441856384 0.8878269791603088
0.33894360065460205 -0.14297297596931458 0.8507246971130371
0.34187883138656616 -0.1528531312942505 0.8371236324310303
0.36959388852119446 -0.12238290160894394 0.9746416211128235
0.373217910528183 -0.13133113086223602 0.9751721024513245
0.3621910810470581 -0.11009813100099564 0.9475589990615845
0.38288480043411255 -0.18337608873844147 1.0075119733810425
0.377149760723114 -0.19284427165985107 0.9945790767669678
0.39012351632118225 -0.4133208394050598 0.957034170627594
0.3898494839668274 -0.40909355878829956 0.9591771364212036
0.3824012279510498 -0.40065997838974 0.9496135115623474
0.34546300768852234 -0.14233183860778809 0.8368206024169922
0.342756450176239 -0.1273072212934494 0.8453749418258667
0.3572503328323364 -0.1920272260904312 0.8843160271644592
0.37311872839927673 -0.44460248947143555 0.8668359518051147
0.3677884042263031 -0.4672570526599884 0.8541511297225952
0.3809390664100647 -0.15449091792106628 0.9942210912704468
0.372294545173645 -0.1054125502705574 0.9800575375556946
0.3861335217952728 -0.4894445836544037 0.9064620137214661
0.3618268370628357 -0.3008596897125244 0.8612972497940063
0.37007632851600647 0.03690203279256821 1.016828179359436
0.36833950877189636 0.020449325442314148 1.0090296268463135
0.3653990626335144 -0.30892080068588257 0.863555908203125
0.3783683180809021 -0.09090669453144073 0.971808910369873
0.378543496131897 -0.11169828474521637 0.9671176075935364
0.3742775619029999 -0.10704610496759415 0.9566925168037415
0.3896983563899994 -0.4377896189689636 0.8887794613838196
0.3745340406894684 -0.12143954634666443 0.9166663289070129
0.3760066628456116 -0.28481894731521606 0.8887863159179688
0.3850418031215668 -0.13043133914470673 0.9593772888183594
0.38698992133140564 -0.15180519223213196 0.9530301094055176
0.38919124007225037 -0.15934833884239197 0.9778532385826111
0.38700467348098755 -0.1677142232656479 0.9573093056678772
0.38114726543426514 -0.11716978996992111 0.9514763951301575
0.37867167592048645 -0.11774308979511261 0.937506914138794
0.4032728970050812 -0.4379414916038513 0.8962880373001099
0.34370705485343933 -0.33922940492630005 0.928095817565918
0.3429611325263977 -0.3404422998428345 0.9236019253730774
0.3481428325176239 -0.35497599840164185 0.927601158618927
0.3416084945201874 -0.3350134491920471 0.9201657772064209
0.3453168570995331 -0.3593125343322754 0.9213852286338806
0.35010406374931335 -0.42560261487960815 0.9163299798965454
0.3589041531085968 -0.4382338523864746 0.9171942472457886
0.35315486788749695 -0.3639887273311615 0.9135463237762451
0.3536313474178314 -0.37052398920059204 0.901519238948822
0.3561033606529236 -0.3996555805206299 0.9090914726257324
0.3545168936252594 -0.4126495122909546 0.9193344116210938
0.3450254499912262 -0.18973314762115479 0.9335410594940186
0.3602028489112854 -0.17795641720294952 1.0003135204315186
0.3587961494922638 -0.15506692230701447 0.9959697723388672
0.35051533579826355 -0.09549340605735779 0.9829326868057251
0.348954975605011 -0.0817580372095108 0.9751943349838257
0.35644257068634033 -0.3491024971008301 0.876461386680603
0.351433664560318 -0.29666227102279663 0.8865004181861877
0.35366979241371155 -0.3168269395828247 0.8510147333145142
0.3502923250198364 -0.31637120246887207 0.8818280696868896
0.3618847727775574 0.02117028832435608 1.0527690649032593
0.3574071228504181 0.0618659183382988 1.0455381870269775
0.35634011030197144 0.043352775275707245 1.0451854467391968
0.35509711503982544 0.04580972343683243 1.0345793962478638
0.35056909918785095 0.03260556608438492 1.0245013236999512
0.3525730073451996 -0.034511566162109375 0.9819608926773071
0.35372284054756165 -0.05737801268696785 0.9714837670326233
0.372524231672287 -0.14905771613121033 1.0270037651062012
0.3807303011417389 -0.4146510660648346 0.9588132500648499
0.3761376440525055 -0.4581831395626068 0.9335939288139343
0.36486756801605225 -0.4839940667152405 0.8393668532371521
0.36010968685150146 -0.4819323420524597 0.8455074429512024
0.3436931073665619 -0.11855794489383698 0.8589345216751099
0.3395841121673584 -0.1272757351398468 0.8499979972839355
0.36838141083717346 -0.038383692502975464 1.0050092935562134
0.3698263168334961 -0.06049276143312454 0.9965741038322449
0.3854537904262543 -0.412993848323822 0.9629744291305542
0.3614345192909241 -0.26001137495040894 0.8853625059127808
0.3673556447029114 -0.27755245566368103 0.884048581123352
0.3816523551940918 -0.2871691584587097 0.9494259357452393
0.38277897238731384 -0.3072008490562439 0.9439229965209961
0.3829915225505829 -0.32800042629241943 0.938029408454895
0.372893363237381 -0.1810537576675415 0.8967719078063965
0.37295427918434143 0.002224251627922058 1.0153982639312744
0.37070345878601074 -0.004431098699569702 0.9992237091064453
0.38703402876853943 -0.5360936522483826 0.8666591644287109
0.3869273066520691 -0.21832644939422607 0.9443545341491699
0.38757145404815674 -0.23443228006362915 0.9283366799354553
0.37894177436828613 -0.18312528729438782 0.9134876728057861
0.3700430989265442 -0.17054659128189087 0.8891761302947998
0.3684331774711609 -0.20358280837535858 0.894866406917572
0.3908262252807617 -0.18132615089416504 0.9485188722610474
0.39046409726142883 -0.18380236625671387 0.9654135704040527
0.38891568779945374 -0.19512000679969788 0.9593839645385742
0.3891432285308838 -0.1965198665857315 0.9407476782798767
0.34970664978027344 -0.1668146252632141 0.9637498259544373
0.34419554471969604 -0.13244089484214783 0.9575148224830627
0.3421068787574768 -0.15148349106311798 0.9613195657730103
0.34198474884033203 -0.15561464428901672 0.9464775323867798
0.35813000798225403 -0.44915974140167236 0.8938851356506348
