0.08036684989929199 -0.18522590398788452 1.4517743587493896
0.10730127990245819 -0.18724647164344788 1.3874660730361938
0.06694933772087097 -0.15503302216529846 1.3862801790237427
0.046901851892471313 -0.0655045211315155 0.33852851390838623
0.04688902199268341 -0.17108367383480072 0.1916038990020752
0.07013627886772156 -0.07600057125091553 0.13721518218517303
0.13187645375728607 0.11944732069969177 1.144225835800171
0.1241711750626564 0.14786314964294434 1.1256970167160034
0.06350718438625336 -0.14886456727981567 0.701795756816864
0.06328463554382324 -0.053856030106544495 0.6155815124511719
0.074260413646698 -0.2284444272518158 1.6676019430160522
0.10835075378417969 -0.22804376482963562 1.624090552330017
0.06394138932228088 -0.1383139193058014 0.5099748373031616
0.09781093895435333 -0.17921710014343262 1.701521873474121
0.11711182445287704 -0.18483346700668335 1.652876615524292
0.06479407846927643 -0.1357411891222 1.1290174722671509
0.07397376000881195 -0.1172415018081665 1.109000563621521
0.06350643932819366 -0.18454043567180634 1.0769152641296387
0.08760025352239609 -0.2568820118904114 1.5589591264724731
0.09826870262622833 -0.18141239881515503 1.4784209728240967
0.08611834049224854 -0.22073695063591003 1.470228672027588
0.16376914083957672 0.11480747908353806 1.1044749021530151
0.06740240007638931 -0.23915469646453857 1.2623562812805176
0.059146516025066376 -0.2917349636554718 1.2104995250701904
0.07803057879209518 -0.1925956904888153 1.2093961238861084
0.11505617201328278 -0.09584976732730865 0.0730447769165039
0.08826258778572083 -0.19472496211528778 0.11421431601047516
0.10774654895067215 -0.19630274176597595 0.0933428555727005
0.13513419032096863 -0.16626153886318207 1.6765483617782593
0.07062473148107529 -0.2636098265647888 1.2622911930084229
0.12379556894302368 -0.06953445076942444 0.373960018157959
0.10254626721143723 -0.11322347819805145 0.4365917146205902
0.12670838832855225 -0.09298111498355865 0.31781673431396484
0.11595088243484497 -0.20577338337898254 1.373512625694275
0.10315002501010895 -0.2010030895471573 1.3753283023834229
0.11693775653839111 -0.17823970317840576 1.3390166759490967
0.1256026327610016 0.0633360892534256 0.8961296677589417
0.1045650839805603 -0.11777542531490326 0.8150363564491272
0.1397629827260971 -0.09511470794677734 0.1828119456768036
0.14444953203201294 -0.12750479578971863 0.19562040269374847
0.12700727581977844 -0.18342572450637817 1.3363878726959229
0.1827206164598465 0.013864772394299507 1.3188550472259521
0.188494473695755 0.04309606924653053 1.3048157691955566
0.039716243743896484 -0.3344014286994934 1.096794843673706
0.16855405271053314 -0.0712977945804596 0.96193528175354
0.17136937379837036 -0.12801405787467957 0.9442455768585205
0.09941168874502182 -0.22202923893928528 1.1534326076507568
0.09791851043701172 -0.3212320804595947 1.0378658771514893
0.09858933091163635 -0.2837321162223816 1.0151493549346924
0.13151861727237701 -0.3502987325191498 1.0969141721725464
-0.23820143938064575 -0.019952349364757538 1.0175755023956299
-0.2722890377044678 -0.07210314273834229 0.9741430282592773
-0.20770782232284546 -0.1265430897474289 1.0857113599777222
-0.23097386956214905 -0.1491224318742752 1.12281334400177
-0.16525398194789886 -0.09871219843626022 1.1173096895217896
-0.14446289837360382 -0.06117285043001175 1.154980182647705
-0.18897457420825958 -0.1575111448764801 0.8456565141677856
-0.08311958611011505 0.11495592445135117 1.1510956287384033
-0.08354976773262024 0.08279316127300262 1.2325488328933716
-0.14180608093738556 -0.2627357542514801 1.0581146478652954
-0.14695501327514648 -0.16217300295829773 0.9405249357223511
-0.14027903974056244 -0.08609779179096222 0.21598991751670837
-0.11793635785579681 -0.13544903695583344 0.2316810041666031
-0.09472492337226868 -0.03386345133185387 0.44715285301208496
-0.1457826793193817 -0.1966375708580017 0.842850923538208
-0.09752283245325089 -0.09015721827745438 0.5880725979804993
-0.10009965300559998 -0.12698137760162354 0.649442195892334
-0.09188378602266312 -0.0648605152964592 0.6561192870140076
-0.1010439544916153 -0.048898808658123016 1.111932396888733
-0.10976463556289673 -0.11650379002094269 1.124805212020874
0.0036032535135746002 0.11709223687648773 1.2979393005371094
-0.10927513241767883 -0.02367367595434189 0.8317924737930298
-0.0743827223777771 -0.14623428881168365 0.24924644827842712
-0.09846538305282593 -0.09000837802886963 1.2165935039520264
-0.08746602386236191 -0.08206680417060852 1.1445178985595703
-0.075751893222332 -0.12627720832824707 0.3931449353694916
-0.05272461473941803 -0.16734598577022552 1.6888452768325806
-0.06084831804037094 -0.19775882363319397 1.6707823276519775
-0.02445593848824501 -0.2312885969877243 1.670048475265503
-0.04599360004067421 -0.26027050614356995 1.6265774965286255
-0.06846560537815094 -0.24199479818344116 1.538987636566162
-0.056010179221630096 -0.10300084948539734 0.28671395778656006
-0.030344320461153984 -0.13869082927703857 0.724523663520813
-0.02586042881011963 -0.1103726327419281 0.21668565273284912
-0.04336891695857048 -0.1401362270116806 0.21924036741256714
-0.05417392775416374 -0.045295216143131256 0.15878631174564362
-0.05567812919616699 0.06496590375900269 0.9729177355766296
-0.004753051325678825 -0.16139326989650726 1.728142499923706
-0.020863916724920273 -0.17184828221797943 1.7149579524993896
0.06963787972927094 0.06534634530544281 1.2605794668197632
-0.011537795886397362 0.06492333859205246 1.2694823741912842
0.05459664762020111 0.041564881801605225 1.305741786956787
0.016399336978793144 -0.10940216481685638 1.2476752996444702
0.07149633020162582 0.11003369092941284 1.318367600440979
0.05721015855669975 0.10100394487380981 1.1709308624267578
0.12250775098800659 0.14001861214637756 1.2515549659729004
0.08923206478357315 -0.05404286831617355 1.6481759548187256
0.08852484077215195 0.09248946607112885 1.171720266342163
0.04242600500583649 -0.21850091218948364 0.8996852040290833
0.018692901358008385 -0.12668469548225403 0.20861712098121643
0.03335731476545334 -0.14704976975917816 0.1502266675233841
0.01977447420358658 -0.1307537704706192 0.6606917381286621
0.043032288551330566 -0.015338203869760036 1.0814945697784424
0.03664354979991913 -0.04981276020407677 0.5210092663764954
0.12580925226211548 0.011244378052651882 1.3497823476791382
0.0737818256020546 -0.23445138335227966 1.3749467134475708
0.11526274681091309 -0.060945652425289154 1.6098953485488892
0.1014140322804451 -0.12002318352460861 1.5610864162445068
0.1034236028790474 -0.09932249039411545 1.5448527336120605
0.09817861020565033 -0.1806783825159073 1.7453033924102783
0.05629047378897667 -0.2544722557067871 1.3153834342956543
0.09885949641466141 -0.033930931240320206 0.4407922625541687
0.06698153913021088 -0.020736146718263626 0.4370923340320587
0.08627371490001678 -0.04891626536846161 0.28319358825683594
0.10773066431283951 -0.05719072371721268 0.25321611762046814
0.11845161020755768 -0.1755405217409134 1.4706566333770752
0.1070890724658966 -0.1851285696029663 1.4770228862762451
0.11917294561862946 -0.17856641113758087 1.462090253829956
0.09687674045562744 -0.05527820438146591 0.7228394150733948
0.09828182309865952 -0.09947696328163147 0.5886285901069641
0.1349988728761673 0.022256452590227127 0.9366262555122375
0.10998256504535675 -0.10353904962539673 1.0873442888259888
0.10138289630413055 -0.15364548563957214 1.0677381753921509
0.1160506159067154 -0.16601112484931946 1.007361650466919
0.135960191488266 -0.15453192591667175 1.5855064392089844
0.13736723363399506 -0.1464717984199524 1.5094596147537231
0.05246654152870178 -0.2760429382324219 1.1966370344161987
0.15750020742416382 -0.07658881694078445 1.5149940252304077
0.1493716984987259 -0.11018775403499603 1.54396653175354
0.13457649946212769 -0.13644535839557648 -0.014137589372694492
0.1417068988084793 -0.2110634446144104 -0.003852652385830879
0.1599690020084381 -0.08543159067630768 1.480713963508606
0.1626201868057251 -0.06594771891832352 1.458777904510498
0.16620054841041565 -0.060984015464782715 1.4297157526016235
0.16770651936531067 -0.043932147324085236 1.4224027395248413
0.03791366517543793 -0.34017494320869446 1.1147186756134033
0.16036370396614075 -0.15755555033683777 0.8186781406402588
0.05785117298364639 -0.3229406177997589 1.1295301914215088
0.049944888800382614 -0.34266984462738037 1.1125240325927734
0.19224396347999573 -0.11490175873041153 0.8279687166213989
0.18888574838638306 -0.09207779169082642 0.8083420991897583
0.20150956511497498 -0.057451002299785614 0.8154985904693604
-0.1919204294681549 -0.15286248922348022 1.1442692279815674
-0.14338427782058716 -0.18412703275680542 1.2254735231399536
-0.14977966248989105 -0.17686006426811218 1.2083172798156738
-0.14034833014011383 -0.17218942940235138 1.2198169231414795
-0.13630783557891846 -0.17594081163406372 1.2373595237731934
-0.20020097494125366 -0.002055622637271881 0.8345593810081482
-0.10813605040311813 -0.14867179095745087 1.2744344472885132
-0.1467743217945099 -0.08918015658855438 1.0740021467208862
-0.06718950718641281 -0.06070087105035782 1.5491888523101807
-0.12853869795799255 -0.1467982977628708 1.1854900121688843
-0.13841375708580017 -0.12452833354473114 1.1411411762237549
-0.05199957266449928 -0.032243821769952774 1.4649834632873535
-0.04461493343114853 -0.025660309940576553 1.4336535930633545
-0.1375584900379181 -0.15505196154117584 1.0217053890228271
-0.10276857018470764 -0.17355851829051971 0.9817155599594116
-0.1094837486743927 -0.04638475924730301 0.7470887899398804
0.005023287609219551 0.082650326192379 1.3511416912078857
-0.0017502401024103165 -0.04522482305765152 1.637091040611267
-0.036789510399103165 -0.02737104892730713 -0.006384728476405144
-0.05019498988986015 -0.014284498989582062 -0.022488338872790337
-0.08362981677055359 0.024526827037334442 0.8545141220092773
-0.007110654376447201 0.09572352468967438 0.8585250377655029
-0.05619756877422333 -0.025149598717689514 0.8298946619033813
0.06031425669789314 -0.004545808769762516 1.3757156133651733
-0.011261692270636559 -0.09613640606403351 0.7567436695098877
-0.004694217815995216 -0.26632481813430786 1.5434187650680542
-0.01164636854082346 0.016552213579416275 0.8748137950897217
-0.006317849270999432 -0.024708660319447517 0.8495849370956421
0.0009723262628540397 -0.11607412993907928 0.8502786755561829
-0.07890628278255463 -0.16667303442955017 0.8571654558181763
-0.005208874121308327 -0.2263316512107849 0.8502295017242432
0.0050361063331365585 -0.10848186910152435 0.8112026453018188
-0.0077894642017781734 -0.16121985018253326 0.8620038032531738
0.04092481732368469 -0.11405257880687714 1.4683268070220947
0.00797947682440281 -0.03539084270596504 0.8358968496322632
0.005305514670908451 -0.04824899137020111 0.8067131042480469
0.06256847083568573 -0.11342302709817886 1.541123390197754
0.06386983394622803 -0.1042003184556961 1.5203232765197754
0.01688493974506855 -0.12323622405529022 0.8294241428375244
0.11660652607679367 0.05769440531730652 0.8235318660736084
0.02417881414294243 -0.09664368629455566 0.2030867040157318
0.02415536530315876 -0.034174785017967224 0.7867559790611267
0.11073439568281174 0.058689016848802567 1.2813235521316528
0.060293249785900116 -0.11989474296569824 0.3305872976779938
0.0537961907684803 -0.10741767287254333 0.2657788395881653
0.07005582004785538 -0.1283855140209198 0.2828725278377533
0.05898569896817207 -0.1739174723625183 0.2331252247095108
0.13931477069854736 -0.05939715355634689 1.495125651359558
0.0601084902882576 -0.016271399334073067 0.8223068118095398
0.08110272884368896 -0.036260027438402176 0.7920939922332764
0.0811246782541275 -0.1634230613708496 1.2203161716461182
0.09133514016866684 -0.12862887978553772 0.3802139461040497
0.13796724379062653 -0.10082611441612244 1.5800952911376953
0.0788600891828537 -0.15293815732002258 1.2761776447296143
0.10024766623973846 -0.13112689554691315 0.28251978754997253
0.1373714804649353 0.11078914999961853 1.2926812171936035
0.08799899369478226 -0.12640486657619476 1.2040514945983887
0.11201159656047821 -0.07930667698383331 0.13797175884246826
0.16978086531162262 0.12487278878688812 1.2220911979675293
0.0960613563656807 -0.06068167835474014 0.18139538168907166
0.09923570603132248 -0.1843532770872116 0.20347367227077484
0.16668793559074402 -0.0032352798152714968 1.358689308166504
0.12598508596420288 -0.19083422422409058 1.410169005393982
0.1270630657672882 -0.18630671501159668 1.3813315629959106
0.12611731886863708 -0.1893978714942932 1.409820318222046
0.13867343962192535 -0.1542869508266449 1.3571537733078003
0.06424817442893982 -0.29853692650794983 1.1754257678985596
0.04648589342832565 -0.30735185742378235 1.1703585386276245
0.17969410121440887 0.0369061604142189 1.2864899635314941
0.19524863362312317 0.07776709645986557 1.243518590927124
0.18697625398635864 0.07942221313714981 1.215093731880188
0.09286339581012726 -0.2342931032180786 1.214920997619629
0.07730713486671448 -0.26835131645202637 1.231126070022583
0.14825983345508575 -0.181447833776474 0.8350273370742798
0.08616120368242264 -0.2855633795261383 1.2380483150482178
0.07637263834476471 -0.3202893137931824 1.1360098123550415
0.07548795640468597 -0.2593459486961365 1.112403154373169
0.07052203267812729 -0.3018730878829956 1.104247808456421
0.1465967893600464 -0.3272877335548401 1.126645803451538
0.13230645656585693 -0.30386024713516235 0.9954020380973816
0.1297343373298645 -0.3524402678012848 1.049286961555481
-0.1446521282196045 -0.2632230222225189 1.0966812372207642
-0.13324381411075592 -0.21423625946044922 1.164655327796936
-0.13968612253665924 -0.20894566178321838 1.1851613521575928
-0.13221748173236847 -0.2507995069026947 1.1051859855651855
-0.06533417850732803 -0.03697417676448822 1.4912793636322021
-0.07248937338590622 -0.04376160353422165 1.4743053913116455
-0.07609834522008896 -0.018426083028316498 1.4434318542480469
-0.07732803374528885 -0.16255013644695282 1.6570165157318115
-0.09043888747692108 -0.1846776157617569 1.573329210281372
-0.11415310204029083 -0.10253739356994629 0.27740755677223206
-0.12282418459653854 -0.07650817930698395 0.8246562480926514
-0.11802592873573303 -0.10424980521202087 0.8059473633766174
-0.0691545158624649 0.13338753581047058 1.13392972946167
-0.08856232464313507 -0.19633951783180237 1.2197271585464478
-0.10589072853326797 -0.040119461715221405 0.799983024597168
-0.029937326908111572 -0.18240296840667725 1.6943148374557495
-0.10267902910709381 -0.1596745252609253 1.1149719953536987
-0.07160568982362747 -0.21583223342895508 1.0924150943756104
-0.014042728580534458 0.09440423548221588 1.2143542766571045
0.054002709686756134 0.09191960841417313 1.2043004035949707
-0.06303618848323822 -0.07183364033699036 1.1637578010559082
-0.044065527617931366 -0.1168329119682312 0.8458702564239502
-0.06205691397190094 -0.20721367001533508 1.0339884757995605
-0.05134377256035805 -0.0051057953387498856 1.0705318450927734
0.0123814158141613 -0.26693013310432434 1.6322370767593384
-0.0048293909057974815 -0.10191942751407623 0.7380567789077759
0.007577292621135712 0.010586815886199474 1.357608437538147
0.038984932005405426 -0.20899659395217896 -0.040411584079265594
0.15174169838428497 0.15078377723693848 1.1751632690429688
0.11824167519807816 0.09107226878404617 1.215290904045105
0.10455534607172012 0.16165679693222046 1.1938138008117676
0.08871491253376007 0.08692426979541779 0.8444259762763977
0.11109957844018936 -0.08958473801612854 -0.03498241305351257
0.09991410374641418 -0.03851591795682907 0.8104404211044312
0.0947861522436142 -0.12508486211299896 0.3350030779838562
0.10734212398529053 -0.23553842306137085 1.3519892692565918
0.07992631942033768 -0.26142770051956177 1.2809745073318481
0.1862415373325348 -0.002612766809761524 0.8121997714042664
0.20245014131069183 -0.05494650825858116 0.8781528472900391
0.13254152238368988 -0.3336743116378784 1.0106604099273682
-0.24151146411895752 -0.14502768218517303 1.0860116481781006
-0.20693454146385193 -0.0852682814002037 0.8956424593925476
-0.2147846817970276 -0.07832887768745422 0.8370190858840942
-0.07903578132390976 -0.03136144578456879 1.435260534286499
-0.07759757339954376 0.024172106757760048 1.3315033912658691
-0.08103332668542862 -0.12996724247932434 1.511094093322754
-0.14323437213897705 -0.07287245243787766 1.0397299528121948
-0.1471722573041916 -0.11066657304763794 1.0761899948120117
-0.07994406670331955 -0.1271638721227646 1.5122721195220947
-0.08172514289617538 -0.1384582668542862 1.4965729713439941
-0.08232560008764267 -0.13268297910690308 1.5064269304275513
-0.08243172615766525 -0.13589945435523987 1.5080983638763428
-0.08825203031301498 -0.14686232805252075 1.4948443174362183
-0.08834623545408249 -0.1376103013753891 0.11479353159666061
-0.08514907956123352 -0.22446539998054504 1.6130387783050537
-0.028839386999607086 -0.08177238702774048 1.2172049283981323
-0.03361976891756058 -0.15270981192588806 0.02677324414253235
-0.03776472061872482 -0.10009286552667618 1.2519867420196533
-0.006842895410954952 -0.07830256223678589 1.1716499328613281
-0.04361993446946144 0.09432031214237213 0.9305192232131958
0.026825405657291412 -0.1922149658203125 1.7014884948730469
-0.013175147585570812 -0.09305739402770996 0.6859092712402344
0.02847679704427719 0.02212100476026535 1.3284260034561157
0.002791600301861763 -0.19929061830043793 0.990666389465332
-0.042185716331005096 -0.24648627638816833 1.1798251867294312
0.0621921569108963 0.07224646955728531 1.2348058223724365
0.041926365345716476 -0.10360229760408401 0.13180425763130188
0.06520518660545349 -0.18444567918777466 0.9771032333374023
0.12369516491889954 -0.17742371559143066 0.9445040225982666
0.11719304323196411 -0.08952490985393524 1.5171477794647217
0.0463988222181797 -0.2154826819896698 1.1329624652862549
0.031588271260261536 -0.08552888035774231 1.1650900840759277
0.094161257147789 -0.05760850012302399 1.0886106491088867
0.08988693356513977 0.05674969404935837 0.9486836194992065
0.1073450893163681 -0.2987845838069916 -0.04088985547423363
0.08274970203638077 -0.2807750701904297 -0.05671794340014458
0.13686898350715637 -0.26817330718040466 -0.04964251071214676
0.11977090686559677 -0.1760425865650177 0.18056361377239227
0.12270602583885193 -0.18888190388679504 1.4082396030426025
0.1251472532749176 -0.189022958278656 1.4083976745605469
0.07887476682662964 -0.2165897786617279 1.289313793182373
0.07797817885875702 -0.2506650984287262 1.2706794738769531
0.19668304920196533 0.11263340711593628 1.16493558883667
0.18872806429862976 0.10491526871919632 1.1224092245101929
0.19816820323467255 0.1095244437456131 1.1206339597702026
0.14142027497291565 -0.29427462816238403 0.9970423579216003
0.1392294019460678 -0.3492603600025177 0.9901377558708191
0.14980614185333252 -0.3685557246208191 0.9826065301895142
-0.20395618677139282 -0.06119660288095474 1.0402348041534424
-0.14877401292324066 -0.23827838897705078 1.1427128314971924
-0.0855754017829895 -0.1077699363231659 0.31108951568603516
-0.037220701575279236 0.12640812993049622 1.1081600189208984
-0.11424810439348221 -0.16479456424713135 1.0611375570297241
-0.028463780879974365 -0.04510386288166046 0.8387815356254578
-0.040319718420505524 -0.03985359147191048 0.7950184941291809
-0.03166419267654419 -0.09279375523328781 0.8036961555480957
-0.0031843306496739388 -0.02517266944050789 1.116933822631836
0.023214440792798996 -0.20893797278404236 0.8350885510444641
0.08473922312259674 0.015041838400065899 0.8408298492431641
0.12997037172317505 0.09707463532686234 1.1863057613372803
0.13622623682022095 -0.1276444047689438 1.5176151990890503
0.14469780027866364 -0.10221734642982483 1.5034091472625732
0.1890013962984085 -0.12377709895372391 0.8813062310218811
-0.1529942899942398 -0.23952296376228333 1.109965205192566
-0.07384482771158218 -0.08926258981227875 1.554548740386963
-0.00972067192196846 0.12655438482761383 1.147723913192749
-0.050616513937711716 -0.07074609398841858 1.5878568887710571
-0.031112059950828552 -0.09976791590452194 1.566292405128479
-0.0038478663191199303 -0.10552752017974854 1.5423787832260132
0.02403753437101841 -0.21421337127685547 1.0402617454528809
0.03868735209107399 -0.23410619795322418 1.22065269947052
0.05198077857494354 -0.19209885597229004 0.11029446125030518
0.07535693794488907 -0.20384417474269867 1.1816647052764893
0.08529653400182724 -0.16778314113616943 1.1380689144134521
0.15293240547180176 -0.04611032456159592 1.4354524612426758
0.14472493529319763 -0.020144468173384666 1.4563151597976685
0.09304860234260559 -0.12737955152988434 1.1578304767608643
0.100111223757267 -0.07587260007858276 0.7993608713150024
0.039060819894075394 -0.2893114387989044 1.1996804475784302
0.17164959013462067 0.004140288103371859 1.3801689147949219
-0.0617886483669281 0.003751881420612335 1.3978557586669922
-0.08165592700242996 -0.03168339282274246 0.32108595967292786
0.008043053559958935 -0.10239157825708389 0.6932473182678223
0.06133738532662392 -0.26690244674682617 1.6117680072784424
-0.07799699902534485 0.11539731174707413 1.1909383535385132
-0.13054746389389038 -0.17857526242733002 1.2420263290405273
-0.04206540435552597 -0.07019957154989243 0.35783225297927856
0.06902498006820679 0.00019833818078041077 1.4995371103286743
0.05878646671772003 -0.28036224842071533 -0.04006551578640938
0.1207636147737503 -0.17829960584640503 1.4624207019805908
0.11962133646011353 -0.1780472844839096 1.461066484451294
0.10852961242198944 -0.1895008087158203 1.3728740215301514
0.1134495884180069 -0.17109103500843048 0.1445084810256958
0.12936413288116455 -0.13692021369934082 0.12184863537549973
0.08870589733123779 -0.31655681133270264 1.1811306476593018
-0.17782706022262573 -0.15814736485481262 0.906362771987915
-0.06890930235385895 -0.014306135475635529 1.418403148651123
-0.06724748015403748 -0.016500381752848625 1.41974937915802
-0.07270203530788422 -0.018800558522343636 1.4188485145568848
-0.03543172776699066 -0.08745044469833374 0.15158772468566895
-0.027708884328603745 -0.09900250285863876 0.8440052270889282
0.029861634597182274 -0.15536300837993622 0.09870301187038422
0.10594740509986877 -0.3376314043998718 1.135460615158081
0.11796876788139343 -0.2181704044342041 1.5782904624938965
0.11108572781085968 -0.10154405236244202 0.7493504285812378
0.16691680252552032 -0.039094798266887665 1.4068939685821533
0.16952186822891235 -0.01487496867775917 1.3843965530395508
0.04116632416844368 -0.1215319111943245 -0.04365510493516922
0.05876374617218971 -0.6548629999160767 1.0224615335464478
0.05810866877436638 -0.6284376382827759 1.0007433891296387
0.05567525327205658 -0.6385321021080017 1.0034503936767578
0.05095436051487923 -0.6348950862884521 1.0106762647628784
0.05177099257707596 -0.6541986465454102 1.0129302740097046
0.05696290358901024 -0.6477258205413818 1.0250777006149292
0.09297087043523788 -0.5249816179275513 0.9987462162971497
0.07935773581266403 -0.5291911363601685 0.9944917559623718
0.08576181530952454 -0.5467115044593811 1.002233624458313
0.08431513607501984 -0.554449200630188 1.0054770708084106
0.10736816376447678 -0.3931671679019928 0.9315667152404785
0.10562562942504883 -0.40395742654800415 0.9476892352104187
0.10511840134859085 -0.4039550721645355 0.9254873394966125
0.07501401007175446 -0.5411681532859802 0.9649032354354858
0.07603028416633606 -0.5533151626586914 0.9776174426078796
0.08756417036056519 -0.574639081954956 1.0251266956329346
0.08548138290643692 -0.5645485520362854 1.014102816581726
0.09558285027742386 -0.43322721123695374 0.9121115207672119
0.09551630914211273 -0.4403107464313507 0.932862401008606
0.11240752786397934 -0.4704565703868866 0.9925262331962585
0.1079026609659195 -0.4637303352355957 0.9867731332778931
0.07324721664190292 -0.6340735554695129 1.0331045389175415
0.06301925331354141 -0.6195300817489624 0.9934293627738953
0.10963650047779083 -0.4022527039051056 0.9162059426307678
0.10308121144771576 -0.40810221433639526 0.9134045839309692
0.17384082078933716 -0.2459154725074768 0.979335367679596
0.16969816386699677 -0.25517934560775757 0.9783958196640015
0.16899865865707397 -0.2448035329580307 0.9601642489433289
0.07876908034086227 -0.5952603816986084 1.0198417901992798
0.07658516615629196 -0.6148515939712524 1.0250005722045898
0.10851903259754181 -0.4056972563266754 0.9108397960662842
0.10610229521989822 -0.4050949215888977 0.901620090007782
0.04654230922460556 -0.6718272566795349 0.9786255955696106
0.04602643847465515 -0.6824975609779358 0.9859898686408997
0.18115189671516418 -0.2331884801387787 0.972355842590332
0.17786888778209686 -0.24508634209632874 0.9836777448654175
0.17558148503303528 -0.23458664119243622 0.9670537710189819
0.17327651381492615 -0.24151946604251862 0.958223283290863
0.0479571707546711 -0.7097181081771851 1.0338428020477295
0.049109961837530136 -0.7254217863082886 1.0446500778198242
0.042739324271678925 -0.7263562083244324 1.027152180671692
0.08816036581993103 -0.4945423901081085 0.9397103786468506
0.08980484306812286 -0.509831964969635 0.9412522912025452
0.07790727913379669 -0.524783730506897 0.9369660019874573
0.08414538204669952 -0.5228460431098938 0.9338973760604858
0.18025155365467072 -0.24906505644321442 0.9878735542297363
0.17776882648468018 -0.23274648189544678 0.9627000093460083
0.08895743638277054 -0.5925738215446472 1.0338222980499268
0.0967908427119255 -0.5921763181686401 1.0345960855484009
0.08444628864526749 -0.6052898168563843 1.0355881452560425
0.08515811711549759 -0.6210194230079651 1.0397180318832397
0.09674127399921417 -0.4615460932254791 0.9269322752952576
0.09456783533096313 -0.47407811880111694 0.9244433045387268
0.09193360805511475 -0.4764810800552368 0.9293490648269653
0.1822105050086975 -0.2361166775226593 0.9672845602035522
0.18249474465847015 -0.2504226863384247 0.9856343865394592
0.1754552721977234 -0.2468721717596054 0.9606278538703918
0.10685234516859055 -0.3818749189376831 0.8728333115577698
0.10562160611152649 -0.38709235191345215 0.8672051429748535
0.10708822309970856 -0.3967982828617096 0.8892838954925537
0.1086345911026001 -0.39360272884368896 0.8797158002853394
0.10344919562339783 -0.3882439136505127 0.8768725991249084
0.07858020067214966 -0.5448540449142456 0.930137038230896
0.078780397772789 -0.5313909649848938 0.9268841743469238
0.0761786475777626 -0.5360304117202759 0.9163191318511963
0.0722336694598198 -0.5402094125747681 0.9163504242897034
0.17964661121368408 -0.2498287558555603 0.9690305590629578
0.05525264889001846 -0.7329366207122803 1.049683690071106
0.050502412021160126 -0.7296150922775269 1.0328480005264282
0.05359411984682083 -0.7392759323120117 1.0460916757583618
0.05107755959033966 -0.7412900924682617 1.0497465133666992
0.04680056869983673 -0.7237305641174316 1.0208584070205688
0.1293954700231552 -0.3964139223098755 0.925373911857605
0.1156408041715622 -0.40592217445373535 0.913663923740387
0.05407688766717911 -0.6578637957572937 0.9704674482345581
0.04995850473642349 -0.6798795461654663 0.9787915349006653
0.04886950924992561 -0.6951042413711548 0.9928998351097107
0.12583881616592407 -0.4633374810218811 0.9891198873519897
0.11972464621067047 -0.4790060520172119 0.9912718534469604
0.12112774699926376 -0.48828309774398804 0.9878689646720886
0.10127439349889755 -0.5877792835235596 1.0355720520019531
0.09446348994970322 -0.5957134962081909 1.0288043022155762
0.08412335813045502 -0.6370100975036621 1.0384728908538818
0.0946781113743782 -0.5661240220069885 1.020589828491211
0.07313278317451477 -0.6374963521957397 0.9843636155128479
0.06112153083086014 -0.6649169921875 0.9862604141235352
0.12724095582962036 -0.46298450231552124 0.9846497178077698
0.10039974004030228 -0.5752899646759033 1.0058478116989136
0.10483767092227936 -0.5609806180000305 0.9978736042976379
0.09856446087360382 -0.5874507427215576 1.0100916624069214
0.060310740023851395 -0.704797089099884 1.022331714630127
0.06056977063417435 -0.6955528855323792 1.0125142335891724
0.08366109430789948 -0.5635539889335632 0.9586283564567566
0.09260611981153488 -0.5661202073097229 0.9709417819976807
0.08497176319360733 -0.5812097787857056 0.976199746131897
0.09159363061189651 -0.5830256938934326 0.9841933846473694
0.11146840453147888 -0.5203392505645752 0.990626335144043
0.10116572678089142 -0.54823899269104 0.9971855282783508
0.08553136885166168 -0.6348755359649658 1.0192896127700806
0.07942941039800644 -0.6538416147232056 1.016330361366272
0.0752916932106018 -0.6580442190170288 1.023287057876587
0.08266374468803406 -0.6277689337730408 0.9954919219017029
0.08118875324726105 -0.6349329948425293 0.9919307231903076
0.10031411051750183 -0.5350712537765503 0.9595254063606262
0.09505320340394974 -0.5488207936286926 0.9609037041664124
0.09660158306360245 -0.525384247303009 0.9456943273544312
0.09402164816856384 -0.5436123013496399 0.9530215263366699
0.0905713215470314 -0.555288553237915 0.9624918699264526
0.10497835278511047 -0.5179698467254639 0.9667285084724426
0.11354087293148041 -0.506272554397583 0.9690918326377869
0.10378298163414001 -0.49740245938301086 0.9451348781585693
0.10924714803695679 -0.506685733795166 0.9590717554092407
0.07591230422258377 -0.6423473358154297 0.9981155395507812
0.07553812861442566 -0.6589816808700562 1.00385320186615
0.07234231382608414 -0.6512240171432495 0.9989126324653625
0.08174430578947067 -0.6530849933624268 1.0004034042358398
0.13714265823364258 -0.4110131561756134 0.9378542900085449
0.05834192782640457 -0.6135241985321045 1.0170433521270752
0.051780808717012405 -0.6238225698471069 1.0098779201507568
0.07349149882793427 -0.5616648197174072 1.0008105039596558
0.07215693593025208 -0.5599024295806885 0.9961298108100891
0.06764773279428482 -0.5725454092025757 1.006621241569519
0.06878897547721863 -0.5640655755996704 0.9947768449783325
0.06814360618591309 -0.5753408670425415 1.0028413534164429
0.0817650705575943 -0.534740686416626 0.9794533252716064
0.07617484033107758 -0.542229175567627 0.9799719452857971
0.08429756760597229 -0.5162955522537231 0.9753429889678955
0.07477152347564697 -0.5734552145004272 1.0090631246566772
0.05542251840233803 -0.6394634246826172 0.9825422763824463
0.050352245569229126 -0.6511651277542114 1.0077452659606934
0.07293447852134705 -0.5625454187393188 0.975655734539032
0.049070581793785095 -0.669478178024292 1.0170719623565674
0.045983634889125824 -0.6875174045562744 1.0166115760803223
0.04664149880409241 -0.6746869683265686 1.008899450302124
0.044391945004463196 -0.7005910873413086 1.0271414518356323
0.12039560824632645 -0.3873230218887329 0.9473239779472351
0.12967492640018463 -0.42854446172714233 1.0107522010803223
0.1256619095802307 -0.43443772196769714 1.0047849416732788
0.1303045153617859 -0.43764036893844604 1.0096213817596436
0.0977640450000763 -0.4569372236728668 0.9339686632156372
0.16411319375038147 -0.24913103878498077 0.9517065286636353
0.1756775826215744 -0.26514625549316406 0.9908140301704407
0.1703159064054489 -0.2742844820022583 0.985913872718811
0.16520482301712036 -0.2717522382736206 0.9784430265426636
0.10126117616891861 -0.5318096876144409 1.004774808883667
0.07377760112285614 -0.647132396697998 1.0469170808792114
0.042873725295066833 -0.7059162855148315 1.0077061653137207
0.14835196733474731 -0.30286943912506104 0.9503887295722961
0.14495989680290222 -0.32863107323646545 0.9425686597824097
0.10899163782596588 -0.5122683048248291 1.0087730884552002
0.10179834812879562 -0.5180529356002808 1.0034139156341553
0.09421108663082123 -0.5515914559364319 1.0089703798294067
0.046503227204084396 -0.7116677761077881 1.0094451904296875
0.050849881023168564 -0.7356244921684265 1.0538690090179443
0.04854517802596092 -0.741144061088562 1.0573681592941284
0.04406794533133507 -0.7370328903198242 1.0403485298156738
0.1308896392583847 -0.367349773645401 0.9446948766708374
0.13068492710590363 -0.3848777413368225 0.9463012218475342
0.10017137974500656 -0.5532207489013672 1.0072417259216309
0.1144259050488472 -0.3908991515636444 0.9289584755897522
0.04645722359418869 -0.691380500793457 0.9866476058959961
0.15087714791297913 -0.3960739076137543 1.0227577686309814
0.1518886834383011 -0.3959880471229553 1.0200525522232056
0.14543873071670532 -0.40407446026802063 1.0098412036895752
0.14853306114673615 -0.41076114773750305 1.0189553499221802
0.14583975076675415 -0.4216892123222351 1.0227446556091309
0.13383392989635468 -0.4032878279685974 0.9907432794570923
0.14270132780075073 -0.4055555462837219 0.9943234920501709
0.04988904297351837 -0.7435669898986816 1.0595333576202393
0.077203169465065 -0.5736225247383118 0.9623260498046875
0.07748542726039886 -0.5844547748565674 0.9693005084991455
0.07349631190299988 -0.5859552621841431 0.9703295230865479
0.07724643498659134 -0.5580663681030273 0.950014591217041
0.1508512645959854 -0.40980246663093567 1.0170631408691406
0.15014860033988953 -0.4207462668418884 1.0196454524993896
0.11245037615299225 -0.40938040614128113 0.902926504611969
0.15355713665485382 -0.4030151963233948 1.0167715549468994
0.14945104718208313 -0.4077989161014557 1.00967538356781
0.09860525280237198 -0.5786836743354797 1.026589035987854
0.10628654807806015 -0.41190940141677856 0.8789554834365845
0.10310180485248566 -0.40972277522087097 0.8731786608695984
0.09667474776506424 -0.41844257712364197 0.8652007579803467
0.09739264845848083 -0.42770302295684814 0.8707593679428101
0.13894404470920563 -0.3940604031085968 0.9440959095954895
0.1437048614025116 -0.42931097745895386 1.0056670904159546
0.0908784493803978 -0.5981410145759583 1.016575574874878
0.08846177905797958 -0.6149970293045044 1.0214018821716309
0.11242890357971191 -0.4202718138694763 0.9016648530960083
0.11107373982667923 -0.4294118583202362 0.9010536670684814
0.10731822997331619 -0.4232194423675537 0.8890610337257385
0.08942511677742004 -0.6146203875541687 1.0136514902114868
0.09121683984994888 -0.5994445085525513 1.0052311420440674
0.08722733706235886 -0.6047148108482361 0.9930325150489807
0.09292102605104446 -0.5898926854133606 0.9908865094184875
0.06163439154624939 -0.6776689291000366 0.9965537786483765
0.0642215833067894 -0.680391252040863 1.0023045539855957
0.12346777319908142 -0.4214162528514862 0.9168012738227844
0.13663306832313538 -0.4261181950569153 0.9595054388046265
0.12978026270866394 -0.4464573264122009 0.9572466015815735
0.1319529414176941 -0.43744194507598877 0.9487254619598389
0.12483459711074829 -0.4584130644798279 0.9595796465873718
0.1188269704580307 -0.46542832255363464 0.9523019790649414
0.09063383936882019 -0.6207543015480042 0.99855637550354
0.0911378562450409 -0.6116116046905518 0.996302604675293
0.08616214245557785 -0.6430572271347046 1.0101327896118164
0.11060836911201477 -0.5608203411102295 0.9874569773674011
0.10251925885677338 -0.5843979120254517 0.9969533085823059
0.10312405973672867 -0.5653635263442993 0.9893340468406677
0.10068028420209885 -0.5738787055015564 0.9853437542915344
0.10359589755535126 -0.5810836553573608 0.991513192653656
0.10183540731668472 -0.5695232152938843 0.9917351007461548
0.10023178160190582 -0.5856424570083618 0.9904594421386719
0.08653682470321655 -0.6538710594177246 1.0086435079574585
0.08625368773937225 -0.6465928554534912 0.9993521571159363
0.05554136633872986 -0.628346860408783 1.021186351776123
0.051078300923109055 -0.6431422829627991 1.021382212638855
0.05282079055905342 -0.6269186735153198 1.0054190158843994
0.052224740386009216 -0.6441829204559326 1.013394832611084
0.11848150193691254 -0.42350780963897705 0.9951953291893005
0.1044248715043068 -0.410555899143219 0.936301589012146
0.10016219317913055 -0.42172184586524963 0.9318938851356506
0.11781655251979828 -0.3977537453174591 0.9711677432060242
0.07011107355356216 -0.621181845664978 1.0215116739273071
0.06675921380519867 -0.6030980348587036 0.9977030158042908
0.0972016230225563 -0.45388245582580566 0.9565746784210205
0.09499626606702805 -0.4603163003921509 0.9460713267326355
0.11359063535928726 -0.4363860487937927 0.9893103837966919
0.1118607297539711 -0.45225149393081665 0.9885762929916382
0.06966052204370499 -0.5949000716209412 0.9961987137794495
0.06919451802968979 -0.6317163705825806 1.0261249542236328
0.0952569991350174 -0.4809896647930145 0.9555797576904297
0.08695019036531448 -0.5081740617752075 0.9676946401596069
0.08614739775657654 -0.49877649545669556 0.9508571028709412
0.07155536115169525 -0.5779699087142944 0.9878025054931641
0.05523155629634857 -0.690436601638794 1.030063271522522
0.04773678630590439 -0.7170614004135132 1.0341615676879883
0.04558200389146805 -0.7145558595657349 1.0186232328414917
0.1366291344165802 -0.4201135039329529 1.0195261240005493
0.1271931529045105 -0.4486601948738098 1.0138827562332153
0.10985909402370453 -0.4850146472454071 0.9956440329551697
0.10718115419149399 -0.5053817629814148 1.0024232864379883
0.08406122028827667 -0.5097877979278564 0.9464951753616333
0.1289076954126358 -0.46025872230529785 1.0220669507980347
0.12182456254959106 -0.44588807225227356 0.992996096611023
0.12056966871023178 -0.4592103958129883 0.9918692111968994
0.07105359435081482 -0.6627057790756226 1.044055461883545
0.06127912178635597 -0.6813904643058777 1.0368473529815674
0.06932922452688217 -0.5876483917236328 0.9749245047569275
0.14523190259933472 -0.34286677837371826 0.9681125283241272
0.1473156064748764 -0.329825758934021 0.9687014222145081
0.07378251105546951 -0.5314021110534668 0.9287158250808716
0.11240313947200775 -0.4995137155056 0.997818112373352
0.11438921093940735 -0.5127280354499817 1.0109751224517822
0.07492643594741821 -0.65755695104599 1.046278715133667
0.07489495724439621 -0.6611899137496948 1.0428955554962158
0.06880385428667068 -0.6731334924697876 1.0407902002334595
0.10217130184173584 -0.43281567096710205 0.8993635177612305
0.099310502409935 -0.44467049837112427 0.897912859916687
0.09512237459421158 -0.44524410367012024 0.8991690278053284
0.09704694896936417 -0.4270263910293579 0.8933391571044922
0.10147104412317276 -0.4268852472305298 0.8897027969360352
0.09586543589830399 -0.4276147484779358 0.875619649887085
0.09675616025924683 -0.4531136155128479 0.9188608527183533
0.09162523597478867 -0.4268103539943695 0.8727471828460693
0.08930592238903046 -0.4355088472366333 0.864882230758667
0.13623493909835815 -0.3923431634902954 0.9691909551620483
0.13899025321006775 -0.3987196981906891 0.9712311029434204
0.12567941844463348 -0.3896535634994507 0.9419505596160889
0.1389419585466385 -0.427521288394928 1.0136523246765137
0.13433223962783813 -0.435238242149353 1.0078333616256714
0.09894078969955444 -0.5895879864692688 1.0464292764663696
0.0988243818283081 -0.5854154825210571 1.0465034246444702
0.0967472493648529 -0.5802719593048096 1.034961462020874
0.09618616849184036 -0.4317459464073181 0.862810492515564
0.09138233959674835 -0.4186077415943146 0.8635545969009399
0.10096307843923569 -0.45447978377342224 0.9154629111289978
0.06641070544719696 -0.6253010034561157 0.9792881011962891
0.058246903121471405 -0.6420313119888306 0.975956380367279
0.1453607678413391 -0.41132304072380066 0.9943312406539917
0.14133600890636444 -0.38028717041015625 0.968169093132019
0.0783722847700119 -0.6510939598083496 1.027841329574585
0.08052298426628113 -0.5316262245178223 0.9318245053291321
0.17026293277740479 -0.2793480455875397 0.9511618614196777
0.16589337587356567 -0.29145896434783936 0.9502882957458496
0.08527078479528427 -0.5373474955558777 0.9366933107376099
0.14685779809951782 -0.37377986311912537 0.956264078617096
0.14179131388664246 -0.38908621668815613 0.9600656628608704
0.13904979825019836 -0.38711634278297424 0.949413537979126
0.08547637611627579 -0.6179888248443604 0.9964808821678162
0.12783648073673248 -0.4040656089782715 0.9217360019683838
0.09822683036327362 -0.5182726979255676 0.95079505443573
0.14429742097854614 -0.4038546085357666 0.9602025747299194
0.13949085772037506 -0.41768714785575867 0.9611729383468628
0.14387251436710358 -0.4182502031326294 0.9838027954101562
0.13757263123989105 -0.4288299083709717 0.970297634601593
0.14189468324184418 -0.39550602436065674 0.9490376114845276
0.13561885058879852 -0.3967626690864563 0.9366493821144104
0.09372714906930923 -0.6192263960838318 1.004205346107483
0.0751432254910469 -0.5404830574989319 0.9974520206451416
0.07279038429260254 -0.5407707095146179 0.994031548500061
0.07743465900421143 -0.5512654185295105 1.0014641284942627
0.07310661673545837 -0.5388098359107971 0.9881110787391663
0.06870105862617493 -0.5526494383811951 0.9967749714851379
0.06624160706996918 -0.6001126766204834 1.0145268440246582
0.06734073162078857 -0.6078847646713257 1.019358515739441
0.07484332472085953 -0.559326708316803 0.991974413394928
0.0710570365190506 -0.5680907368659973 0.9851503372192383
0.06853997707366943 -0.5854285955429077 1.0007970333099365
0.07037464529275894 -0.5895906090736389 1.0116310119628906
0.10065142810344696 -0.4411776065826416 0.9548261165618896
0.12501345574855804 -0.4225292503833771 1.006613850593567
0.1291496902704239 -0.4080369770526886 0.9949714541435242
0.12905457615852356 -0.3699665665626526 0.9651796221733093
0.1268078088760376 -0.3638753294944763 0.956269383430481
0.07531216740608215 -0.5583718419075012 0.9577993750572205
0.08059141039848328 -0.5216889381408691 0.9507115483283997
0.07272113114595413 -0.5414022207260132 0.9268970489501953
0.07591213285923004 -0.5353132486343384 0.9527954459190369
0.1690676510334015 -0.28192007541656494 0.9855949878692627
0.1703028827905655 -0.25674331188201904 0.9660091400146484
0.16534018516540527 -0.26803189516067505 0.9707799553871155
0.16450567543506622 -0.26906877756118774 0.9619209170341492
0.15591709315776825 -0.2779787480831146 0.957939088344574
0.141096293926239 -0.3314480185508728 0.9454712867736816
0.13575948774814606 -0.3476731479167938 0.9451431632041931
0.14457948505878448 -0.399162620306015 1.01960289478302
0.09361150860786438 -0.5896076560020447 1.0459518432617188
0.0778115764260292 -0.6225512027740479 1.0384950637817383
0.04964759945869446 -0.6557813882827759 0.9699099659919739
0.05174095183610916 -0.6525728702545166 0.9732251763343811
0.09814891964197159 -0.4097425639629364 0.8727202415466309
0.09151290357112885 -0.41827747225761414 0.8670594692230225
0.1547810584306717 -0.33250632882118225 0.9665842056274414
0.14896424114704132 -0.346231609582901 0.966346025466919
0.09559991955757141 -0.5863191485404968 1.0496231317520142
0.09572254121303558 -0.4981824457645416 0.9372701048851013
0.095218725502491 -0.5103657841682434 0.9420503377914429
0.11364554613828659 -0.5072363615036011 1.0001094341278076
0.10885000973939896 -0.5195528864860535 1.0014370679855347
0.10558421164751053 -0.5359062552452087 1.0022995471954346
0.11643119901418686 -0.44747665524482727 0.9244461059570312
0.16798356175422668 -0.30298489332199097 0.9615029096603394
0.16076914966106415 -0.31026679277420044 0.9514875411987305
0.06423446536064148 -0.6869571208953857 1.0089530944824219
0.12835685908794403 -0.4638054370880127 0.9763569235801697
0.12362512946128845 -0.47773176431655884 0.967583954334259
0.12096317112445831 -0.44674474000930786 0.938579797744751
0.11466845870018005 -0.44128817319869995 0.9143667221069336
0.10826149582862854 -0.4609917402267456 0.9302978515625
0.13339261710643768 -0.4381849765777588 0.9658185839653015
0.13870695233345032 -0.4367254674434662 0.9818772673606873
0.1340436339378357 -0.4465741515159607 0.9795458316802979
0.13228805363178253 -0.4500800371170044 0.9657894968986511
0.1115756407380104 -0.42000412940979004 0.972158670425415
0.1134081780910492 -0.3966786861419678 0.955967128276825
0.10977444797754288 -0.40964239835739136 0.96488356590271
0.1066010594367981 -0.4155942499637604 0.9545090198516846
0.06023121625185013 -0.6206853985786438 1.002323865890503
0.10004083067178726 -0.4156264662742615 0.9254158735275269
0.06350165605545044 -0.6550124287605286 1.0292060375213623
0.09131810069084167 -0.4695768356323242 0.944629430770874
0.15444649755954742 -0.2958262264728546 0.9686502814292908
0.14828024804592133 -0.30429011583328247 0.9616531133651733
0.14873512089252472 -0.30020877718925476 0.9539716243743896
0.12446574866771698 -0.4418622851371765 0.9950135946273804
0.12625522911548615 -0.4564928412437439 1.0145853757858276
0.12614703178405762 -0.44666779041290283 1.001487374305725
0.09704992175102234 -0.42987939715385437 0.9007569551467896
0.08607702702283859 -0.4309457540512085 0.8642409443855286
0.06872940063476562 -0.6029738783836365 0.9777490496635437
0.06629761308431625 -0.613460123538971 0.9777830839157104
0.061035092920064926 -0.6223174929618835 0.9816645979881287
0.13174541294574738 -0.3968862295150757 0.974107027053833
0.1320294588804245 -0.4581219553947449 1.0176922082901
0.12563420832157135 -0.46153032779693604 1.015713095664978
0.12718066573143005 -0.45534104108810425 1.0045291185379028
0.12314919382333755 -0.4517291188240051 0.9899272918701172
0.04537109658122063 -0.6775245666503906 0.9772915244102478
0.04603194817900658 -0.7058021426200867 1.002097249031067
0.1688678115606308 -0.268530011177063 0.9594336748123169
0.16912589967250824 -0.2528109848499298 0.942656397819519
0.169715017080307 -0.2571066915988922 0.9551385641098022
0.16876454651355743 -0.2655895948410034 0.9547425508499146
0.16620902717113495 -0.2685821056365967 0.9470099210739136
0.16190695762634277 -0.2584720849990845 0.9395189881324768
0.16161443293094635 -0.27119123935699463 0.9429234266281128
0.10246101021766663 -0.4608933925628662 0.9257557392120361
0.15874087810516357 -0.2853977084159851 0.938048243522644
0.15448421239852905 -0.3286069631576538 0.9469197988510132
0.14621588587760925 -0.3421210050582886 0.9442627429962158
0.1508377641439438 -0.3538181185722351 0.9568465948104858
0.14111962914466858 -0.4012489318847656 0.9655370712280273
0.14394070208072662 -0.40623587369918823 0.9798741340637207
0.1089404746890068 -0.44245725870132446 0.9063804149627686
0.11762239784002304 -0.5088378190994263 0.977806031703949
0.11460236459970474 -0.4897271394729614 0.960013747215271
0.09380561113357544 -0.6096255779266357 1.0017226934432983
0.1158045157790184 -0.5287399888038635 0.9789588451385498
0.11039552837610245 -0.5467922687530518 0.9849129915237427
0.11449863761663437 -0.542158842086792 0.9793927669525146
0.10899092257022858 -0.5609394311904907 0.9835386276245117
0.09348329901695251 -0.5022198557853699 0.9873632788658142
0.08358681201934814 -0.5127896070480347 0.9864809513092041
0.09894148260354996 -0.48486727476119995 0.9898761510848999
0.08756626397371292 -0.5025115013122559 0.9774669408798218
0.04815574362874031 -0.6636770367622375 0.9933051466941833
0.12812040746212006 -0.368202805519104 0.9488610625267029
0.12361261993646622 -0.38342905044555664 0.9497944116592407
0.12302316725254059 -0.38388967514038086 0.9637643098831177
0.13691186904907227 -0.3407275080680847 0.962333619594574
0.136545330286026 -0.35071220993995667 0.9657197594642639
0.08746353536844254 -0.5841264724731445 1.033618688583374
0.08463411033153534 -0.5893791913986206 1.0304605960845947
0.09437103569507599 -0.5686482191085815 1.0248963832855225
0.06088150292634964 -0.6337928175926208 0.9781626462936401
0.10396301001310349 -0.38378235697746277 0.8729177117347717
0.10064174979925156 -0.39269623160362244 0.8715980648994446
0.16945978999137878 -0.24587848782539368 0.9476603269577026
0.16384795308113098 -0.24920985102653503 0.9423256516456604
0.17305122315883636 -0.2946842312812805 0.9915663003921509
0.17191900312900543 -0.29882028698921204 0.9876968860626221
0.06574199348688126 -0.6817532777786255 1.034681797027588
0.05863264948129654 -0.6968337893486023 1.0292255878448486
0.06896258890628815 -0.6765064597129822 1.0094470977783203
0.09832155704498291 -0.4880865216255188 0.9325127005577087
0.1750340461730957 -0.26998066902160645 0.9730941653251648
0.17499592900276184 -0.2718547582626343 0.9770868420600891
0.1748814731836319 -0.2836715579032898 0.9743747711181641
0.1404009461402893 -0.4327491521835327 0.9940258860588074
0.09650521725416183 -0.5889686942100525 0.9992079138755798
0.12598389387130737 -0.4153697192668915 0.9198070168495178
0.12442195415496826 -0.42734676599502563 0.9274474382400513
0.06135033443570137 -0.6015098690986633 1.0085970163345337
0.06029348820447922 -0.6115842461585999 1.0100033283233643
0.11975916475057602 -0.40826156735420227 0.9827576875686646
0.09642239660024643 -0.46331608295440674 0.9610168933868408
0.0922931581735611 -0.47930654883384705 0.9702742099761963
