-0.3509981632232666 0.12053699791431427 1.2803215980529785
-0.34214305877685547 0.09503819048404694 1.4600207805633545
-0.23588374257087708 0.07610474526882172 1.0943347215652466
-0.40305811166763306 0.13847383856773376 1.5464612245559692
-0.26656198501586914 0.07400412857532501 1.4390100240707397
-0.3021929860115051 0.11819128692150116 1.4303357601165771
-0.24575474858283997 0.07097108662128448 1.368735432624817
-0.23125320672988892 0.10070586204528809 1.3624837398529053
-0.20038047432899475 0.08517611771821976 1.274696707725525
-0.16946376860141754 0.06522998213768005 1.2374606132507324
0.2153996378183365 0.009784135967493057 1.2166626453399658
0.1910446733236313 -0.0108380988240242 1.2294731140136719
0.23218834400177002 -0.00844181515276432 1.182327389717102
0.23406672477722168 0.011406544595956802 1.3645175695419312
0.20291809737682343 -0.01969466730952263 1.287398099899292
0.21483337879180908 0.008918234147131443 1.2954840660095215
0.2758343815803528 -0.003293963149189949 1.2483874559402466
0.2846003770828247 -0.03147502988576889 1.2451139688491821
0.29867273569107056 -0.012034985236823559 1.1513917446136475
0.31429702043533325 -0.01900218054652214 1.1255210638046265
0.2935000956058502 -0.024751419201493263 1.1554492712020874
0.311895489692688 -0.029733512550592422 1.135230541229248
0.3429528772830963 -0.019178498536348343 1.1419275999069214
0.266399085521698 0.017097562551498413 1.5308279991149902
0.26650387048721313 -0.01604454219341278 1.492833137512207
0.38419556617736816 -0.028869817033410072 1.1233277320861816
0.36112692952156067 -0.049079589545726776 1.1353987455368042
0.33775538206100464 -0.029082007706165314 1.1464757919311523
0.375130295753479 -0.03435543179512024 1.1197453737258911
0.41191378235816956 -0.046267203986644745 1.0863518714904785
0.3040040135383606 -0.02689722552895546 1.3999525308609009
0.4281582534313202 -0.03486153110861778 1.2232946157455444
0.37537235021591187 -0.06061994284391403 1.1588530540466309
0.3813323974609375 -0.03792890906333923 1.173173189163208
0.39545130729675293 -0.01578756421804428 1.361690878868103
0.40633276104927063 -0.056029755622148514 1.2140820026397705
0.4581320285797119 -0.04992055147886276 1.1370019912719727
0.4417324364185333 -0.03536102548241615 1.1851208209991455
0.44234058260917664 -0.05475436896085739 1.1574779748916626
0.43483129143714905 -0.08029478788375854 1.1851342916488647
0.4053635597229004 -0.021982943639159203 1.4126585721969604
0.4360335171222687 -0.03670908510684967 1.2962005138397217
0.41247910261154175 -0.062270186841487885 1.3165647983551025
0.38433143496513367 -0.03881635144352913 1.550960898399353
0.47226521372795105 -0.06095065549015999 1.1804015636444092
0.41459572315216064 -0.012359309941530228 1.523812174797058
0.4350711703300476 -0.030742093920707703 1.4656099081039429
0.4349808096885681 -0.052161768078804016 1.5174801349639893
0.5556591153144836 -0.12868647277355194 0.9830971956253052
0.46968501806259155 -0.07090036571025848 1.4474172592163086
0.5038679838180542 -0.0753810927271843 1.4075605869293213
0.498879611492157 -0.04532988741993904 1.3525784015655518
0.5060423612594604 -0.09882953763008118 1.2582666873931885
0.5202667117118835 -0.06655264645814896 1.2543984651565552
0.5225371718406677 -0.048313207924366 1.3678183555603027
0.5386104583740234 -0.06304320693016052 1.3051010370254517
0.5653700232505798 -0.08979690074920654 1.2398507595062256
0.5530436635017395 -0.049771182239055634 1.3953590393066406
0.5589156150817871 -0.07855666428804398 1.3664495944976807
0.5935555696487427 -0.2517736852169037 0.8382041454315186
0.6253440380096436 -0.2732451856136322 0.6968896985054016
0.674044668674469 -0.22162644565105438 0.6818134188652039
0.6347774863243103 -0.22605256736278534 0.7181320190429688
0.6158530712127686 -0.16105061769485474 1.0453271865844727
0.6215301752090454 -0.16441760957241058 1.002598762512207
0.6118087768554688 -0.08888115733861923 1.2359840869903564
0.70921391248703 -0.1644509732723236 0.7214197516441345
0.6874248385429382 -0.16051727533340454 0.7956457138061523
0.7023158073425293 -0.16661328077316284 0.9970796704292297
0.7304089069366455 -0.18955692648887634 0.8996344804763794
0.6797470450401306 -0.18809136748313904 0.9063268899917603
0.7078822255134583 -0.2134629189968109 0.9176113605499268
-0.42209357023239136 0.01860986277461052 0.704460620880127
-0.42169490456581116 0.0019263364374637604 0.7189664840698242
-0.5360345840454102 0.1481877565383911 1.0722897052764893
-0.5309528708457947 0.16324427723884583 1.0772037506103516
-0.5057200789451599 0.13857042789459229 1.0307081937789917
-0.4508683681488037 0.09049767255783081 0.9346969723701477
-0.4428892731666565 0.09036576747894287 0.9898519515991211
-0.4464438557624817 0.052903912961483 0.8943411111831665
-0.40665388107299805 0.06393340229988098 0.9061604738235474
-0.4623168706893921 0.07211174070835114 1.0426247119903564
-0.5226131081581116 0.12751410901546478 1.20658278465271
-0.5081090927124023 0.12604859471321106 1.1686997413635254
-0.27053502202033997 0.0072334446012973785 0.7226045727729797
-0.3111448884010315 0.014525201171636581 0.6641697287559509
-0.252092570066452 -0.009351789951324463 0.600631594657898
-0.4907956123352051 0.14344772696495056 1.2108324766159058
-0.5361895561218262 0.13757683336734772 1.2552934885025024
-0.3411555290222168 -0.0241473950445652 0.7997283339500427
-0.32765883207321167 -0.04013829678297043 0.7812227010726929
-0.2645525336265564 -0.0728592574596405 0.6226441860198975
-0.24150308966636658 -0.09837260097265244 0.5744454860687256
-0.3571067452430725 0.056056585162878036 0.9143003821372986
-0.5605362057685852 0.16001056134700775 1.3605232238769531
-0.3780031204223633 0.062471359968185425 0.9579079151153564
-0.33372142910957336 0.054267290979623795 0.8889607787132263
-0.40402674674987793 0.03682433068752289 0.9894212484359741
-0.39695727825164795 0.026187188923358917 0.9675742983818054
-0.3488834500312805 0.06461469829082489 0.9767357110977173
-0.42378950119018555 0.0646420419216156 1.0802769660949707
-0.3059098720550537 0.027064025402069092 0.8449838757514954
-0.2749641537666321 0.0050111860036849976 0.7826435565948486
-0.44952917098999023 0.11831358075141907 1.1484836339950562
-0.3949199318885803 0.09056848287582397 1.0948127508163452
-0.3914322853088379 0.05969016253948212 1.0625219345092773
-0.5152462124824524 0.14467504620552063 1.4264335632324219
-0.48110708594322205 0.09600343555212021 1.2358310222625732
-0.39018845558166504 0.07153937220573425 1.1461315155029297
-0.5032431483268738 0.1302124410867691 1.4929111003875732
-0.4332374334335327 0.14155292510986328 1.3892267942428589
-0.43945416808128357 0.09668172895908356 1.2746639251708984
-0.32467687129974365 0.08136853575706482 1.0856029987335205
-0.35046982765197754 0.0594596192240715 1.0990184545516968
-0.41674429178237915 0.13078893721103668 1.2763645648956299
-0.37994033098220825 0.11542050540447235 1.214206576347351
-0.38390329480171204 0.1370290368795395 1.4603418111801147
-0.36392712593078613 0.09081835299730301 1.2809195518493652
-0.3102489709854126 0.07132373750209808 1.2003345489501953
-0.29347658157348633 0.09430541843175888 1.1965142488479614
-0.2788229286670685 0.08134818077087402 1.1325277090072632
-0.27548569440841675 0.06730885803699493 1.2370948791503906
-0.2519124448299408 0.08874735236167908 1.1392908096313477
-0.352668821811676 0.1300801783800125 1.3723441362380981
-0.3097645044326782 0.08957326412200928 1.3395694494247437
-0.21016891300678253 0.07234689593315125 1.1349098682403564
-0.191908061504364 0.07129190862178802 1.161324143409729
-0.22607573866844177 0.09421200305223465 1.437394618988037
-0.21542954444885254 0.05758921429514885 1.2796432971954346
0.2622487545013428 -0.02753092534840107 1.167399287223816
0.17801231145858765 0.01730336621403694 1.44772469997406
0.3205302059650421 -0.004874826408922672 1.2099025249481201
0.31350764632225037 -0.030235083773732185 1.2046620845794678
0.320675790309906 -0.010545600205659866 1.1393616199493408
0.3453816771507263 -0.01022270042449236 1.3264003992080688
0.35437437891960144 -0.04782260209321976 1.248835802078247
0.42100611329078674 -0.03893987834453583 1.0919530391693115
0.36925050616264343 -0.00455077551305294 1.4827806949615479
0.4277934730052948 -0.07353176176548004 1.2146888971328735
0.4665542542934418 -0.04067075252532959 1.4289036989212036
0.5747318863868713 -0.13887134194374084 0.8926839828491211
0.5961445569992065 -0.13687673211097717 0.8741864562034607
0.6081069111824036 -0.15392717719078064 0.7601029276847839
0.6189331412315369 -0.1604004204273224 0.6806530952453613
0.605776309967041 -0.1767061948776245 0.6960918307304382
0.5573498010635376 -0.09064043313264847 1.1741187572479248
0.6264231204986572 -0.1417056918144226 0.761419415473938
0.634186863899231 -0.15107324719429016 0.6870340704917908
0.5621181726455688 -0.1864650398492813 0.9550153017044067
0.5527479648590088 -0.1942843496799469 1.0032837390899658
0.5427672266960144 -0.21372421085834503 0.9756651520729065
0.5751215219497681 -0.20211969316005707 0.9036024212837219
0.6532390713691711 -0.1457585096359253 0.7886934280395508
0.6624326109886169 -0.16050371527671814 0.7040901780128479
0.6213324069976807 -0.14649978280067444 0.9638997316360474
0.5807036757469177 -0.19076836109161377 0.9482393264770508
0.6111919283866882 -0.21227455139160156 0.8927342295646667
0.5743199586868286 -0.21011176705360413 0.9577945470809937
0.592201292514801 -0.24214309453964233 0.8865178227424622
0.5818995237350464 -0.17170540988445282 1.023110270500183
0.6265957951545715 -0.1887255609035492 0.9706365466117859
0.6509026885032654 -0.2321006804704666 0.7307010293006897
0.6366573572158813 -0.2639680504798889 0.6704293489456177
0.6849691867828369 -0.1933792233467102 0.673178493976593
0.6270809769630432 -0.13747988641262054 1.0425260066986084
0.6538779735565186 -0.17238281667232513 0.8264081478118896
0.6315555572509766 -0.24624262750148773 0.8011371493339539
0.6535366177558899 -0.23717893660068512 0.7903338670730591
0.6861248016357422 -0.2312331348657608 0.7048819661140442
0.684857964515686 -0.16262806951999664 0.9755768179893494
0.7057194113731384 -0.1609465479850769 0.9448320865631104
0.717503011226654 -0.20948204398155212 0.7681059837341309
0.7085077166557312 -0.21315504610538483 0.7887231111526489
0.6193153858184814 -0.11632103472948074 1.1457401514053345
0.7139060497283936 -0.11686012148857117 1.096184253692627
0.6745310425758362 -0.13479305803775787 1.0942920446395874
0.6582216620445251 -0.09198720753192902 1.2896262407302856
0.6590858697891235 -0.09938117861747742 1.2421303987503052
0.6569361090660095 -0.09547217935323715 1.2382702827453613
0.6580988168716431 -0.1157405748963356 1.2223951816558838
0.6957191228866577 -0.11425179243087769 1.1558659076690674
0.6841518878936768 -0.1215188205242157 1.1774522066116333
-0.47596275806427 0.09686264395713806 0.8722877502441406
-0.4775691032409668 0.07443400472402573 0.8889074325561523
-0.4690343141555786 0.051162950694561005 0.859799861907959
-0.26288533210754395 -0.05361790210008621 0.5903252959251404
-0.25862663984298706 -0.10075171291828156 0.5547618269920349
-0.32730191946029663 -0.03463041037321091 0.7799272537231445
-0.33026719093322754 -0.04844062775373459 0.7241925001144409
-0.3406389355659485 -0.07410695403814316 0.7659614682197571
-0.3146762549877167 -0.08153042942285538 0.6535000801086426
-0.280624657869339 -0.06361782550811768 0.6667757034301758
-0.2684679329395294 -0.09750179946422577 0.6350244283676147
-0.38153398036956787 0.005833782255649567 0.9172046184539795
-0.3590896725654602 -0.027845028787851334 0.87389075756073
-0.37125086784362793 -0.008130792528390884 0.8714181184768677
-0.29822608828544617 -0.0840647965669632 0.7054598331451416
-0.29064369201660156 -0.058857545256614685 0.7045171856880188
-0.3321978449821472 -0.05867950618267059 0.8023098707199097
-0.3148351311683655 -0.04402577131986618 0.7524136304855347
-0.4143223762512207 0.09508320689201355 1.0567731857299805
-0.312619149684906 0.04793618246912956 0.9086918234825134
-0.28531813621520996 0.03629646450281143 0.9517269134521484
-0.27952659130096436 0.05770282447338104 0.9489487409591675
-0.376103937625885 0.054733771830797195 1.09694242477417
-0.31277793645858765 0.05930322781205177 1.0405280590057373
-0.288726270198822 0.06267215311527252 0.9836465120315552
-0.2848188281059265 0.042423125356435776 0.9754586219787598
-0.35372862219810486 0.09308407455682755 1.3398966789245605
-0.2862587869167328 0.08077476918697357 1.072893500328064
-0.2789161205291748 0.05358169972896576 1.1199091672897339
-0.25661808252334595 0.08113407343626022 1.0773792266845703
-0.21372246742248535 0.05804922431707382 1.1271119117736816
-0.22591300308704376 0.07489081472158432 1.0936049222946167
-0.1834702491760254 0.062150485813617706 1.190026879310608
0.48220765590667725 -0.06362510472536087 1.0914945602416992
0.4314204752445221 -0.027822166681289673 1.5966732501983643
0.5546879768371582 -0.1007460504770279 1.0583343505859375
0.5083844661712646 -0.06945338100194931 1.0351359844207764
0.5231459140777588 -0.11055131256580353 1.0333713293075562
0.5368626713752747 -0.09442402422428131 1.0251274108886719
0.5033544898033142 -0.06718870252370834 1.2356691360473633
0.5306046605110168 -0.14554612338542938 1.0621325969696045
0.5488554239273071 -0.16165940463542938 1.0066001415252686
0.531225860118866 -0.1817799210548401 1.0297737121582031
0.5368804931640625 -0.18514218926429749 0.9987769722938538
0.5587948560714722 -0.17574213445186615 0.943354606628418
0.6081312298774719 -0.1972637176513672 0.7383825778961182
0.6226819157600403 -0.2027973234653473 0.6858392357826233
0.650452196598053 -0.19391250610351562 0.6754471063613892
0.5807788372039795 -0.13189831376075745 1.0397846698760986
0.5956838130950928 -0.13632997870445251 1.0007274150848389
0.5758251547813416 -0.19271273910999298 0.978565514087677
0.5718828439712524 -0.19931811094284058 0.9373326897621155
0.5589788556098938 -0.23033881187438965 0.907837986946106
0.5238962173461914 -0.09322968125343323 1.352250337600708
0.6447623372077942 -0.16177724301815033 0.9716432094573975
0.6736864447593689 -0.17562538385391235 0.9261107444763184
0.6261122226715088 -0.1524585634469986 1.1010687351226807
0.7082825303077698 -0.24474935233592987 0.7517330646514893
0.7134893536567688 -0.20510892570018768 0.714061439037323
0.6676125526428223 -0.187458336353302 0.9574065208435059
0.674576997756958 -0.20499108731746674 0.9051846265792847
0.7406532168388367 -0.14909853041172028 1.088630199432373
0.6963924765586853 -0.18438394367694855 1.0507558584213257
0.7188860177993774 -0.16481834650039673 1.0428098440170288
0.7388391494750977 -0.2052302360534668 0.910879373550415
0.7376924157142639 -0.18215416371822357 0.9171131253242493
-0.5160147547721863 0.13322681188583374 1.0352777242660522
-0.2782497704029083 -0.04444700479507446 0.5303753018379211
-0.39068156480789185 0.0017463192343711853 0.8533908128738403
-0.37054479122161865 -0.02166391909122467 0.826728105545044
-0.4118295907974243 0.03505439683794975 0.8943495750427246
-0.5232289433479309 0.13982483744621277 1.351726770401001
-0.3918216824531555 0.07019364833831787 0.9282888174057007
-0.37708574533462524 0.047161851078271866 0.8995829820632935
-0.22433072328567505 -0.05946213752031326 0.5724486112594604
-0.2077859789133072 -0.03290325403213501 0.5701004862785339
-0.3441508412361145 -0.0071546584367752075 0.8742083311080933
-0.3299616277217865 -0.031110528856515884 0.8238916397094727
-0.340678334236145 -0.02549923211336136 0.867682158946991
-0.5028973817825317 0.11719611287117004 1.3059723377227783
-0.45428866147994995 0.1258162260055542 1.198917269706726
-0.23549285531044006 0.0917849987745285 1.198086142539978
0.16357509791851044 0.007512321695685387 1.2526390552520752
0.1500576287508011 -0.007070530205965042 1.261595606803894
0.2640160024166107 -0.03091929480433464 1.210281252861023
0.272045373916626 -0.01665615290403366 1.1345317363739014
0.33717668056488037 -0.0161299966275692 1.2575170993804932
0.40683427453041077 -0.04316818714141846 1.1404197216033936
0.40006881952285767 -0.05850812792778015 1.1248879432678223
0.45244282484054565 -0.07198532670736313 1.2844198942184448
0.46773073077201843 -0.08221572637557983 1.3673624992370605
0.5001816153526306 -0.10075807571411133 1.1808768510818481
0.5560613870620728 -0.21951979398727417 0.9104147553443909
0.5911481976509094 -0.21066772937774658 0.8603955507278442
0.5849827527999878 -0.24504706263542175 0.8186400532722473
0.6059351563453674 -0.22444885969161987 0.7619380354881287
0.583102822303772 -0.14746245741844177 1.104999303817749
0.643722653388977 -0.2709237337112427 0.6940466165542603
-0.4622831642627716 0.06015912443399429 0.8824955821037292
-0.25963518023490906 -0.017743969336152077 0.727602481842041
-0.23485349118709564 -0.030980460345745087 0.6719548106193542
-0.5343714356422424 0.14683718979358673 1.459916353225708
-0.27929389476776123 0.07308265566825867 1.0605697631835938
-0.2646946907043457 0.07029250264167786 1.0302537679672241
-0.25237083435058594 0.06197240576148033 1.0648406744003296
-0.20802301168441772 0.07046262919902802 1.1040822267532349
-0.15376831591129303 0.051834747195243835 1.2609763145446777
-0.162894606590271 0.034737132489681244 1.2636141777038574
0.3846471905708313 -0.047948114573955536 1.414883017539978
0.4072057008743286 -0.05451228842139244 1.4688935279846191
0.5796017050743103 -0.1183951273560524 1.0695247650146484
0.5794333815574646 -0.11699500679969788 0.9920299053192139
0.5279120802879333 -0.12247292697429657 1.179051399230957
0.5728194713592529 -0.18320024013519287 0.885056734085083
0.5958620309829712 -0.135481059551239 1.1506677865982056
0.5809631943702698 -0.11576806008815765 1.2371406555175781
0.6725653409957886 -0.16002009809017181 1.0731379985809326
0.6728153228759766 -0.17688551545143127 1.008508324623108
0.692762553691864 -0.22312161326408386 0.8410582542419434
0.6529809236526489 -0.2427157759666443 0.7529281973838806
0.7114410996437073 -0.20409433543682098 0.8313126564025879
-0.27615538239479065 -0.06397899985313416 0.560541570186615
-0.2329191267490387 -0.04046410694718361 0.5573879480361938
-0.3321632742881775 -0.04009619355201721 0.774543046951294
-0.27304649353027344 -0.06480787694454193 0.6223512887954712
-0.23092488944530487 -0.06398756802082062 0.6167483329772949
-0.33285337686538696 0.02919933572411537 0.9319396018981934
-0.2561945617198944 0.06619173288345337 1.2102727890014648
-0.24356845021247864 0.06346552073955536 1.153956651687622
-0.24322077631950378 0.0753975585103035 1.1274960041046143
-0.21971145272254944 0.054748572409152985 1.2040205001831055
-0.1948651671409607 0.041541531682014465 1.1375905275344849
-0.18970221281051636 0.05603843182325363 1.125471591949463
0.2766643762588501 -0.00242767296731472 1.139865517616272
0.5114426016807556 -0.12070778757333755 1.103447675704956
0.5443590879440308 -0.15244288742542267 1.1042265892028809
0.5571577548980713 -0.16824857890605927 1.0597829818725586
0.6614802479743958 -0.21792706847190857 0.8900998830795288
-0.3386272192001343 -0.019902778789401054 0.625004231929779
-0.32949298620224 -0.04966367781162262 0.59564208984375
-0.323142945766449 -0.03770340606570244 0.5910820960998535
-0.3610721826553345 0.040034275501966476 0.8165627717971802
-0.3126305341720581 -0.022920873016119003 0.792523980140686
-0.3250315487384796 -0.022160064429044724 0.844937801361084
-0.1839115023612976 0.048744723200798035 1.2240267992019653
-0.15013368427753448 0.0419076532125473 1.334014654159546
-0.13715553283691406 0.04716482758522034 1.3228787183761597
0.1507427990436554 -0.016109533607959747 1.2746256589889526
0.1986089050769806 0.017896384000778198 1.6685230731964111
0.3691600561141968 0.007675036787986755 1.6140316724777222
0.39145106077194214 -0.011504510417580605 1.6334624290466309
0.4484292268753052 -0.02890457957983017 1.5647987127304077
0.6136870980262756 -0.08305476605892181 1.3125468492507935
0.6394320726394653 -0.08577954024076462 1.3493798971176147
0.6412820816040039 -0.06959941238164902 1.2854770421981812
0.6451743245124817 -0.09581714123487473 1.2711212635040283
0.6702212691307068 -0.08082656562328339 1.2862988710403442
-0.508910059928894 0.11653518676757812 0.9686654210090637
-0.4947907030582428 0.12643522024154663 0.9479688405990601
-0.5618861317634583 0.1705629676580429 1.2143337726593018
-0.5392105579376221 0.17024016380310059 1.2039251327514648
-0.2737298607826233 -0.009050577878952026 0.5763185620307922
-0.2557983696460724 -0.025579307228326797 0.5334428548812866
-0.3046223223209381 -0.06043069809675217 0.6610009074211121
-0.3358522057533264 0.0259103961288929 0.767890989780426
-0.4004320502281189 0.0830705463886261 0.979839563369751
-0.5259193181991577 0.15036973357200623 1.510895013809204
0.2703718841075897 -0.004196503199636936 1.2053375244140625
0.28593379259109497 0.007719375193119049 1.437770128250122
0.42666059732437134 -0.04908017814159393 1.1592506170272827
0.4054765999317169 -0.021993031725287437 1.2852097749710083
0.4707995057106018 -0.07217448204755783 1.0928962230682373
0.49034515023231506 -0.08625447750091553 1.0434077978134155
0.4732298254966736 -0.10277828574180603 1.1260323524475098
0.5876979827880859 -0.15678855776786804 0.8402541279792786
0.5958277583122253 -0.17646491527557373 0.8283910155296326
0.5969236493110657 -0.2190416157245636 0.9009289741516113
0.6563311815261841 -0.14315223693847656 1.070252776145935
0.6976136565208435 -0.16805557906627655 0.848309338092804
-0.29605036973953247 -0.049524515867233276 0.5652303695678711
-0.24958361685276031 -0.05174294859170914 0.5265101194381714
-0.2539861500263214 0.08164867758750916 1.032943844795227
-0.21850989758968353 0.08311362564563751 1.1237542629241943
-0.19174009561538696 0.05217304080724716 1.178227424621582
0.668015718460083 -0.16487304866313934 0.8821249604225159
0.7021045684814453 -0.21848493814468384 0.6474974155426025
0.7096239924430847 -0.2217521369457245 0.6635313034057617
-0.3556396961212158 -0.026557179167866707 0.8097926378250122
-0.2816585302352905 -0.02101001888513565 0.7430620193481445
-0.26704734563827515 -0.04486778751015663 0.6988557577133179
0.4881743788719177 -0.04988780617713928 1.4860851764678955
0.7168534994125366 -0.19988901913166046 0.6551002860069275
0.7120077610015869 -0.1901470422744751 0.9730850458145142
-0.2546628713607788 0.09870324283838272 1.2739357948303223
0.6863872408866882 -0.1544329971075058 1.0645058155059814
-0.29350122809410095 0.00305137038230896 0.8166462182998657
0.6142304539680481 -0.25161755084991455 0.7087492346763611
0.6766058206558228 -0.15707190334796906 1.0495648384094238
-0.34937843680381775 -0.050628628581762314 0.773027777671814
-0.36841142177581787 -0.14314332604408264 0.9717050790786743
-0.372755765914917 -0.13943393528461456 0.9835919141769409
-0.3566916286945343 -0.16111373901367188 0.9818806648254395
-0.36365747451782227 -0.15979498624801636 0.9931238293647766
-0.3432203531265259 -0.1100287139415741 1.0404376983642578
-0.34836411476135254 -0.12608225643634796 1.0195517539978027
-0.3391572833061218 -0.11240122467279434 0.9905829429626465
-0.3374297320842743 -0.08628220856189728 1.0236632823944092
-0.3367093503475189 -0.14060728251934052 1.02792489528656
-0.33958449959754944 -0.17047077417373657 1.017140507698059
-0.3239942789077759 -0.07328806072473526 1.1029257774353027
-0.3184427320957184 -0.16769839823246002 1.018635630607605
-0.3338916301727295 -0.13294458389282227 1.0161490440368652
-0.31813520193099976 -0.14949288964271545 1.0576074123382568
-0.3205324411392212 -0.12447740882635117 1.046548843383789
-0.3139677345752716 -0.0609036386013031 1.072110891342163
-0.3140023946762085 -0.11530705541372299 1.0469462871551514
-0.31497228145599365 -0.12229952216148376 1.0706655979156494
-0.32062557339668274 -0.09932491183280945 1.098780870437622
-0.3373834192752838 -0.05695999413728714 1.1340265274047852
-0.32621416449546814 -0.10871848464012146 1.1308523416519165
-0.3031824231147766 -0.006857782602310181 1.1607210636138916
-0.31200557947158813 -0.01598900742828846 1.1154581308364868
-0.3271220624446869 -0.058490149676799774 1.1682378053665161
-0.27805811166763306 -0.014743052423000336 1.104958415031433
-0.281343936920166 -0.04149269685149193 1.2206463813781738
-0.2936096489429474 -0.10267273336648941 1.178857445716858
-0.278662770986557 0.005600903183221817 1.1475999355316162
-0.24585014581680298 -0.0011174734681844711 1.1592319011688232
-0.25117596983909607 0.0072595831006765366 1.2163153886795044
-0.22730585932731628 0.007584061473608017 1.216145396232605
-0.2211381047964096 -0.045294634997844696 1.2896435260772705
-0.25821539759635925 -0.07621204853057861 1.2257814407348633
-0.21787641942501068 0.014315489679574966 1.2610410451889038
-0.24347014725208282 -0.015075214207172394 1.2695361375808716
-0.2055075764656067 0.012246955186128616 1.2997870445251465
-0.1903827041387558 0.009496431797742844 1.3349488973617554
-0.18303756415843964 -0.0390622615814209 1.344922423362732
-0.21068094670772552 -0.08422043174505234 1.2476475238800049
-0.19142216444015503 0.06046340614557266 1.7383172512054443
-0.138619527220726 0.11001065373420715 1.4027436971664429
-0.13090883195400238 0.06656720489263535 0.8742682933807373
-0.17766831815242767 0.01725456491112709 0.8818776607513428
-0.15445923805236816 -0.07543797045946121 0.8866108655929565
-0.19765831530094147 -0.10351558029651642 0.8776466846466064
-0.17511186003684998 0.07091999053955078 1.6440229415893555
-0.1978646218776703 0.04656041041016579 1.760822057723999
-0.16639433801174164 0.05358356982469559 1.7095774412155151
-0.1481841504573822 0.08296231180429459 1.6589782238006592
-0.15763036906719208 0.065044105052948 1.608855128288269
-0.11568231135606766 0.0004985611885786057 1.0433995723724365
-0.15308834612369537 -0.05099863559007645 1.0076204538345337
-0.15953794121742249 -0.12015749514102936 0.9957239627838135
-0.15301482379436493 0.045050524175167084 1.5388333797454834
-0.2890087962150574 -0.06929168105125427 0.06882712990045547
-0.3042382597923279 -0.12934832274913788 0.03301828354597092
-0.30689483880996704 -0.15489879250526428 0.049511104822158813
-0.15370593965053558 -0.024499010294675827 1.393631935119629
-0.145692378282547 0.017003048211336136 1.3386406898498535
-0.13855256140232086 -0.00928805023431778 1.320120930671692
-0.16163420677185059 -0.0370282419025898 1.3817938566207886
-0.14455944299697876 -0.08007338643074036 1.3388739824295044
-0.22896958887577057 -0.035411108285188675 0.48653313517570496
-0.23027296364307404 -0.06312904506921768 0.40280410647392273
-0.2419198751449585 -0.01191642414778471 0.3388555943965912
-0.24664545059204102 -0.03692812845110893 0.3695521354675293
-0.16120432317256927 0.06197867915034294 1.678241491317749
-0.14022432267665863 -0.050647273659706116 1.28938627243042
-0.14231741428375244 -0.061370667070150375 1.2463445663452148
-0.1443188190460205 -0.08799023926258087 1.2779515981674194
-0.1692657470703125 -0.10288597643375397 1.279271125793457
-0.23751072585582733 -0.0009737104410305619 0.2668513059616089
-0.1541210114955902 -0.021742358803749084 1.536198377609253
-0.14289095997810364 0.04987364634871483 1.5397943258285522
-0.14978095889091492 0.021307505667209625 1.533125638961792
-0.19654837250709534 -0.07003742456436157 0.584804117679596
-0.11182913184165955 0.045222118496894836 1.774122714996338
-0.12841324508190155 -0.108454629778862 1.215630292892456
-0.11744123697280884 -0.034017693251371384 1.1612874269485474
-0.1378537267446518 -0.1252901405096054 0.755471408367157
-0.11647937446832657 0.09688450396060944 1.720170021057129
-0.13287809491157532 -0.057397183030843735 1.407911777496338
-0.10541394352912903 -0.11785560846328735 0.8581337928771973
-0.1407652348279953 -0.1310771405696869 0.8800727725028992
-0.12399007380008698 -0.200229674577713 0.9196352958679199
-0.10775044560432434 -0.2154906988143921 0.8552408218383789
-0.28074347972869873 -0.19289837777614594 0.06836631149053574
-0.07671283185482025 0.11942274868488312 1.718888521194458
-0.10498657077550888 0.05615335702896118 1.7596614360809326
-0.15361888706684113 0.0012534372508525848 1.4460622072219849
-0.13529075682163239 -0.025080453604459763 1.4945200681686401
-0.2040250450372696 0.011891502887010574 0.335141122341156
-0.2332083135843277 -0.012864730320870876 0.21837064623832703
-0.2702299952507019 -0.1908106505870819 0.11082382500171661
-0.239332914352417 -0.007694773375988007 0.0758727416396141
-0.11362794041633606 -0.006586112082004547 1.3233009576797485
-0.17732739448547363 -0.09746748208999634 0.5578731894493103
-0.23586617410182953 -0.15067516267299652 0.01233617402613163
-0.27815863490104675 -0.15199023485183716 0.006494452711194754
-0.10712584108114243 0.04354577884078026 1.555996060371399
-0.10880739986896515 0.012983191758394241 1.5129624605178833
-0.0319494865834713 -0.21774256229400635 0.9110051989555359
-0.08014780282974243 0.08930326998233795 0.8687496185302734
-0.23292352259159088 -0.1161038801074028 0.27781808376312256
-0.20970214903354645 -0.11368165910243988 0.20177331566810608
-0.21823416650295258 -0.017368506640195847 0.1191212460398674
-0.09766526520252228 -0.004655767232179642 1.288975477218628
-0.10481572151184082 -0.025357898324728012 1.2476084232330322
-0.07623923569917679 -0.12557050585746765 1.3216410875320435
-0.14318914711475372 -0.02945956587791443 0.6771051287651062
-0.12008768320083618 -0.12725558876991272 0.7452831864356995
-0.07602067291736603 -0.1172301173210144 0.8175705671310425
-0.20154134929180145 -0.1214858740568161 0.16839131712913513
-0.22486987709999084 -0.18451808393001556 0.07812869548797607
-0.12830643355846405 -0.07638432830572128 1.4887446165084839
-0.09771318733692169 0.00562010332942009 1.358934760093689
-0.06704238802194595 -0.000339265912771225 1.2932446002960205
-0.1465887725353241 -0.10049577057361603 0.579853355884552
-0.12238901108503342 -0.08076789230108261 0.580479085445404
-0.16380783915519714 0.015528040938079357 0.5213026404380798
-0.09831976145505905 -0.06458835303783417 1.4596112966537476
-0.07437023520469666 -0.02288942039012909 1.440268874168396
-0.10428572446107864 0.01732539013028145 1.3989691734313965
-0.1342344582080841 -0.021261535584926605 0.5262598395347595
-0.06255777180194855 0.07099808752536774 1.7623692750930786
-0.11980552971363068 -0.11678013950586319 1.6251206398010254
-0.035612333565950394 -0.18862465023994446 0.9949421882629395
-0.07761882245540619 -0.033984504640102386 1.4545540809631348
-0.05618654191493988 -0.06287608295679092 1.439777135848999
-0.07666896283626556 -0.04728885740041733 1.4337794780731201
-0.06650924682617188 -0.11466629803180695 1.5560632944107056
-0.10686084628105164 -0.10882669687271118 1.5020360946655273
-0.05352205038070679 -0.0029439739882946014 1.4644618034362793
-0.10590540617704391 -0.04540523886680603 0.6465469598770142
-0.018990986049175262 0.024458855390548706 1.7859920263290405
-0.034847453236579895 0.12751278281211853 1.6884806156158447
-0.05440075322985649 -0.13139015436172485 1.5072513818740845
-0.06891334801912308 -0.10952237248420715 1.460317850112915
-0.03672654926776886 -0.011719435453414917 1.4396114349365234
-0.0428800992667675 -0.1107558086514473 1.4601452350616455
-0.006382819265127182 0.008528821170330048 1.414999008178711
-0.028251631185412407 -0.013092465698719025 1.2874088287353516
-0.014623116701841354 0.0796368271112442 1.7605947256088257
-0.015031574293971062 -0.014652971178293228 1.4691098928451538
-0.01962205022573471 -0.05818478390574455 1.455324649810791
0.01381901279091835 0.09599669277667999 1.719085693359375
-0.00440545380115509 0.03610951453447342 1.7667595148086548
-0.014451537281274796 -0.04968145489692688 1.4412260055541992
0.01477939635515213 -0.07974263280630112 1.4805338382720947
-0.009310372173786163 -0.028652947396039963 1.4477925300598145
0.07836315780878067 -0.09136271476745605 0.6015646457672119
0.015487667173147202 0.012900244444608688 1.4983413219451904
0.11343981325626373 -0.11043219268321991 0.5189428329467773
0.0032585570588707924 -0.16423553228378296 1.2784099578857422
0.049133673310279846 -0.04047878086566925 1.2681200504302979
0.051489755511283875 -0.06865161657333374 1.154206395149231
0.14909501373767853 -0.11512523144483566 0.08382128179073334
0.1660073846578598 -0.1062532290816307 0.06623932719230652
0.13674260675907135 0.01012393832206726 0.09434737265110016
0.018347036093473434 -0.1474204659461975 1.263869047164917
0.006883365102112293 -0.1879574954509735 1.188585877418518
0.07345521450042725 -0.1414107084274292 0.7427712678909302
0.131692573428154 -0.03914015740156174 0.06704562902450562
0.04569992423057556 0.027172647416591644 1.726712942123413
0.004616878926753998 -0.12387718260288239 1.6338353157043457
-0.0025505758821964264 -0.1078529804944992 1.547097086906433
0.0019266866147518158 -0.10979430377483368 1.5018932819366455
0.0998719334602356 -0.16036973893642426 0.8865552544593811
0.09401813894510269 0.01930808275938034 1.7541968822479248
0.02182990312576294 0.010590668767690659 1.5535874366760254
0.020697731524705887 -0.007061116397380829 1.524031162261963
0.1373739391565323 -0.017437689006328583 0.34080997109413147
0.12966899573802948 -0.005760751664638519 0.2798217833042145
0.14869502186775208 0.02107672393321991 0.07730834186077118
0.0386350192129612 0.011836711317300797 1.8125512599945068
0.056028835475444794 -0.009749844670295715 1.42093825340271
0.10047036409378052 -0.21924340724945068 0.8737524747848511
0.0911523848772049 -0.1315935254096985 0.8740189075469971
0.13067620992660522 -0.19485564529895782 0.8751729726791382
0.09883294254541397 -0.04172303155064583 0.7624902725219727
0.19331565499305725 -0.10538648068904877 0.07785676419734955
0.05348699539899826 0.015367306768894196 1.7378255128860474
0.04008789360523224 -0.1578248143196106 1.155251383781433
0.04700858145952225 -0.13364550471305847 1.2825255393981934
0.04931096360087395 -0.14977718889713287 1.279788851737976
0.12683318555355072 -0.18919983506202698 0.9433158040046692
0.043295711278915405 -0.062485769391059875 1.5682930946350098
0.05139070004224777 0.011554505676031113 1.56295645236969
0.046582289040088654 -0.013946320861577988 1.55190908908844
0.05381288751959801 -0.030192743986845016 1.5466227531433105
0.06446678191423416 -0.04211771860718727 1.5231728553771973
0.13890138268470764 -0.06601037830114365 0.661070704460144
0.13682495057582855 -0.13227196037769318 0.6805918216705322
0.07243628799915314 -0.04653538018465042 1.4002737998962402
0.07570051401853561 0.0028613805770874023 1.3404474258422852
0.041199132800102234 -0.001213863492012024 1.3558471202850342
0.05190625041723251 -0.022599123418331146 1.3322935104370117
0.12693017721176147 -0.11896765977144241 0.8426828384399414
0.19292083382606506 0.004928909242153168 0.08058058470487595
0.2075192928314209 -0.019635654985904694 0.07400216162204742
0.06569116562604904 0.006359133869409561 1.6910563707351685
0.08155661821365356 -0.02412531152367592 1.3940194845199585
0.20069903135299683 -0.06179816275835037 0.32542020082473755
0.08852048218250275 0.024283770471811295 1.664932370185852
0.06608350574970245 0.051177579909563065 1.6685696840286255
0.07472790777683258 0.020620007067918777 1.6331169605255127
0.2094336450099945 -0.030597757548093796 0.1501014530658722
0.21697460114955902 -0.07568882405757904 0.07796525955200195
0.2035416066646576 -0.10653308033943176 0.10434356331825256
0.15383028984069824 -0.014161461032927036 0.9834855794906616
0.152836412191391 -0.015316682867705822 0.8839056491851807
0.09181508421897888 -0.0013063214719295502 1.7523720264434814
0.17039373517036438 0.038157422095537186 0.8914562463760376
0.1819515824317932 0.0015942417085170746 0.954876720905304
0.102004274725914 -0.0061456672847270966 1.3346208333969116
0.11690357327461243 -0.026422925293445587 1.320771336555481
0.08427047729492188 -0.04972781240940094 1.3666882514953613
0.11533202230930328 -0.012457549571990967 1.280150294303894
0.10527466237545013 -0.017082251608371735 1.2596426010131836
0.12663082778453827 -0.09248753637075424 1.2420616149902344
0.13736164569854736 -0.04702012240886688 1.280397891998291
0.1579742729663849 -0.019765976816415787 1.2155609130859375
0.17631201446056366 -0.024753931909799576 1.1387455463409424
0.20216724276542664 -0.039303332567214966 1.1559537649154663
0.18590138852596283 -0.05676838383078575 1.2037978172302246
0.1612165868282318 -0.0954364463686943 1.2235108613967896
0.20832690596580505 -0.05653589963912964 1.103484034538269
0.2245635688304901 -0.12646383047103882 1.1548595428466797
0.23529556393623352 -0.10170968621969223 1.1356908082962036
0.22695837914943695 -0.07564043253660202 1.1075010299682617
0.18683496117591858 -0.16271039843559265 1.1363921165466309
0.20871436595916748 -0.13109253346920013 1.1034642457962036
0.21059200167655945 -0.11002062261104584 1.0913034677505493
0.2504178583621979 -0.18791088461875916 0.9871313571929932
0.18922120332717896 -0.1486656814813614 1.103043556213379
0.188408762216568 -0.16448695957660675 1.0749375820159912
0.22887371480464935 -0.14448845386505127 1.0208673477172852
0.19428957998752594 -0.15422704815864563 1.0498683452606201
0.18937215209007263 -0.18179868161678314 1.052573323249817
0.21374157071113586 -0.17567870020866394 1.0211820602416992
0.23500752449035645 -0.18226312100887299 1.0150861740112305
0.18800322711467743 -0.2063674032688141 1.0241386890411377
0.2133803814649582 -0.19568601250648499 1.0147085189819336
0.1997116506099701 -0.19924941658973694 1.0237399339675903
0.24292415380477905 -0.19480691850185394 0.9668978452682495
0.20826376974582672 -0.21362239122390747 1.0112860202789307
0.22648702561855316 -0.17949378490447998 0.9812655448913574
0.22754019498825073 -0.21306157112121582 0.979738712310791
0.2452806532382965 -0.20632217824459076 0.9828208684921265
-0.3176840543746948 -0.050682615488767624 1.0961521863937378
-0.30422502756118774 -0.1095389798283577 1.0867948532104492
-0.29280510544776917 -0.09211759269237518 1.0826098918914795
-0.3080827295780182 -0.12832379341125488 1.1230320930480957
-0.2609398066997528 -0.047545041888952255 1.0911725759506226
-0.28129714727401733 -0.12685748934745789 1.1076650619506836
-0.20483623445034027 -0.010462680831551552 1.2376829385757446
-0.20013262331485748 -0.0655105784535408 1.2161613702774048
-0.1731753945350647 -0.09800730645656586 0.9728480577468872
-0.17691349983215332 -0.015856508165597916 0.9532637596130371
-0.12699273228645325 0.05124429985880852 0.9375613331794739
-0.10695697367191315 0.15376493334770203 1.2599709033966064
-0.09924435615539551 0.15066306293010712 1.201290249824524
-0.10099628567695618 0.17412810027599335 1.1705265045166016
-0.15184462070465088 -0.011433016508817673 0.9747219085693359
-0.2059234380722046 0.039220891892910004 1.7301862239837646
-0.15472984313964844 0.007316850125789642 1.3590623140335083
-0.1752416342496872 0.006722878664731979 1.2914119958877563
-0.032679006457328796 0.16573098301887512 1.072159767150879
-0.05891142040491104 0.17090947926044464 0.9911189079284668
-0.29157355427742004 -0.08664851635694504 0.127620667219162
-0.30782806873321533 -0.13904210925102234 0.08005499094724655
-0.18111935257911682 0.03233181685209274 1.7117857933044434
-0.16523349285125732 0.041786883026361465 1.657001256942749
-0.1545499861240387 -0.12527509033679962 1.2562241554260254
-0.15389643609523773 -0.14241528511047363 1.2288578748703003
-0.15788428485393524 -0.1627994179725647 1.2256808280944824
-0.11064945161342621 0.11525381356477737 1.377864122390747
-0.10216937959194183 0.10636726021766663 1.372717261314392
-0.13476575911045074 -0.12621551752090454 1.2712360620498657
-0.14846384525299072 -0.054511334747076035 1.2113807201385498
-0.26349133253097534 -0.10416699200868607 0.19407106935977936
-0.2689129114151001 -0.05899698659777641 0.20060645043849945
-0.056401412934064865 0.13026456534862518 1.2545292377471924
-0.15957467257976532 -0.0100606270134449 1.4587619304656982
-0.1594308614730835 -0.00445885956287384 1.4371836185455322
-0.14536981284618378 -0.009131692349910736 1.4192311763763428
-0.15911298990249634 -0.0027084536850452423 1.4155852794647217
-0.15787965059280396 -0.022817451506853104 1.4073222875595093
-0.15021012723445892 -0.10875071585178375 0.7999449372291565
-0.16186246275901794 -0.07056870311498642 0.795472264289856
-0.02700217440724373 0.22570642828941345 1.0801984071731567
-0.02904238924384117 0.22346976399421692 1.1319186687469482
-0.1260361522436142 -0.1191152036190033 1.2682924270629883
-0.1298009157180786 -0.10867737233638763 0.8719277381896973
-0.2646249234676361 -0.02365846559405327 0.12658703327178955
-0.26988863945007324 -0.02327769249677658 0.08863517642021179
-0.14034132659435272 -0.18700362741947174 0.8578324317932129
-0.05678955465555191 0.1910724639892578 1.2357115745544434
-0.15995052456855774 -0.0852818712592125 1.6225837469100952
-0.13167721033096313 0.02771385759115219 1.5373432636260986
-0.09989674389362335 0.1137595921754837 1.504390001296997
-0.10046344250440598 0.07677798718214035 1.5638892650604248
-0.11965533345937729 0.07586251944303513 1.5369641780853271
-0.10532163083553314 0.09379271417856216 1.4510339498519897
-0.05393372103571892 0.13581296801567078 1.5470991134643555
-0.1220535933971405 -0.00929148867726326 1.4893238544464111
-0.08507939428091049 0.04397695139050484 0.9808605313301086
-0.13912642002105713 0.03828293830156326 1.8140933513641357
-0.15071210265159607 0.031104519963264465 1.8086633682250977
-0.1518566608428955 0.019837170839309692 1.794352412223816
-0.022187458351254463 0.07632675766944885 1.4429373741149902
-0.0794239267706871 0.12766119837760925 1.4208791255950928
-0.20882073044776917 -0.08638204634189606 0.04991920292377472
-0.028921958059072495 0.16483770310878754 1.366205096244812
-0.12214762717485428 -0.08624465018510818 1.535163402557373
-0.18009772896766663 -0.06615530699491501 0.4048890173435211
-0.06216337904334068 0.07483503222465515 1.505150318145752
-0.08588450402021408 0.03452826291322708 1.488702654838562
-0.0326923169195652 0.13921990990638733 1.4679691791534424
-0.03256271034479141 0.052018214017152786 0.863019585609436
-0.188115194439888 -0.00290801003575325 0.35479819774627686
0.018477190285921097 0.1855376958847046 0.9892053604125977
-0.032253947108983994 0.03755893558263779 1.0387986898422241
-0.10699962824583054 -0.15105941891670227 1.2671916484832764
-0.10040534287691116 -0.15312327444553375 1.1646875143051147
-0.176527738571167 -0.030515559017658234 0.3331432342529297
-0.16143427789211273 -0.04559365659952164 0.2707071602344513
-0.1921815425157547 0.0038459431380033493 0.2658313810825348
-0.06949269771575928 0.057616617530584335 1.5247528553009033
-0.09117425978183746 -0.10429073870182037 0.6947689652442932
-0.11650963872671127 -0.03032539039850235 0.6674467325210571
0.026671158149838448 0.2287900149822235 1.122151255607605
0.0315050333738327 0.21865612268447876 1.0358271598815918
-0.05361836031079292 -0.18536800146102905 1.1918230056762695
-0.18955984711647034 -0.07091231644153595 0.13484381139278412
0.021789096295833588 0.1678965985774994 1.030396580696106
0.013769665732979774 0.14740422368049622 1.0679550170898438
-0.00012354925274848938 0.05564463138580322 1.5158182382583618
-0.08775008469820023 -0.08158861845731735 1.4015488624572754
0.024616610258817673 0.17208315432071686 1.3453840017318726
0.022939804941415787 0.06604554504156113 1.4333946704864502
-0.00858607143163681 0.047101493924856186 1.516668677330017
0.07309534400701523 0.1616775244474411 1.0386461019515991
0.09054887294769287 0.14776289463043213 0.9958177804946899
-0.02316422574222088 -0.09944690763950348 1.3977181911468506
0.013918641954660416 0.03682961314916611 1.0372612476348877
-0.026758771389722824 -0.19939029216766357 1.1197611093521118
0.0883275717496872 0.1418202966451645 1.3701149225234985
0.010423736646771431 -0.012247662991285324 1.3046411275863647
0.05938877910375595 0.11610221862792969 1.4746859073638916
0.02555120550096035 0.06803451478481293 1.4769721031188965
0.02564501017332077 -0.02930484712123871 1.2149851322174072
0.04520907625555992 0.09443607926368713 0.9274909496307373
-0.006730873137712479 -0.011595375835895538 1.7503881454467773
0.13090592622756958 -0.08844800293445587 0.09595654904842377
0.12139256298542023 -0.09463915973901749 0.0721728652715683
0.12362504005432129 -0.0353621169924736 0.10866321623325348
-0.04159153625369072 -0.13036881387233734 1.626352310180664
0.0688663199543953 -0.0624677836894989 0.7265875339508057
0.0827002078294754 0.05592219531536102 1.4457672834396362
0.02698216587305069 -0.04509611427783966 1.490924596786499
0.06489540636539459 -0.03082621470093727 1.4376509189605713
0.022873418405652046 0.0023689381778240204 1.4127922058105469
0.11676406860351562 -0.031098689883947372 0.40828996896743774
0.14007365703582764 -0.11174269020557404 0.24987956881523132
0.13466434180736542 -0.023840632289648056 0.21584805846214294
0.13915999233722687 0.14893755316734314 1.0484060049057007
0.1330067664384842 0.17682865262031555 1.014334797859192
0.10694979131221771 -0.14604288339614868 0.7543203830718994
0.11171863228082657 -0.05266380310058594 0.6698693633079529
-0.007106386125087738 -0.05987849086523056 1.737197995185852
0.03285698592662811 -0.07101152837276459 1.6931244134902954
0.1288425177335739 -0.12997668981552124 0.5627529621124268
0.012599339708685875 -0.0057411789894104 1.763752818107605
0.035560283809900284 -0.023232456296682358 1.7139033079147339
0.0629245936870575 -0.09687507152557373 1.1502654552459717
0.06754909455776215 -0.08449634909629822 1.1233094930648804
0.05869116634130478 -0.15765103697776794 1.1065713167190552
0.018207091838121414 -0.11127705872058868 1.6256349086761475
0.03976955637335777 -0.04333081096410751 1.5197633504867554
0.028501028195023537 -0.0823022648692131 1.519420862197876
0.176829531788826 0.12653054296970367 1.008825659751892
0.06465867161750793 -0.08754043281078339 1.3067266941070557
0.07584542781114578 -0.1527446061372757 1.2684214115142822
0.07198205590248108 -0.09959310293197632 1.2529704570770264
0.1788792610168457 -0.008197978138923645 0.16737809777259827
0.1912434995174408 -0.08811724931001663 0.18607892096042633
0.2059597671031952 -0.07605792582035065 0.1710645705461502
0.05445244908332825 0.0003643743693828583 1.7367165088653564
0.07439528405666351 -0.096652090549469 1.3074417114257812
0.19002428650856018 -0.03655291348695755 0.44795113801956177
0.16903440654277802 -0.09235921502113342 0.49999353289604187
0.19894644618034363 -0.049272987991571426 0.3920327126979828
0.0784640908241272 -0.04673444479703903 1.43137788772583
0.06534392386674881 -0.04202228784561157 1.427893877029419
0.08471191674470901 -0.03268936276435852 1.3855804204940796
0.11929608136415482 0.06473353505134583 0.9375527501106262
0.13198553025722504 -0.11667995154857635 0.8765630722045898
0.20701900124549866 -0.02978341653943062 0.26615089178085327
0.22183100879192352 -0.06087210774421692 0.2730252146720886
0.08920694887638092 -0.011929214000701904 1.380002737045288
0.15866371989250183 0.08049355447292328 1.2872626781463623
0.1688319593667984 0.10593020915985107 1.2628169059753418
0.08578325062990189 -0.22647899389266968 1.1662640571594238
0.14927774667739868 -0.06528262048959732 1.0091229677200317
0.15162867307662964 -0.12300006300210953 1.0042402744293213
0.11950735002756119 -0.007029607892036438 1.2041418552398682
0.1436275988817215 -0.11581451445817947 1.1000486612319946
0.16267737746238708 -0.07881025969982147 1.0826101303100586
0.14655356109142303 -0.14838625490665436 1.1651357412338257
-0.30028674006462097 -0.0663817822933197 1.0722936391830444
-0.30805566906929016 -0.12480950355529785 1.0552935600280762
-0.23820917308330536 -0.1048724502325058 1.1508440971374512
-0.2495720386505127 -0.10491390526294708 1.1982312202453613
-0.21574947237968445 -0.06877104938030243 1.157997488975525
-0.21573567390441895 -0.028607461601495743 1.178144931793213
-0.1922963410615921 -0.15264709293842316 0.884890079498291
-0.0902213305234909 0.17721469700336456 1.0295201539993286
-0.09834994375705719 0.16738148033618927 1.1316449642181396
-0.1646677851676941 -0.22871828079223633 1.1344151496887207
-0.13887649774551392 -0.16099441051483154 0.9658142328262329
-0.2769720256328583 -0.04604976624250412 0.2894168198108673
