0.5377292037010193 -0.15911522507667542 1.0144038200378418
0.5507687330245972 -0.1637081354856491 0.9766280055046082
0.5266680717468262 -0.21738788485527039 0.9528749585151672
0.5200459361076355 -0.22636373341083527 0.912898063659668
0.5051998496055603 -0.25421059131622314 0.8827089071273804
0.49098706245422363 -0.11837148666381836 1.3239271640777588
0.5966460704803467 -0.1885080486536026 0.9461919069290161
0.6231796741485596 -0.20648501813411713 0.8997758626937866
0.5822261571884155 -0.17869804799556732 1.073467493057251
0.6473626494407654 -0.2763363718986511 0.7258873581886292
0.6568623781204224 -0.23904608190059662 0.6889762878417969
0.6159922480583191 -0.21790523827075958 0.9305810928344727
0.6220753192901611 -0.2346235066652298 0.8789392709732056
0.6954624652862549 -0.17976193130016327 1.0587304830551147
0.648263692855835 -0.21478110551834106 1.021089792251587
0.6696096658706665 -0.19661486148834229 1.0140876770019531
0.6837506294250488 -0.23524633049964905 0.88347327709198
0.6871337294578552 -0.21519266068935394 0.8915614485740662
-0.47057265043258667 0.1366194188594818 1.0105475187301636
-0.20887622237205505 -0.05579033121466637 0.5144579410552979
-0.33905911445617676 -0.0008076503872871399 0.8326066136360168
-0.31764116883277893 -0.024418514221906662 0.8074524402618408
-0.3605770468711853 0.03305967524647713 0.8728680610656738
-0.4958328604698181 0.14600896835327148 1.3262760639190674
-0.34258460998535156 0.06752463430166245 0.908176064491272
-0.3281487226486206 0.04505693539977074 0.8819630146026611
-0.15862295031547546 -0.07054252922534943 0.559455394744873
-0.1444682776927948 -0.045315589755773544 0.5553755760192871
-0.295149564743042 -0.011166565120220184 0.8570446968078613
-0.27753567695617676 -0.03546209633350372 0.805349588394165
-0.29190367460250854 -0.029132667928934097 0.8488563299179077
-0.4754091203212738 0.12264084815979004 1.281160831451416
-0.4208022356033325 0.12747827172279358 1.178762435913086
-0.21757197380065918 0.08846093714237213 1.185516595840454
0.1547478884458542 -0.0032380539923906326 1.237687587738037
0.1401555985212326 -0.01558494009077549 1.245966911315918
0.24458494782447815 -0.0446462407708168 1.1926130056381226
0.25333866477012634 -0.032271549105644226 1.1189870834350586
0.31686800718307495 -0.03213841840624809 1.236819863319397
0.37967586517333984 -0.06300906091928482 1.1208361387252808
0.37120887637138367 -0.07759758830070496 1.1060261726379395
0.42088377475738525 -0.09410049021244049 1.2580772638320923
0.4365289509296417 -0.10166513919830322 1.3395034074783325
0.46175265312194824 -0.12670275568962097 1.1543729305267334
0.5017957091331482 -0.24543079733848572 0.8866344094276428
0.538923978805542 -0.24094952642917633 0.8363024592399597
0.5280460119247437 -0.2710074484348297 0.7945114374160767
0.5513248443603516 -0.25399649143218994 0.739751398563385
0.5384306311607361 -0.173330157995224 1.0787185430526733
0.5808423757553101 -0.3014836311340332 0.6706233024597168
-0.40876439213752747 0.05781012773513794 0.8597802519798279
-0.2034551352262497 -0.027728844434022903 0.7129491567611694
-0.17514464259147644 -0.04294850304722786 0.6603273153305054
-0.509791374206543 0.15291881561279297 1.4332257509231567
-0.24819821119308472 0.06959423422813416 1.048291802406311
-0.23378121852874756 0.06599642336368561 1.0187387466430664
-0.2233443558216095 0.059158485382795334 1.0515657663345337
-0.18585152924060822 0.06712090969085693 1.0942689180374146
-0.145921528339386 0.04882532358169556 1.2493712902069092
-0.1545899510383606 0.03173046559095383 1.2508647441864014
0.3593170642852783 -0.06577123701572418 1.388698697090149
0.3821295499801636 -0.07245828211307526 1.4395948648452759
0.5369847416877747 -0.1458592712879181 1.044299602508545
0.5364485383033752 -0.14532658457756042 0.9678989052772522
0.4881119132041931 -0.14770157635211945 1.1516733169555664
0.5211713314056396 -0.21086913347244263 0.862459123134613
0.5530892610549927 -0.16143161058425903 1.1218067407608032
0.5414623022079468 -0.14187659323215485 1.2086907625198364
0.6260897517204285 -0.1899031698703766 1.044717788696289
0.6255701184272766 -0.2061597853899002 0.9812057614326477
0.6375095248222351 -0.25528642535209656 0.8141906261444092
0.594193696975708 -0.27329298853874207 0.7297168970108032
0.6548247337341309 -0.2352897822856903 0.80412757396698
-0.20878592133522034 -0.07368016242980957 0.5435221195220947
-0.16708792746067047 -0.05245010182261467 0.5433763265609741
-0.2767287790775299 -0.043463192880153656 0.7558808922767639
-0.21019160747528076 -0.07321863621473312 0.6067314147949219
-0.1694619208574295 -0.07182002812623978 0.6045020222663879
-0.2845959961414337 0.024543289095163345 0.9138838052749634
-0.23737284541130066 0.0644540786743164 1.1968945264816284
-0.22204536199569702 0.06228752061724663 1.1426951885223389
-0.21933677792549133 0.07211896032094955 1.115599274635315
-0.2046090066432953 0.05164274573326111 1.192276120185852
-0.1749609112739563 0.036941275000572205 1.1268205642700195
-0.1694600135087967 0.051829226315021515 1.114957571029663
0.25787875056266785 -0.016799824312329292 1.124281644821167
0.46982234716415405 -0.1442754715681076 1.0801078081130981
0.5001533627510071 -0.1783362478017807 1.0769487619400024
0.5117459893226624 -0.19490331411361694 1.0339994430541992
0.6067788004875183 -0.2486133724451065 0.8647289872169495
-0.2734900712966919 -0.029220417141914368 0.6075780987739563
-0.26249873638153076 -0.05699973925948143 0.5779386758804321
-0.2560018002986908 -0.0460585318505764 0.5724657773971558
-0.30654770135879517 0.03575035557150841 0.7957111597061157
-0.2590829133987427 -0.02630622684955597 0.7751057147979736
-0.2755056619644165 -0.02573469839990139 0.8276041746139526
-0.17248600721359253 0.04441481828689575 1.212007761001587
-0.1464371383190155 0.041349947452545166 1.3194377422332764
-0.13434208929538727 0.045184679329395294 1.307979941368103
0.14057829976081848 -0.024202628061175346 1.2588320970535278
0.18617290258407593 0.011385701596736908 1.6400558948516846
0.3489389717578888 -0.007548484951257706 1.5825891494750977
0.3696868121623993 -0.027716118842363358 1.6005924940109253
0.42316555976867676 -0.047300100326538086 1.5317062139511108
0.5799601078033447 -0.11155970394611359 1.2814810276031494
0.60468989610672 -0.11129166930913925 1.316821813583374
0.6059012413024902 -0.0972452238202095 1.2559040784835815
0.6080625057220459 -0.12441892176866531 1.2405540943145752
0.6351574659347534 -0.11050260812044144 1.2565240859985352
-0.46023666858673096 0.11711999773979187 0.9418816566467285
-0.44171011447906494 0.126255601644516 0.924291729927063
-0.5259118676185608 0.17409399151802063 1.1892814636230469
-0.5037016868591309 0.17503562569618225 1.177472472190857
-0.20740357041358948 -0.019970819354057312 0.5599414706230164
-0.18741777539253235 -0.037444308400154114 0.5194878578186035
-0.24408608675003052 -0.06854736059904099 0.6447391510009766
-0.2818653881549835 0.020200859755277634 0.7491479516029358
-0.355532169342041 0.08116249740123749 0.9590742588043213
-0.5062556266784668 0.1586882770061493 1.4843363761901855
0.25318482518196106 -0.02008068934082985 1.1896229982376099
0.2696690559387207 -0.007033085450530052 1.4154832363128662
0.3959793746471405 -0.06863483786582947 1.1382777690887451
0.38059180974960327 -0.0421726368367672 1.264115810394287
0.43480294942855835 -0.09517847001552582 1.0710607767105103
0.45198890566825867 -0.11146198958158493 1.0208152532577515
0.4364730715751648 -0.125289186835289 1.1022231578826904
0.5397788882255554 -0.18669794499874115 0.8177009224891663
0.5452024340629578 -0.20419253408908844 0.8073298931121826
0.5443090200424194 -0.2467811554670334 0.875725269317627
0.6119382381439209 -0.17367157340049744 1.0423927307128906
0.6456884741783142 -0.19981656968593597 0.8235710859298706
-0.22873380780220032 -0.06087064370512962 0.5476454496383667
-0.1809394359588623 -0.06304241716861725 0.5119727253913879
-0.2211035043001175 0.0784912109375 1.0214534997940063
-0.19539403915405273 0.07931584119796753 1.1136271953582764
-0.17498013377189636 0.04876112937927246 1.1684203147888184
0.6180074214935303 -0.19350485503673553 0.8582886457443237
0.6449465155601501 -0.2505831718444824 0.6260125041007996
0.650404691696167 -0.2540152370929718 0.6409780979156494
-0.3035733699798584 -0.02894643135368824 0.7910752296447754
-0.22691279649734497 -0.027812208980321884 0.7256453037261963
-0.2087687999010086 -0.052098482847213745 0.6835141777992249
0.4598495066165924 -0.06940522789955139 1.4546302556991577
0.6596103310585022 -0.23162280023097992 0.6327778697013855
0.660058856010437 -0.22180593013763428 0.9459967613220215
-0.23957538604736328 0.09812422841787338 1.26041841506958
0.6414148211479187 -0.186335951089859 1.0353230237960815
-0.23961304128170013 -0.0016636215150356293 0.7996581792831421
0.5554035902023315 -0.28070130944252014 0.6864420175552368
0.6292074918746948 -0.18461376428604126 1.0228710174560547
-0.2938452363014221 -0.05509920418262482 0.7564084529876709
-0.3627745509147644 -0.1329074651002884 0.9695947766304016
-0.3682916760444641 -0.12924198806285858 0.980141282081604
-0.3507256805896759 -0.15048106014728546 0.9791747331619263
-0.35936105251312256 -0.14838463068008423 0.9891161918640137
-0.3380773365497589 -0.10127962380647659 1.0366625785827637
-0.34396088123321533 -0.11641111969947815 1.015881061553955
-0.3348884880542755 -0.10642171651124954 0.9863888621330261
-0.3330228626728058 -0.07815901935100555 1.0181708335876465
-0.3332112729549408 -0.13118161261081696 1.0218183994293213
-0.33570346236228943 -0.15914873778820038 1.0113584995269775
-0.3206297755241394 -0.06720377504825592 1.0960314273834229
-0.31595301628112793 -0.15773190557956696 1.0134168863296509
-0.33044326305389404 -0.12461641430854797 1.0119574069976807
-0.3172645568847656 -0.13966849446296692 1.0497832298278809
-0.3186442255973816 -0.11650729179382324 1.0416582822799683
-0.3105078935623169 -0.05627670884132385 1.0655131340026855
-0.3125527501106262 -0.10733893513679504 1.0407377481460571
-0.31214118003845215 -0.11350513249635696 1.065155029296875
-0.3165457844734192 -0.09110318869352341 1.0928055047988892
-0.3326716423034668 -0.051702141761779785 1.1266968250274658
-0.3233224153518677 -0.10133357346057892 1.1231492757797241
-0.2996675372123718 -0.0025541558861732483 1.1520215272903442
-0.3078327775001526 -0.014532007277011871 1.1087086200714111
-0.32230445742607117 -0.05187220871448517 1.1611744165420532
-0.2759677767753601 -0.012315435335040092 1.0975481271743774
-0.27837246656417847 -0.03428482264280319 1.210881233215332
-0.29214712977409363 -0.09453035145998001 1.1703513860702515
-0.27586615085601807 0.007487340830266476 1.1403710842132568
-0.24571076035499573 0.0007453002035617828 1.1505824327468872
-0.2484726905822754 0.009476205334067345 1.2071216106414795
-0.22584053874015808 0.009524960070848465 1.205599069595337
-0.21940986812114716 -0.0401395708322525 1.2784432172775269
-0.2573623061180115 -0.0715814083814621 1.2148491144180298
-0.21563944220542908 0.016299795359373093 1.249711513519287
-0.24191124737262726 -0.01118684932589531 1.2583413124084473
-0.20296813547611237 0.013724297285079956 1.2879760265350342
-0.18800723552703857 0.011991988867521286 1.322688341140747
-0.18190759420394897 -0.03519688919186592 1.3306992053985596
-0.2121654748916626 -0.07918571680784225 1.2372424602508545
-0.18905477225780487 0.057644933462142944 1.7135164737701416
-0.1303981989622116 0.10624615848064423 1.3880043029785156
-0.12907254695892334 0.06632668524980545 0.8679249286651611
-0.17533212900161743 0.016870807856321335 0.8769402503967285
-0.1522933691740036 -0.07552298158407211 0.8806214332580566
-0.19567713141441345 -0.10341434925794601 0.8724677562713623
-0.17113277316093445 0.07037733495235443 1.6228634119033813
-0.19739852845668793 0.04630910977721214 1.7349982261657715
-0.16468340158462524 0.051588162779808044 1.6860179901123047
-0.1447809338569641 0.081264428794384 1.6384718418121338
-0.1543012410402298 0.0625772774219513 1.5873852968215942
-0.1151861846446991 -0.0010836496949195862 1.0339126586914062
-0.1526326984167099 -0.04987796023488045 0.9987310171127319
-0.15926146507263184 -0.11828933656215668 0.9863393306732178
-0.15177281200885773 0.043848298490047455 1.51973557472229
-0.2938006520271301 -0.0638696625828743 0.06662757694721222
-0.30985569953918457 -0.12315209209918976 0.030650991946458817
-0.3139435350894928 -0.1482085883617401 0.04744721204042435
-0.1546601504087448 -0.022982284426689148 1.377946376800537
-0.14487017691135406 0.01710546389222145 1.3243848085403442
-0.13899056613445282 -0.009366542100906372 1.3054380416870117
-0.1627868413925171 -0.03431067243218422 1.366373062133789
-0.14601968228816986 -0.07811012119054794 1.3226155042648315
-0.23067355155944824 -0.02881075069308281 0.48232412338256836
-0.2317247986793518 -0.056764885783195496 0.39815714955329895
-0.24425208568572998 -0.0043662600219249725 0.33619916439056396
-0.24988912045955658 -0.03082537092268467 0.364834189414978
-0.1582244634628296 0.06067163124680519 1.6553829908370972
-0.14107085764408112 -0.0499432310461998 1.274596929550171
-0.14377932250499725 -0.06029554083943367 1.2324939966201782
-0.14672809839248657 -0.08472554385662079 1.2636353969573975
-0.17071367800235748 -0.09816177934408188 1.2649472951889038
-0.2403002828359604 0.006092391442507505 0.2621857225894928
-0.1547662317752838 -0.020344063639640808 1.515362024307251
-0.13930821418762207 0.04899592325091362 1.520670771598816
-0.14794506132602692 0.020172901451587677 1.5130280256271362
-0.19859610497951508 -0.06511390954256058 0.580477774143219
-0.11220833659172058 0.04184967279434204 1.7482026815414429
-0.13017083704471588 -0.10622880607843399 1.201786756515503
-0.11774539947509766 -0.034393060952425 1.149397850036621
-0.13804841041564941 -0.12380208820104599 0.7484681606292725
-0.11352167278528214 0.09203241765499115 1.6989012956619263
-0.13409896194934845 -0.05393848195672035 1.3904423713684082
-0.10480363667011261 -0.11820761859416962 0.8523660898208618
-0.13929161429405212 -0.13051417469978333 0.8741262555122375
-0.12298513948917389 -0.19781199097633362 0.9126075506210327
-0.10668788850307465 -0.21341198682785034 0.8498016595840454
-0.287418395280838 -0.1872779279947281 0.06458042562007904
-0.07586231827735901 0.11071406304836273 1.6982364654541016
-0.10560162365436554 0.05199778825044632 1.7333885431289673
-0.1529075652360916 0.002497013658285141 1.4281730651855469
-0.13599568605422974 -0.023011494427919388 1.473848819732666
-0.2085534930229187 0.017659878358244896 0.3309885561466217
-0.2375476211309433 -0.007640142925083637 0.21353833377361298
-0.27644801139831543 -0.18534672260284424 0.10800772160291672
-0.24347510933876038 -0.003491342067718506 0.07344848662614822
-0.11377806961536407 -0.006284981966018677 1.3098491430282593
-0.17960584163665771 -0.09181506186723709 0.5531297326087952
-0.2427704781293869 -0.14505791664123535 0.008017165586352348
-0.28383320569992065 -0.14532701671123505 0.004134328570216894
-0.10539387911558151 0.040271010249853134 1.5362404584884644
-0.11047794669866562 0.01133064553141594 1.4936749935150146
-0.032753173261880875 -0.2157016098499298 0.9039586186408997
-0.07832213491201401 0.08901453018188477 0.8634719848632812
-0.23682017624378204 -0.10958398878574371 0.27446630597114563
-0.21438464522361755 -0.10764238238334656 0.19866128265857697
-0.22200773656368256 -0.012703128159046173 0.11527041345834732
-0.09810970723628998 -0.006045058369636536 1.2751482725143433
-0.10622817277908325 -0.02626006491482258 1.234792947769165
-0.07970564812421799 -0.12484853714704514 1.3048155307769775
-0.14362646639347076 -0.025441698729991913 0.672657310962677
-0.12121053785085678 -0.12571708858013153 0.7398274540901184
-0.07594572007656097 -0.11743135005235672 0.8128374218940735
-0.20585720241069794 -0.11632062494754791 0.16492882370948792
-0.23055431246757507 -0.178828626871109 0.07294801622629166
-0.13047195971012115 -0.0744142234325409 1.4669519662857056
-0.09803028404712677 0.003994986414909363 1.3445709943771362
-0.06800705939531326 -0.0026147030293941498 1.2808717489242554
-0.14905142784118652 -0.09407615661621094 0.5753093957901001
-0.12632130086421967 -0.07461858540773392 0.5751954317092896
-0.16577234864234924 0.02182682789862156 0.5179696083068848
-0.10215611010789871 -0.062148261815309525 1.4381526708602905
-0.07590149343013763 -0.02420690655708313 1.422324299812317
-0.10470657795667648 0.01786525920033455 1.3840086460113525
-0.13820920884609222 -0.015597401186823845 0.5228696465492249
-0.06350620090961456 0.06375075876712799 1.7379660606384277
-0.12552480399608612 -0.11487799882888794 1.5981898307800293
-0.03769867494702339 -0.18812903761863708 0.9838026762008667
-0.08095316588878632 -0.03462833911180496 1.4354970455169678
-0.060433126986026764 -0.06349334865808487 1.420649528503418
-0.08045293390750885 -0.047541484236717224 1.4147486686706543
-0.07351960986852646 -0.11456779390573502 1.5314258337020874
-0.11065258085727692 -0.1056351512670517 1.4791696071624756
-0.05571756511926651 -0.004614830017089844 1.445621371269226
-0.10771253705024719 -0.04017047956585884 0.64186692237854
-0.023147735744714737 0.017312273383140564 1.758475661277771
-0.03260194882750511 0.118569515645504 1.66921067237854
-0.06231473758816719 -0.13114166259765625 1.4824236631393433
-0.07522203028202057 -0.10700815916061401 1.4376177787780762
-0.039004720747470856 -0.014711741358041763 1.4217007160186768
-0.0492929182946682 -0.11106261610984802 1.4385462999343872
-0.010070879012346268 0.0035735666751861572 1.3988049030303955
-0.02874068357050419 -0.016990918666124344 1.2741591930389404
-0.017906248569488525 0.07049345225095749 1.7360587120056152
-0.02022515796124935 -0.016312554478645325 1.4494378566741943
-0.02529556304216385 -0.05802442133426666 1.4354469776153564
0.011364739388227463 0.08425870537757874 1.698386311531067
-0.010156113654375076 0.027266934514045715 1.7415847778320312
-0.020182766020298004 -0.04964163899421692 1.424104928970337
0.007795009762048721 -0.08044088631868362 1.4597002267837524
-0.014514967799186707 -0.030050408095121384 1.4292078018188477
0.07990420609712601 -0.09154780209064484 0.5955336093902588
0.01122577115893364 0.007344868034124374 1.480301856994629
0.11618474125862122 -0.1115654930472374 0.5125598311424255
-0.005081917159259319 -0.16371923685073853 1.2638514041900635
0.04420694708824158 -0.046808768063783646 1.254318118095398
0.04696198180317879 -0.07302816212177277 1.143755316734314
0.15068797767162323 -0.1338994801044464 0.0755423828959465
0.1659199297428131 -0.1260974258184433 0.05572093278169632
0.1367570161819458 -0.003724128007888794 0.08557601273059845
0.00962820928543806 -0.1481533944606781 1.2496811151504517
-0.0003301464021205902 -0.18847735226154327 1.1752384901046753
0.07386749237775803 -0.14099235832691193 0.7354694604873657
0.13295483589172363 -0.05485384911298752 0.05978931486606598
0.03806634247303009 0.01728460192680359 1.7017252445220947
-0.006760302931070328 -0.12664403021335602 1.6066195964813232
-0.009776085615158081 -0.10992123931646347 1.5222926139831543
-0.007750321179628372 -0.11049412190914154 1.4789663553237915
0.09827716648578644 -0.1617860198020935 0.881096363067627
0.08555707335472107 0.0075041763484478 1.7300326824188232
0.01664813421666622 0.005791526287794113 1.532436728477478
0.014997932128608227 -0.014025449752807617 1.503189206123352
0.13924755156040192 -0.02196018397808075 0.3325915038585663
0.1314297765493393 -0.013357222080230713 0.27055495977401733
0.14890015125274658 0.005695030093193054 0.06797094643115997
0.029750782996416092 0.0033947713673114777 1.7853457927703857
0.04895908758044243 -0.015917181968688965 1.4011993408203125
0.09879662096500397 -0.21955519914627075 0.8675297498703003
0.08966045826673508 -0.13246193528175354 0.8682641983032227
0.1296626776456833 -0.19597375392913818 0.8699171543121338
0.09825354814529419 -0.04044235497713089 0.7561580538749695
0.19276902079582214 -0.12592975795269012 0.06772442907094955
0.04755428433418274 0.0060083381831645966 1.7127034664154053
0.03441678360104561 -0.16055570542812347 1.1426022052764893
0.03783342242240906 -0.13475356996059418 1.2668101787567139
0.03842031583189964 -0.1509350836277008 1.2644354104995728
0.12472468614578247 -0.18999210000038147 0.9370071291923523
0.03519387170672417 -0.06724157929420471 1.5440526008605957
0.04574530944228172 0.005546394735574722 1.5435113906860352
0.04095456004142761 -0.019715946167707443 1.5300869941711426
0.0469224788248539 -0.035682547837495804 1.5252759456634521
0.05480959638953209 -0.04772874340415001 1.502140998840332
0.1392509788274765 -0.06596723943948746 0.6545721888542175
0.13728193938732147 -0.1315816342830658 0.674046516418457
0.06118394806981087 -0.05085114389657974 1.3838456869125366
0.06626522541046143 -0.005835350602865219 1.323180913925171
0.034712858498096466 -0.008300043642520905 1.3405003547668457
0.04422932118177414 -0.02913813479244709 1.316432237625122
0.1262051910161972 -0.11926957964897156 0.8365991711616516
0.1934996396303177 -0.011531472206115723 0.07100378721952438
0.20662617683410645 -0.03559490293264389 0.066189244389534
0.05715794488787651 -0.002187136560678482 1.6667894124984741
0.07340343296527863 -0.029020484536886215 1.3759313821792603
0.20243999361991882 -0.06800691038370132 0.31795206665992737
0.08181878179311752 0.014074359089136124 1.6427621841430664
0.06035632640123367 0.041172344237565994 1.6473376750946045
0.06817769259214401 0.011266224086284637 1.6114068031311035
0.20954489707946777 -0.042749084532260895 0.14242912828922272
0.21662934124469757 -0.0937122106552124 0.06903967261314392
0.20567278563976288 -0.12353131920099258 0.09552524983882904
0.15108564496040344 -0.01573033630847931 0.977154016494751
0.15125176310539246 -0.01642647758126259 0.87852942943573
0.0825873389840126 -0.010351508855819702 1.7261887788772583
0.16820994019508362 0.03692411631345749 0.8852867484092712
0.1793980598449707 0.00038263434544205666 0.9488327503204346
0.08997385203838348 -0.015897344797849655 1.3181818723678589
0.10106401145458221 -0.036104172468185425 1.3056659698486328
0.0723150297999382 -0.053328946232795715 1.3525314331054688
0.10153724998235703 -0.025489889085292816 1.2643709182739258
0.09179700911045074 -0.02868584543466568 1.2441673278808594
0.10476087033748627 -0.10243944823741913 1.2329005002975464
0.11752881854772568 -0.05911552533507347 1.2665730714797974
0.13919195532798767 -0.038489930331707 1.2007384300231934
0.1549140214920044 -0.04782610014081001 1.1255601644515991
0.17917698621749878 -0.06297773867845535 1.140845537185669
0.164203479886055 -0.07579899579286575 1.1913845539093018
0.1355436146259308 -0.10915812104940414 1.2116625308990479
0.18296709656715393 -0.08660346269607544 1.0898340940475464
0.19576087594032288 -0.14934244751930237 1.1448214054107666
0.20579393208026886 -0.12893003225326538 1.1245602369308472
0.1985059380531311 -0.10368124395608902 1.0966590642929077
0.1521691232919693 -0.18304945528507233 1.1292479038238525
0.17695249617099762 -0.15567372739315033 1.0955584049224854
0.1791313737630844 -0.1372189074754715 1.0813300609588623
0.21075522899627686 -0.22208791971206665 0.9836894273757935
0.15554659068584442 -0.1706431806087494 1.0963006019592285
0.15516310930252075 -0.189138263463974 1.0680501461029053
0.19559817016124725 -0.17376109957695007 1.013200283050537
0.16060401499271393 -0.17985600233078003 1.042405128479004
0.15306627750396729 -0.20613212883472443 1.0469245910644531
0.17695209383964539 -0.20413532853126526 1.0169477462768555
0.19491884112358093 -0.2109864354133606 1.0123010873794556
0.14854849874973297 -0.22831344604492188 1.0213264226913452
0.1725606918334961 -0.22362776100635529 1.0120525360107422
0.15986751019954681 -0.22384732961654663 1.0210835933685303
0.20316457748413086 -0.22807708382606506 0.9641035795211792
0.1663205623626709 -0.238617941737175 1.0090943574905396
0.18783603608608246 -0.21091073751449585 0.9774602651596069
0.1870618760585785 -0.2434491217136383 0.9775659441947937
0.2032858431339264 -0.23810531198978424 0.9801409244537354
-0.31192585825920105 -0.04655783250927925 1.089436411857605
-0.3015866279602051 -0.10143868625164032 1.079000473022461
-0.28926312923431396 -0.08539947867393494 1.075399398803711
-0.30482134222984314 -0.11774098128080368 1.1155885457992554
-0.25894027948379517 -0.04516889527440071 1.083829402923584
-0.2799738049507141 -0.1189543604850769 1.0985920429229736
-0.20432047545909882 -0.008645448833703995 1.2271829843521118
-0.20177267491817474 -0.06116696074604988 1.2058537006378174
-0.1715429127216339 -0.09675504267215729 0.9657031297683716
-0.17544963955879211 -0.014897497370839119 0.9474525451660156
-0.1256096363067627 0.05116688087582588 0.9312176704406738
-0.09205157309770584 0.14661762118339539 1.2528109550476074
-0.08453202247619629 0.1438377946615219 1.1947731971740723
-0.08228881657123566 0.16703061759471893 1.1681218147277832
-0.1500854790210724 -0.011126324534416199 0.9670118093490601
-0.20146544277668 0.040141619741916656 1.7044957876205444
-0.15391133725643158 0.007632844150066376 1.3444098234176636
-0.17429706454277039 0.006960559636354446 1.279080867767334
-0.017369573935866356 0.1561674177646637 1.0732700824737549
-0.03963116928935051 0.16030463576316833 0.994158148765564
-0.2957131564617157 -0.08141002804040909 0.12578557431697845
-0.314470112323761 -0.13265572488307953 0.07652539014816284
-0.17886421084403992 0.02911493182182312 1.687793254852295
-0.1633327305316925 0.04113507643342018 1.6338911056518555
-0.15770499408245087 -0.12094542384147644 1.2410708665847778
-0.15756340324878693 -0.13708969950675964 1.2154399156570435
-0.16189533472061157 -0.15684956312179565 1.2112499475479126
-0.10106053948402405 0.10900480300188065 1.3644263744354248
-0.09294001758098602 0.10082831978797913 1.3604538440704346
-0.13843441009521484 -0.12351542711257935 1.2562798261642456
-0.14763374626636505 -0.05378829687833786 1.1983486413955688
-0.26670998334884644 -0.09814346581697464 0.19051320850849152
-0.27409347891807556 -0.053075361996889114 0.19829216599464417
-0.044514238834381104 0.12316645681858063 1.2475688457489014
-0.15968844294548035 -0.009394209831953049 1.4403605461120605
-0.15830273926258087 -0.0038253366947174072 1.4197008609771729
-0.14474384486675262 -0.007337991148233414 1.4025352001190186
-0.15908466279506683 -0.0022699907422065735 1.3994166851043701
-0.15870918333530426 -0.02045612409710884 1.3900542259216309
-0.15003708004951477 -0.10822798311710358 0.7948468327522278
-0.16217564046382904 -0.06956005096435547 0.7906173467636108
-0.007626679725944996 0.21296203136444092 1.0836447477340698
-0.01070784404873848 0.21074366569519043 1.1332734823226929
-0.12943267822265625 -0.11674008518457413 1.251447319984436
-0.12796831130981445 -0.10896848887205124 0.8666150569915771
-0.26847636699676514 -0.018913384526968002 0.12289951741695404
-0.2737259566783905 -0.01891859993338585 0.08570680022239685
-0.13893812894821167 -0.18516767024993896 0.8521162867546082
-0.041965484619140625 0.18259423971176147 1.230353593826294
-0.16214558482170105 -0.08330746740102768 1.5957585573196411
-0.13000540435314178 0.02594991773366928 1.5175025463104248
-0.09438194334506989 0.10773903131484985 1.4893968105316162
-0.09648602455854416 0.0729900598526001 1.5457301139831543
-0.11652160435914993 0.0731438472867012 1.5196173191070557
-0.10084851086139679 0.08979165554046631 1.4366374015808105
-0.04973333701491356 0.1273278295993805 1.5333037376403809
-0.12235020101070404 -0.008911807090044022 1.469738483428955
-0.08367880433797836 0.04372169449925423 0.974175214767456
-0.14011342823505402 0.03508275747299194 1.786811351776123
-0.14936235547065735 0.029169730842113495 1.7807221412658691
-0.15428337454795837 0.018457084894180298 1.7670750617980957
-0.019394351169466972 0.06965945661067963 1.4313775300979614
-0.07116591930389404 0.12117088586091995 1.4078052043914795
-0.21303781867027283 -0.08161252737045288 0.04741299897432327
-0.019444836303591728 0.1564178168773651 1.356542944908142
-0.12731069326400757 -0.08488568663597107 1.5099719762802124
-0.18264520168304443 -0.058569926768541336 0.4003364145755768
-0.060807835310697556 0.06978894770145416 1.4895052909851074
-0.08560255169868469 0.03154926747083664 1.4713687896728516
-0.027381937950849533 0.13160935044288635 1.4561810493469238
-0.03231186047196388 0.050896480679512024 0.8572434186935425
-0.19149991869926453 0.003904191544279456 0.3511064648628235
0.03740127384662628 0.17128100991249084 0.9967514276504517
-0.031156916171312332 0.035711728036403656 1.031965970993042
-0.11117658764123917 -0.14851903915405273 1.2509632110595703
-0.10389284044504166 -0.15136104822158813 1.1518759727478027
-0.18016541004180908 -0.023979606106877327 0.32859671115875244
-0.16562354564666748 -0.038564663380384445 0.266160249710083
-0.1961745023727417 0.010732106864452362 0.26155605912208557
-0.06774094700813293 0.05292193219065666 1.5067323446273804
-0.093351811170578 -0.10140696167945862 0.6897737383842468
-0.11907625943422318 -0.027251627296209335 0.6632983088493347
0.042137809097766876 0.21304556727409363 1.1253145933151245
0.048584550619125366 0.20429584383964539 1.0431303977966309
-0.058924321085214615 -0.18455207347869873 1.1778258085250854
-0.19463860988616943 -0.0675559863448143 0.1307978630065918
0.03701116144657135 0.15562602877616882 1.0340971946716309
0.02680063061416149 0.13483190536499023 1.0698643922805786
-0.0008470229804515839 0.04847978800535202 1.4997389316558838
-0.09317838400602341 -0.08130399882793427 1.3839998245239258
0.03270301967859268 0.15981270372867584 1.3389523029327393
0.025318369269371033 0.05912725627422333 1.422173261642456
-0.01042245328426361 0.041403915733098984 1.4997907876968384
0.08446765691041946 0.14540892839431763 1.0443123579025269
0.10248041152954102 0.1326432079076767 1.0007908344268799
-0.030561717227101326 -0.09861038625240326 1.3800992965698242
0.013367017731070518 0.03393610566854477 1.0304089784622192
-0.031753454357385635 -0.19994838535785675 1.1068618297576904
0.09184481203556061 0.12897947430610657 1.364101529121399
0.008257992565631866 -0.0160208772867918 1.2910932302474976
0.06019227206707001 0.10481558740139008 1.4632649421691895
0.025924578309059143 0.06049230694770813 1.4638742208480835
0.022566912695765495 -0.034776721149683 1.2037255764007568
0.045592065900564194 0.09288337826728821 0.9215922355651855
-0.014541532844305038 -0.017467595636844635 1.7235127687454224
0.13221918046474457 -0.10491692274808884 0.08691597729921341
0.1228882372379303 -0.11396396160125732 0.06178361922502518
0.12574902176856995 -0.04884136840701103 0.09958420693874359
-0.050783682614564896 -0.12993183732032776 1.5995979309082031
0.07010238617658615 -0.06236659735441208 0.7196736931800842
0.081144779920578 0.044857509434223175 1.4337552785873413
0.018973445519804955 -0.04764707013964653 1.4694485664367676
0.05686893314123154 -0.0334102101624012 1.4194464683532715
0.01747598871588707 -0.0035243183374404907 1.39609694480896
0.11842525005340576 -0.03565588220953941 0.4002265930175781
0.14140157401561737 -0.12128956615924835 0.24325516819953918
0.13621138036251068 -0.034863125532865524 0.20557191967964172
0.1467202752828598 0.13105981051921844 1.052868366241455
0.14242516458034515 0.15702450275421143 1.0217267274856567
0.1073049008846283 -0.14587748050689697 0.747295618057251
0.11340255290269852 -0.0523403026163578 0.6638647317886353
-0.01709575206041336 -0.0642705038189888 1.7086834907531738
0.023448042571544647 -0.07673761248588562 1.6664361953735352
0.13070836663246155 -0.1302087903022766 0.5564582347869873
0.006661677733063698 -0.011503633111715317 1.7372797727584839
0.029844053089618683 -0.02887636423110962 1.6875051259994507
0.05850481986999512 -0.09985058009624481 1.1395196914672852
0.06368988007307053 -0.08853080868721008 1.1133633852005005
0.05388988181948662 -0.1600145399570465 1.0961915254592896
0.006724022328853607 -0.11408869922161102 1.5989248752593994
0.03192377835512161 -0.04803648591041565 1.4993199110031128
0.02076161839067936 -0.08725569397211075 1.4966284036636353
0.184457466006279 0.10841650515794754 1.0158443450927734
0.052524421364068985 -0.09199857711791992 1.2922792434692383
0.0621023066341877 -0.1548372209072113 1.2557694911956787
0.06289751082658768 -0.10400113463401794 1.238033413887024
0.1774580478668213 -0.01874319091439247 0.15860065817832947
0.19286566972732544 -0.10035523027181625 0.18030701577663422
0.20726549625396729 -0.08737558871507645 0.16576120257377625
0.045830268412828445 -0.008303053677082062 1.7116992473602295
0.060967013239860535 -0.10056116431951523 1.2943766117095947
0.1917770951986313 -0.03899823874235153 0.4411221444606781
0.1712559163570404 -0.09423867613077164 0.4939185678958893
0.20023378729820251 -0.05322415754199028 0.3842080235481262
0.06922996789216995 -0.04963591322302818 1.4128915071487427
0.05613536760210991 -0.04662027955055237 1.4093842506408691
0.07582376152276993 -0.038735728710889816 1.3686062097549438
0.1179986447095871 0.06294883042573929 0.9310415387153625
0.13054721057415009 -0.11716455221176147 0.8719816207885742
0.20561422407627106 -0.03817322850227356 0.2584840953350067
0.22218547761440277 -0.06883866339921951 0.265880286693573
0.07879573106765747 -0.019347790628671646 1.3613786697387695
0.1578514724969864 0.06408829987049103 1.282917857170105
0.1697358936071396 0.0885593369603157 1.2608301639556885
0.06967195123434067 -0.2272537797689438 1.155271053314209
0.14683398604393005 -0.06672043353319168 1.0025057792663574
0.1487288475036621 -0.12402528524398804 0.9968763589859009
0.10439527034759521 -0.02317553386092186 1.189620852470398
0.11477959156036377 -0.1368337869644165 1.0905544757843018
0.1357099413871765 -0.10156133025884628 1.0707423686981201
0.1168440654873848 -0.16528159379959106 1.1576944589614868
-0.2959100008010864 -0.06129186600446701 1.0648887157440186
-0.304932177066803 -0.11748521775007248 1.0499814748764038
-0.23846986889839172 -0.09781075268983841 1.1416058540344238
-0.24939268827438354 -0.09692981839179993 1.1884245872497559
-0.21721729636192322 -0.0655415803194046 1.1496391296386719
-0.21581897139549255 -0.026833489537239075 1.1678600311279297
-0.19027340412139893 -0.15109814703464508 0.8798956871032715
-0.06893784552812576 0.16935063898563385 1.0324468612670898
-0.08083014190196991 0.1598418653011322 1.1306325197219849
-0.17102175951004028 -0.22192227840423584 1.1220946311950684
-0.13861621916294098 -0.1592443585395813 0.9573465585708618
-0.279390811920166 -0.04033290594816208 0.2865988314151764
-0.25718826055526733 -0.09006617218255997 0.30100369453430176
-0.20417462289333344 0.01345827803015709 0.5050520300865173
-0.14989882707595825 -0.19120806455612183 0.8580303192138672
-0.18124507367610931 -0.0464467816054821 0.6475480794906616
-0.16970878839492798 -0.09012889862060547 0.6992539167404175
-0.1516408771276474 -0.03330976888537407 0.7061887979507446
-0.10244002938270569 -0.01931753195822239 1.0932773351669312
-0.11549787223339081 -0.07650695741176605 1.1169929504394531
-0.0009168190881609917 0.20096150040626526 1.2022464275360107
-0.11297035217285156 -0.018979134038090706 0.8622004985809326
-0.21369868516921997 -0.1024276539683342 0.3128848671913147
-0.11835724115371704 -0.02260076068341732 1.196265697479248
-0.0951845794916153 -0.039513565599918365 1.1258370876312256
-0.19631816446781158 -0.08007396757602692 0.45291510224342346
-0.14396657049655914 0.013911888003349304 1.7054086923599243
-0.15112584829330444 -0.020828213542699814 1.692497968673706
-0.11534340679645538 -0.05776037648320198 1.701284408569336
-0.13461185991764069 -0.09246578812599182 1.6597143411636353
-0.14792552590370178 -0.08526859432458878 1.5610244274139404
-0.18988147377967834 -0.0596078522503376 0.34540238976478577
-0.08545500040054321 -0.11492964625358582 0.7392081618309021
-0.16892126202583313 -0.0686381608247757 0.27406027913093567
-0.18715961277484894 -0.09729024767875671 0.2800235450267792
-0.20455287396907806 -0.017597999423742294 0.20906886458396912
-0.04539601504802704 0.06425168365240097 0.9633130431175232
-0.09933482110500336 0.02213488146662712 1.749950885772705
-0.117230124771595 0.012035582214593887 1.7365630865097046
0.06628045439720154 0.12092287838459015 1.187623143196106
-0.013597216457128525 0.1403096318244934 1.1834492683410645
0.04086120054125786 0.11237525939941406 1.240668773651123
-0.00872349739074707 -0.03436955437064171 1.2408171892166138
0.06264109909534454 0.18570387363433838 1.235871434211731
0.06947498768568039 0.13350829482078552 1.0755482912063599
0.12447147816419601 0.1892319768667221 1.161600112915039
0.010749844834208488 0.10581405460834503 1.6433136463165283
0.0988236516714096 0.11764655262231827 1.085636854171753
0.03914959728717804 -0.2181839942932129 0.9075925350189209
0.10666851699352264 -0.08459275960922241 0.26183804869651794
0.13784125447273254 -0.09500500559806824 0.2021077573299408
0.06901146471500397 -0.12992438673973083 0.7023670673370361
0.031722553074359894 0.005564871709793806 1.0674679279327393
0.09553070366382599 -0.04873106628656387 0.573003351688385
0.09576228260993958 0.08156383782625198 1.306814193725586
0.039909474551677704 -0.05789834260940552 1.4029463529586792
0.04101097583770752 0.08951839059591293 1.607694387435913
0.029337212443351746 0.02443131059408188 1.5745797157287598
0.03535193204879761 0.040113165974617004 1.5517685413360596
0.0011324435472488403 -0.005399499088525772 1.783816933631897
0.040747541934251785 -0.07985556870698929 1.3401685953140259
0.16050022840499878 -0.017924204468727112 0.5064586400985718
0.1275305449962616 -0.005510745570063591 0.5020538568496704
0.15662050247192383 -0.012067127972841263 0.35194140672683716
0.17894762754440308 -0.015547331422567368 0.3233878016471863
0.05561324954032898 -0.04557929188013077 1.4904348850250244
0.04272356629371643 -0.05420483276247978 1.500069260597229
0.05602680519223213 -0.050016194581985474 1.4841806888580322
0.13256913423538208 -0.05218574404716492 0.7713949084281921
0.15266677737236023 -0.09547621011734009 0.6415519714355469
0.11656000465154648 0.023074563592672348 0.9715268611907959
0.0946875512599945 -0.07965265959501266 1.0924310684204102
0.08707600831985474 -0.1333422064781189 1.081673264503479
0.09732111543416977 -0.15770429372787476 1.0316088199615479
0.058335673063993454 -0.01111973449587822 1.6114377975463867
0.07042108476161957 -0.016600387170910835 1.5301822423934937
0.05707976222038269 -0.14756959676742554 1.2370200157165527
0.0933135598897934 0.052590638399124146 1.5195086002349854
0.07916374504566193 0.025541089475154877 1.5588945150375366
0.20730049908161163 -0.01619991660118103 0.09441445767879486
0.22124460339546204 -0.05932892486453056 0.08108993619680405
0.10218372195959091 0.030910726636648178 1.4858802556991577
0.11051128804683685 0.04316091537475586 1.454459547996521
0.12046599388122559 0.03099841997027397 1.4216129779815674
0.12344804406166077 0.04324730485677719 1.4076423645019531
0.06643113493919373 -0.22848907113075256 1.1743165254592896
0.17659497261047363 -0.15814268589019775 0.8870087265968323
0.08013744652271271 -0.20433658361434937 1.1855156421661377
0.0768057331442833 -0.23042160272598267 1.1747899055480957
0.20365458726882935 -0.11347897350788116 0.9075213074684143
0.20635268092155457 -0.090594083070755 0.888033926486969
0.21486550569534302 -0.05567508190870285 0.8984670639038086
-0.22162789106369019 -0.08863413333892822 1.1941161155700684
-0.1820453256368637 -0.08743289113044739 1.2578518390655518
-0.19011984765529633 -0.08730123192071915 1.2421656847000122
-0.18164502084255219 -0.07903805375099182 1.24766206741333
-0.1767956018447876 -0.0782330110669136 1.264580488204956
-0.19532756507396698 0.002428918145596981 0.8882957100868225
-0.1514734923839569 -0.04514626786112785 1.2815510034561157
-0.14587149024009705 -0.06377251446247101 1.0671182870864868
-0.13446727395057678 0.10211701691150665 1.5243674516677856
-0.14916172623634338 -0.08073984831571579 1.1890383958816528
-0.14762026071548462 -0.07639298588037491 1.13494873046875
-0.10209660232067108 0.10279584676027298 1.4207967519760132
-0.08590243756771088 0.09579218178987503 1.383655309677124
-0.13490836322307587 -0.13954970240592957 1.031982183456421
-0.10081403702497482 -0.1652410477399826 0.9933642148971558
-0.13847023248672485 -0.02684369869530201 0.7914575338363647
-0.01094831619411707 0.17924611270427704 1.2685189247131348
-0.07797300815582275 0.12484459578990936 1.6178606748580933
-0.2007097601890564 -0.034092437475919724 0.07582114636898041
-0.21431107819080353 -0.01951397769153118 0.06728067249059677
-0.08152001351118088 0.025071995332837105 0.867836058139801
0.0015560835599899292 0.09427668154239655 0.8535284996032715
-0.06710352003574371 -0.020931895822286606 0.8466922044754028
0.028191838413476944 0.0839758813381195 1.3295236825942993
-0.05404021218419075 -0.07957711070775986 0.7646385431289673
-0.08443842083215714 -0.11703449487686157 1.5753896236419678
-0.00690948311239481 0.014205618761479855 0.8726352453231812
-0.005856008268892765 -0.02696596272289753 0.8515824675559998
0.017650671303272247 -0.11924247443675995 0.8569248914718628
-0.07855810970067978 -0.16308048367500305 0.8567343354225159
-0.008432051166892052 -0.22427178919315338 0.8493109941482544
0.03762363642454147 -0.11117963492870331 0.8372799754142761
-0.009078452363610268 -0.16028159856796265 0.8608177900314331
-0.019507355988025665 0.025052372366189957 1.469512701034546
0.029615646228194237 -0.03775075078010559 0.8492637872695923
0.034578077495098114 -0.05060948431491852 0.8331329226493835
-0.00686824694275856 0.032034166157245636 1.5476081371307373
-0.00196712464094162 0.038246192038059235 1.5230841636657715
0.04606166109442711 -0.125016450881958 0.8530737161636353
0.13176229596138 0.05638726055622101 0.8653692603111267
0.10775504261255264 -0.05602215602993965 0.26104578375816345
0.05613367259502411 -0.03587053716182709 0.8229170441627502
0.10113395750522614 0.11253201961517334 1.2175822257995605
0.13619540631771088 -0.08599666506052017 0.3866850435733795
0.13318443298339844 -0.06693628430366516 0.3252631425857544
0.14939934015274048 -0.08884970843791962 0.34122300148010254
0.14784514904022217 -0.12730586528778076 0.2847822904586792
0.08092217147350311 0.06735348701477051 1.4877196550369263
0.08261161297559738 -0.01735788583755493 0.8574764132499695
0.11022454500198364 -0.03633880615234375 0.838545560836792
0.06336319446563721 -0.07680454105138779 1.2403631210327148
0.16691921651363373 -0.09998595714569092 0.43535059690475464
0.06428474932909012 0.04284416511654854 1.5941495895385742
0.049359600991010666 -0.03207448869943619 1.2879252433776855
0.18001188337802887 -0.08811458945274353 0.34247663617134094
0.12993957102298737 0.1684454083442688 1.2186347246170044
0.07177990674972534 -0.06050431355834007 1.213346242904663
0.1660836935043335 -0.025053342804312706 0.2164018303155899
0.17419463396072388 0.1552359163761139 1.140167236328125
0.1639830768108368 -0.014624005183577538 0.252855122089386
0.191842183470726 -0.12768195569515228 0.26076021790504456
0.13180266320705414 0.05990412086248398 1.3287502527236938
0.06494149565696716 -0.032046232372522354 1.4479247331619263
0.07266886532306671 -0.0309588722884655 1.4159225225448608
0.06279733031988144 -0.030135005712509155 1.448167324066162
0.08719582110643387 -0.030741579830646515 1.3956907987594604
0.07380638271570206 -0.17079801857471466 1.224574089050293
0.05990000069141388 -0.18070341646671295 1.2188491821289062
0.16301144659519196 0.07709736377000809 1.2408400774002075
0.19225013256072998 0.10682225227355957 1.1834051609039307
0.18764549493789673 0.10133763402700424 1.1499665975570679
0.07956250011920929 -0.04308372363448143 1.2449692487716675
0.07109624147415161 -0.07348395138978958 1.2601934671401978
0.15958929061889648 -0.1831991970539093 0.8960856795310974
0.07811084389686584 -0.08280904591083527 1.271430492401123
0.0740911215543747 -0.11052136868238449 1.1708256006240845
0.09740398824214935 -0.05337588116526604 1.1488888263702393
0.08306554704904556 -0.09356068074703217 1.1384210586547852
0.12874600291252136 -0.1426851898431778 1.1892337799072266
0.15682192146778107 -0.13805387914180756 1.0608433485031128
0.1265626698732376 -0.17613224685192108 1.1147780418395996
-0.173810675740242 -0.20706094801425934 1.1600003242492676
-0.1686006784439087 -0.13993939757347107 1.2056713104248047
-0.17551307380199432 -0.1257161945104599 1.2255042791366577
-0.16317158937454224 -0.19440311193466187 1.1614079475402832
-0.11962177604436874 0.10837709903717041 1.449910283088684
-0.12471026182174683 0.0966305062174797 1.4338839054107666
-0.12002424895763397 0.11223382502794266 1.39127516746521
-0.16663341224193573 0.015378370881080627 1.668504238128662
-0.1707896888256073 -0.0182320699095726 1.5848058462142944
-0.24749118089675903 -0.05710422992706299 0.34402188658714294
-0.133232980966568 -0.06731004267930984 0.8595587015151978
-0.13669149577617645 -0.09161849319934845 0.84015291929245
-0.05423673987388611 0.18098938465118408 1.0120089054107666
-0.11837492883205414 -0.11513285338878632 1.2439755201339722
-0.1201687902212143 -0.029181456193327904 0.8361294269561768
-0.12181437015533447 -0.0034148767590522766 1.7156212329864502
-0.10908782482147217 -0.11970214545726776 1.1243174076080322
-0.07775356620550156 -0.18141092360019684 1.1214417219161987
-0.0089466143399477 0.15551038086414337 1.1141633987426758
0.060611411929130554 0.13581860065460205 1.1143708229064941
-0.07282493263483047 -0.025565382093191147 1.1410059928894043
-0.05545641481876373 -0.11454567313194275 0.85014408826828
-0.06442943215370178 -0.18749195337295532 1.054043173789978
-0.051637016236782074 0.015991579741239548 1.0521116256713867
-0.07513657957315445 -0.10522669553756714 1.6731667518615723
0.03756444901227951 -0.10248719155788422 0.7732884883880615
-0.01626444421708584 0.10402839630842209 1.298301339149475
0.1200559139251709 -0.07494057714939117 0.05741972476243973
0.1653946489095688 0.170054093003273 1.0802483558654785
0.12209787964820862 0.12583939731121063 1.1362046003341675
0.1184910386800766 0.19657039642333984 1.088702917098999
0.10040950775146484 0.08558795601129532 0.8657143115997314
0.17858146131038666 0.009592972695827484 0.08339905738830566
0.12448817491531372 -0.03847568482160568 0.8656913042068481
0.16973675787448883 -0.09063712507486343 0.39396440982818604
0.06932581216096878 -0.05216257646679878 1.3836548328399658
0.06391066312789917 -0.07581313699483871 1.3089486360549927
0.1998966783285141 -0.0015430040657520294 0.8887548446655273
0.19565945863723755 -0.05233011022210121 0.9532984495162964
0.1445321887731552 -0.16463369131088257 1.0792397260665894
-0.2586106061935425 -0.11147181689739227 1.158408761024475
-0.19352495670318604 -0.08269641548395157 0.9418045282363892
-0.21206608414649963 -0.07218319922685623 0.8907687664031982
-0.12319018691778183 0.09715314209461212 1.3863509893417358
-0.09379299730062485 0.12540604174137115 1.254006266593933
-0.14895929396152496 0.027505595237016678 1.5071020126342773
-0.13894295692443848 -0.05540992319583893 1.0351486206054688
-0.14606548845767975 -0.08458870649337769 1.0733325481414795
-0.14809131622314453 0.03079349175095558 1.5077176094055176
-0.14832909405231476 0.017591334879398346 1.4945673942565918
-0.14915738999843597 0.023927543312311172 1.5028183460235596
-0.15036600828170776 0.02122803032398224 1.5053187608718872
-0.1561337262392044 0.010583460330963135 1.4950096607208252
-0.24236252903938293 -0.11755691468715668 0.19383056461811066
-0.1713988333940506 -0.05350154638290405 1.6341944932937622
-0.046749457716941833 -0.016471628099679947 1.1954636573791504
-0.2065841406583786 -0.13380204141139984 0.06716049462556839
-0.06502982974052429 -0.020569495856761932 1.2369520664215088
-0.019292544573545456 -0.03129642456769943 1.1532045602798462
-0.034805409610271454 0.09252476692199707 0.9262775182723999
-0.06442891061306 -0.01825942099094391 1.7325094938278198
-0.07665528357028961 -0.06605353951454163 0.7046496868133545
0.008883336558938026 0.10436584800481796 1.2666058540344238
-0.0048467256128787994 -0.19221435487270355 1.0041661262512207
-0.0597495511174202 -0.17872563004493713 1.2221004962921143
