-0.6868616342544556 -0.2706301212310791 1.247201681137085
-0.6006964445114136 -0.21503254771232605 1.4429666996002197
-0.613823652267456 -0.2066519558429718 1.3577831983566284
-0.41023823618888855 -0.1481446623802185 1.578368902206421
-0.522581160068512 -0.20541533827781677 1.3968604803085327
-0.5324462652206421 -0.19064538180828094 1.2862226963043213
-0.5287995338439941 -0.14737603068351746 1.2808541059494019
-0.5738884806632996 -0.16386768221855164 1.2180075645446777
-0.44733721017837524 -0.15308043360710144 1.299497127532959
-0.5360606908798218 -0.12730632722377777 1.2110651731491089
-0.4375946521759033 -0.13942870497703552 1.4803545475006104
-0.3998771011829376 -0.14979691803455353 1.4216524362564087
-0.4785991311073303 -0.09838566929101944 1.1795523166656494
-0.43503716588020325 -0.07877172529697418 1.1958645582199097
-0.22798222303390503 -0.06723470240831375 1.516123652458191
-0.3222652077674866 -0.09961767494678497 1.327078938484192
0.41065871715545654 -0.12765401601791382 1.2317566871643066
0.22774487733840942 -0.08824168145656586 1.5157397985458374
0.47093266248703003 -0.10619445890188217 1.293371558189392
0.4700797200202942 -0.13954731822013855 1.2813282012939453
0.49142903089523315 -0.101666659116745 1.223058819770813
0.4757668972015381 -0.12913431227207184 1.4125655889511108
0.5212199091911316 -0.17447666823863983 1.3325380086898804
0.6337792873382568 -0.1297881305217743 1.2103463411331177
0.478112131357193 -0.14613601565361023 1.5833256244659424
0.6435286998748779 -0.21439269185066223 1.3358162641525269
0.6081700325012207 -0.16992312669754028 1.563514232635498
0.9533445239067078 -0.2537323832511902 1.1255656480789185
0.9793792366981506 -0.24451449513435364 1.120116949081421
1.0414446592330933 -0.25985047221183777 1.0228992700576782
1.0861388444900513 -0.266029417514801 0.9565527439117432
1.0730259418487549 -0.29356449842453003 0.9672216176986694
0.811249852180481 -0.19924615323543549 1.3718137741088867
1.054367184638977 -0.2447354793548584 1.031635046005249
1.0948079824447632 -0.252448171377182 0.9650065898895264
0.9370249509811401 -0.3122235834598541 1.1867926120758057
0.9103195667266846 -0.3248782157897949 1.2327008247375488
0.9198897480964661 -0.34967508912086487 1.2020978927612305
0.9753131866455078 -0.32575514912605286 1.1489382982254028
1.0702669620513916 -0.23924842476844788 1.0690131187438965
1.119653344154358 -0.25428202748298645 0.9967215657234192
0.9750416874885559 -0.24453416466712952 1.2177486419677734
0.9577697515487671 -0.31465160846710205 1.1904298067092896
1.018864631652832 -0.32489246129989624 1.1615711450576782
0.9566550254821777 -0.3355843722820282 1.2001374959945679
1.0155280828475952 -0.3720085024833679 1.1502383947372437
0.9240414500236511 -0.2876487672328949 1.2596042156219482
0.9953028559684753 -0.2883433401584625 1.234045147895813
1.1305798292160034 -0.3395262360572815 1.0299079418182373
1.152396321296692 -0.386041522026062 0.9752981662750244
1.1678833961486816 -0.2854691743850708 0.9886395931243896
0.9473975896835327 -0.23318040370941162 1.293178677558899
1.07210373878479 -0.2652038037776947 1.1114047765731812
1.090442180633545 -0.36136001348495483 1.0897027254104614
1.1120758056640625 -0.34554967284202576 1.0938680171966553
1.1734049320220947 -0.32938799262046814 1.0275462865829468
1.040594458580017 -0.2421875 1.2630364894866943
1.074368953704834 -0.23500284552574158 1.2446880340576172
1.1727466583251953 -0.2918165326118469 1.0962421894073486
1.1593459844589233 -0.29980066418647766 1.1143617630004883
0.8948187232017517 -0.20847885310649872 1.37810480594635
1.0046786069869995 -0.1755535900592804 1.3843164443969727
0.9721909165382385 -0.20902025699615479 1.363295078277588
0.8696179986000061 -0.16178402304649353 1.5257877111434937
0.8883508443832397 -0.17260955274105072 1.4850878715515137
0.8892576098442078 -0.16994045674800873 1.4801055192947388
0.9027128219604492 -0.19156740605831146 1.4693553447723389
0.9666544198989868 -0.1765568107366562 1.427524447441101
0.9460480213165283 -0.18993890285491943 1.4443048238754272
-1.0161380767822266 -0.392828106880188 1.2779475450515747
-0.9910321831703186 -0.41284289956092834 1.286297082901001
-0.9993303418159485 -0.438324511051178 1.2559874057769775
-1.0673625469207764 -0.4631407558917999 0.9307004809379578
-1.0705920457839966 -0.5171216130256653 0.8965582251548767
-0.9350815415382385 -0.44466301798820496 1.0709562301635742
-0.9798303246498108 -0.47207722067832947 1.046199917793274
-0.9334707260131836 -0.49506404995918274 1.059519648551941
-1.0171713829040527 -0.5113362073898315 0.9891380071640015
-0.9959021210670471 -0.4702044129371643 0.9736528992652893
-0.9977197051048279 -0.501871645450592 0.9390861392021179
-0.8626905679702759 -0.40676966309547424 1.1864075660705566
-0.8707267642021179 -0.43670815229415894 1.1398769617080688
-0.8911384344100952 -0.4258188307285309 1.154259204864502
-0.9573104381561279 -0.49250298738479614 0.9949848055839539
-0.9699259996414185 -0.46144765615463257 1.0005576610565186
-0.9052234888076782 -0.46400541067123413 1.0761065483093262
-0.9522081017494202 -0.4538167417049408 1.0475060939788818
-0.8074724674224854 -0.30619245767593384 1.308444619178772
-0.8596431612968445 -0.3172500729560852 1.1405850648880005
-0.7961047887802124 -0.29904770851135254 1.1296404600143433
-0.8081579208374023 -0.27318698167800903 1.132674217224121
-0.708975613117218 -0.30120912194252014 1.2719489336013794
-0.7265713214874268 -0.26386114954948425 1.1923115253448486
-0.7836464047431946 -0.26156654953956604 1.154855489730835
-0.7763002514839172 -0.28375113010406494 1.140462875366211
-0.45906010270118713 -0.18547824025154114 1.4432865381240845
-0.6481684446334839 -0.1967255026102066 1.1842237710952759
-0.5733434557914734 -0.19849005341529846 1.1994041204452515
-0.608083963394165 -0.160594642162323 1.1655807495117188
-0.4815981388092041 -0.11973892152309418 1.1715538501739502
-0.530401885509491 -0.12250829488039017 1.1569174528121948
-0.3879052698612213 -0.07226559519767761 1.2178248167037964
0.7489662766456604 -0.1906134933233261 1.2511248588562012
0.5250239968299866 -0.18659351766109467 1.7112302780151367
0.8576380014419556 -0.21560804545879364 1.2644160985946655
0.8086994290351868 -0.19427087903022766 1.2152843475341797
0.8400864601135254 -0.23911182582378387 1.2292547225952148
0.849088191986084 -0.21678248047828674 1.2236628532409668
0.7243773937225342 -0.19196313619613647 1.3952298164367676
0.8463715314865112 -0.27865365147590637 1.2619683742523193
0.8933076858520508 -0.28864985704421997 1.2224974632263184
0.8775281310081482 -0.3195408880710602 1.241365909576416
0.8949717283248901 -0.32161954045295715 1.2176202535629272
0.9324408173561096 -0.3015381395816803 1.172013282775879
1.070035696029663 -0.3160263001918793 1.0117741823196411
1.1060576438903809 -0.31971490383148193 0.9716230630874634
1.133585810661316 -0.2977796792984009 0.9739131927490234
0.8997167944908142 -0.24207758903503418 1.266702651977539
0.9296348094940186 -0.2382286638021469 1.2393593788146973
0.941924512386322 -0.3153873085975647 1.2179341316223145
0.9579556584358215 -0.32341268658638 1.1787452697753906
0.9715940952301025 -0.36536070704460144 1.153631329536438
0.7148914933204651 -0.21407091617584229 1.5200879573822021
1.0046154260635376 -0.2519688308238983 1.237844467163086
1.0535787343978882 -0.2611783444881439 1.2134504318237305
0.9297832250595093 -0.24847789108753204 1.3501935005187988
1.1835777759552002 -0.33697712421417236 1.0816073417663574
1.1900421380996704 -0.28779828548431396 1.042502522468567
1.0415387153625488 -0.2776685357093811 1.2419883012771606
1.0737879276275635 -0.2957639694213867 1.2005056142807007
1.0480709075927734 -0.204629585146904 1.3934869766235352
1.0318044424057007 -0.2636641263961792 1.3411492109298706
1.0520153045654297 -0.23540514707565308 1.3428316116333008
1.1375267505645752 -0.27484050393104553 1.2379432916641235
1.1266157627105713 -0.24981430172920227 1.2398279905319214
-0.9049287438392639 -0.3472634553909302 1.40192711353302
-1.1405291557312012 -0.4778625965118408 0.9245070219039917
-0.926747739315033 -0.43395987153053284 1.1690300703048706
-0.9251014590263367 -0.44964224100112915 1.1300092935562134
-0.9205573201179504 -0.404196172952652 1.2128698825836182
-0.6359813809394836 -0.2854706346988678 1.5801191329956055
-0.8947641849517822 -0.3495846092700958 1.2270058393478394
-0.907511293888092 -0.3680438995361328 1.1928462982177734
-1.0566315650939941 -0.4452546536922455 0.8870922923088074
-1.073064923286438 -0.40526020526885986 0.8804191946983337
-0.8765947818756104 -0.40372300148010254 1.1302695274353027
-0.8992925882339478 -0.43139609694480896 1.0902773141860962
-0.8659453988075256 -0.42246386408805847 1.117639183998108
-0.6417416930198669 -0.2982824146747589 1.5300097465515137
-0.7103211879730225 -0.2710190415382385 1.4178739786148071
-0.45519986748695374 -0.0941392183303833 1.2534613609313965
0.25473862886428833 -0.07227586209774017 1.3035633563995361
0.23558366298675537 -0.0850481390953064 1.3057087659835815
0.4052414000034332 -0.1349119246006012 1.2709428071975708
0.4325689375400543 -0.10765711963176727 1.2049503326416016
0.4838128685951233 -0.12763835489749908 1.3426618576049805
0.6125618815422058 -0.15120163559913635 1.2517995834350586
0.6116679310798645 -0.16642864048480988 1.2335150241851807
0.6503990888595581 -0.20697243511676788 1.4154982566833496
0.647075891494751 -0.22345232963562012 1.504947304725647
0.7587795257568359 -0.23540803790092468 1.3509241342544556
0.9600658416748047 -0.35201576352119446 1.1496119499206543
1.0111476182937622 -0.3330080211162567 1.119461178779602
1.0346379280090332 -0.3766433298587799 1.0835541486740112
1.0703998804092407 -0.34620219469070435 1.0382564067840576
0.8826022744178772 -0.2596534788608551 1.3314015865325928
1.152808666229248 -0.3878437280654907 1.0045973062515259
-0.9788722991943359 -0.42038482427597046 1.261891484260559
-0.9581259489059448 -0.39185038208961487 0.9961074590682983
-0.9885820746421814 -0.40111640095710754 0.9474141597747803
-0.5682967901229858 -0.2712087035179138 1.6728845834732056
-0.645531415939331 -0.19615843892097473 1.1685566902160645
-0.6495270729064941 -0.1921691745519638 1.1368166208267212
-0.6043814420700073 -0.17686361074447632 1.149390459060669
-0.506929874420166 -0.11004973948001862 1.1544904708862305
-0.27188631892204285 -0.05265582352876663 1.2902038097381592
-0.2655792832374573 -0.07490291446447372 1.2917879819869995
0.522300660610199 -0.19146102666854858 1.5138427019119263
0.5394988059997559 -0.20000270009040833 1.580375075340271
0.8833113312721252 -0.226851686835289 1.2913436889648438
0.9124384522438049 -0.22615905106067657 1.2162561416625977
0.7914881706237793 -0.24746593832969666 1.3665432929992676
0.9686874151229858 -0.30790627002716064 1.1289453506469727
0.8777921795845032 -0.23823966085910797 1.3753001689910889
0.8190826177597046 -0.22013689577579498 1.4439162015914917
0.9906792044639587 -0.23997452855110168 1.3473529815673828
1.0229450464248657 -0.2598133087158203 1.2923903465270996
1.126671314239502 -0.31059548258781433 1.1564885377883911
1.1284887790679932 -0.3541683256626129 1.057433009147644
1.1410892009735107 -0.28434059023857117 1.1510286331176758
-1.0954557657241821 -0.49153056740760803 0.9268566370010376
-1.0931950807571411 -0.434254914522171 0.8933960795402527
-0.9385462403297424 -0.4543968439102173 1.0712637901306152
-1.0367735624313354 -0.4727729260921478 0.9482736587524414
-1.0145705938339233 -0.444846510887146 0.9089968800544739
-0.8370639085769653 -0.34732723236083984 1.1590895652770996
-0.45438408851623535 -0.13515383005142212 1.267068862915039
-0.4944973886013031 -0.1384449601173401 1.2091007232666016
-0.5293105840682983 -0.1330835372209549 1.1896483898162842
-0.40899041295051575 -0.11288941651582718 1.242501974105835
-0.43991339206695557 -0.1151866763830185 1.168104648590088
-0.4589497447013855 -0.09815339744091034 1.1589715480804443
0.4324877858161926 -0.08878732472658157 1.2136931419372559
0.8023614883422852 -0.25540995597839355 1.2891020774841309
0.8493790030479431 -0.2813408672809601 1.3103669881820679
0.8848090171813965 -0.292892187833786 1.279126524925232
1.0755698680877686 -0.31555360555648804 1.184056043624878
-1.1007541418075562 -0.4725250005722046 1.0213102102279663
-1.1063510179519653 -0.5044682025909424 0.9902071356773376
-1.1155496835708618 -0.4895075857639313 0.9886484742164612
-0.9672441482543945 -0.38148316740989685 1.14119291305542
-0.9223756194114685 -0.4201830327510834 1.065956473350525
-0.883522093296051 -0.41327059268951416 1.1008167266845703
-0.34354567527770996 -0.08230885863304138 1.252197265625
-0.1703479290008545 -0.06219567358493805 1.3885202407836914
-0.16699238121509552 -0.04712575674057007 1.3781006336212158
0.23121277987957 -0.09722253680229187 1.3168206214904785
0.237777978181839 -0.17303138971328735 1.7189115285873413
0.4464840292930603 -0.1611495167016983 1.712805151939392
0.46878665685653687 -0.18341296911239624 1.7355009317398071
0.5509025454521179 -0.17945654690265656 1.6885086297988892
0.8161790370941162 -0.17116978764533997 1.5242491960525513
0.8281968832015991 -0.16308631002902985 1.5688432455062866
0.8435062766075134 -0.14365588128566742 1.5128153562545776
0.8640221953392029 -0.1732284128665924 1.5050060749053955
0.8798871040344238 -0.14525634050369263 1.5308794975280762
-0.9582290649414062 -0.37586528062820435 1.3598031997680664
-0.9730794429779053 -0.35787758231163025 1.3451406955718994
-0.7898277044296265 -0.3044131100177765 1.5301340818405151
-0.7846264839172363 -0.2907099425792694 1.5053956508636475
-1.1155054569244385 -0.4262019693851471 0.9484387636184692
-1.1364586353302002 -0.4391202926635742 0.9086306095123291
-1.018650770187378 -0.4823360741138458 0.9937622547149658
-0.9892169237136841 -0.3936263620853424 1.0957019329071045
-0.8626728653907776 -0.32973772287368774 1.2593038082122803
-0.5254501104354858 -0.2511407136917114 1.707371711730957
0.4070722758769989 -0.10143939405679703 1.2749310731887817
0.3671470880508423 -0.11528465151786804 1.513277292251587
0.6426481008529663 -0.16735127568244934 1.2802399396896362
0.5656131505966187 -0.14383286237716675 1.3902446031570435
0.7416802644729614 -0.20421993732452393 1.247810959815979
0.7923790216445923 -0.22447219491004944 1.2179678678512573
0.7460905909538269 -0.24096457660198212 1.2852904796600342
0.994462251663208 -0.27255406975746155 1.087416648864746
1.013110876083374 -0.29284176230430603 1.0842819213867188
1.0047293901443481 -0.3410676419734955 1.1620010137557983
0.9668715000152588 -0.22613178193569183 1.331894874572754
1.1033400297164917 -0.2442372590303421 1.152300477027893
-1.115661382675171 -0.4867525100708008 0.9480074048042297
-1.1206938028335571 -0.46506500244140625 0.8955258131027222
-0.6494013667106628 -0.1690361350774765 1.1372156143188477
-0.5085042715072632 -0.10484680533409119 1.1784186363220215
-0.4042855501174927 -0.09329953789710999 1.2068042755126953
1.061805009841919 -0.25373631715774536 1.1687464714050293
1.2085024118423462 -0.3118737041950226 0.9788542985916138
1.2079064846038818 -0.3121888041496277 0.998729407787323
-0.9293161034584045 -0.448089599609375 1.107903003692627
-0.9533884525299072 -0.40349042415618896 1.0192177295684814
-0.9692800045013428 -0.4314684569835663 0.9805765151977539
0.6200913190841675 -0.18099893629550934 1.6267038583755493
1.2100642919540405 -0.2850582003593445 0.9903042912483215
1.078187346458435 -0.265852689743042 1.2819938659667969
-0.40109801292419434 -0.09414038807153702 1.3393287658691406
1.010273814201355 -0.22843734920024872 1.3455846309661865
-0.9035307765007019 -0.37216654419898987 1.0697786808013916
1.1110347509384155 -0.37482956051826477 0.9971816539764404
1.0032317638397217 -0.23765875399112701 1.3285568952560425
-0.9433275461196899 -0.47800081968307495 1.0805021524429321
-0.4464254379272461 -0.052136365324258804 0.9051085710525513
-0.4524044990539551 -0.05175851657986641 0.917779266834259
-0.4371166527271271 -0.08434969186782837 0.9077558517456055
-0.44959211349487305 -0.08076011389493942 0.9205304384231567
-0.4096030592918396 -0.053066398948431015 0.987004280090332
-0.42135342955589294 -0.06204614415764809 0.960727870464325
-0.40195104479789734 -0.03262956812977791 0.9349508881568909
-0.3939570188522339 -0.019540248438715935 0.9785254597663879
-0.4124224781990051 -0.08779364079236984 0.9641408920288086
-0.42216092348098755 -0.11564693599939346 0.9430509209632874
-0.37809619307518005 -0.046896543353796005 1.0648139715194702
-0.39530983567237854 -0.11706335842609406 0.9449151158332825
-0.4043441116809845 -0.07164289802312851 0.9557598233222961
-0.39326703548431396 -0.11714021116495132 0.992911159992218
-0.38691985607147217 -0.08097335696220398 0.9892966747283936
-0.36124187707901 -0.017959540709853172 1.0402857065200806
-0.37711894512176514 -0.07077950984239578 0.9940932989120483
-0.3802907466888428 -0.09240937978029251 1.0154826641082764
-0.3828849196434021 -0.07822594046592712 1.0528948307037354
-0.3901185393333435 -0.046101897954940796 1.1028833389282227
-0.3928544819355011 -0.10463224351406097 1.0790519714355469
-0.3295283317565918 0.0006991098634898663 1.1502357721328735
-0.342773973941803 0.009511148557066917 1.1009876728057861
-0.37709763646125793 -0.06655386090278625 1.1349228620529175
-0.3001651465892792 0.014728549867868423 1.0936866998672485
-0.3118571937084198 -0.07865400612354279 1.2023906707763672
-0.34856799244880676 -0.12843996286392212 1.1356345415115356
-0.2928790748119354 0.01647605001926422 1.143411636352539
-0.25309401750564575 -0.0016872435808181763 1.1589829921722412
-0.2577691972255707 -0.020875578746199608 1.219698429107666
-0.22674566507339478 -0.022457607090473175 1.2262789011001587
-0.2183259278535843 -0.12895409762859344 1.2840359210968018
-0.2890646755695343 -0.13165222108364105 1.1982141733169556
-0.21794690191745758 -0.04369284585118294 1.2753113508224487
-0.2499811053276062 -0.07932967692613602 1.2689483165740967
-0.200897678732872 -0.0640363097190857 1.3166193962097168
-0.18027228116989136 -0.07924647629261017 1.3514087200164795
-0.16848289966583252 -0.13478723168373108 1.343129277229309
-0.21612586081027985 -0.1589512974023819 1.227625846862793
-0.18938492238521576 -0.005441196262836456 1.7704728841781616
-0.16949033737182617 -0.0002827495336532593 1.4138462543487549
-0.13913285732269287 0.0692056193947792 0.8651834726333618
-0.18300749361515045 0.022664755582809448 0.8590307235717773
-0.1576526165008545 -0.07128216326236725 0.8679753541946411
-0.2024458944797516 -0.10180464386940002 0.8548557758331299
-0.1782868206501007 -0.005706716328859329 1.6683076620101929
-0.19120268523693085 -0.014433156698942184 1.799631953239441
-0.16164521872997284 -0.009991146624088287 1.7418286800384521
-0.15267136693000793 0.01236741989850998 1.6795248985290527
-0.15786130726337433 -0.01628461852669716 1.6334213018417358
-0.12612928450107574 -0.011485129594802856 1.0514171123504639
-0.1563902199268341 -0.06525853276252747 1.0110303163528442
-0.15600983798503876 -0.13528290390968323 0.9950737357139587
-0.15122684836387634 -0.048922792077064514 1.5658447742462158
-0.21885088086128235 0.32550951838493347 0.17947864532470703
-0.23179031908512115 0.3203747570514679 0.11723334342241287
-0.24004699289798737 0.2951109707355499 0.1077059954404831
-0.13425961136817932 -0.1323724091053009 1.398717999458313
-0.1327226758003235 -0.06800727546215057 1.3559950590133667
-0.12261262536048889 -0.08959983289241791 1.3312863111495972
-0.14165981113910675 -0.14451712369918823 1.3806626796722412
-0.11942349374294281 -0.17005515098571777 1.324942946434021
-0.18731911480426788 0.00702835526317358 0.49855101108551025
-0.1904033124446869 0.038905054330825806 0.40884485840797424
-0.19520524144172668 0.12169518321752548 0.38955485820770264
-0.2025146335363388 0.08298288285732269 0.3989929258823395
-0.15872031450271606 -0.006172295659780502 1.7055190801620483
-0.12051331251859665 -0.12383434921503067 1.2888702154159546
-0.12711557745933533 -0.12109608948230743 1.2473475933074951
-0.12534894049167633 -0.16329219937324524 1.2653199434280396
-0.1528429239988327 -0.1836566925048828 1.2588691711425781
-0.184381902217865 0.17249345779418945 0.3439081609249115
-0.13695700466632843 -0.12119245529174805 1.5773990154266357
-0.14346951246261597 -0.04293369874358177 1.5647467374801636
-0.14339222013950348 -0.07631374150514603 1.5651124715805054
-0.16235700249671936 -0.08655250817537308 0.551663339138031
-0.09802627563476562 0.0003364160656929016 1.809209942817688
-0.10880045592784882 -0.15808328986167908 1.2070211172103882
-0.12309767305850983 -0.0625167042016983 1.1754196882247925
-0.12255510687828064 -0.128470316529274 0.7346692085266113
-0.11308220773935318 0.04459753632545471 1.7378053665161133
-0.10793059319257736 -0.16329512000083923 1.40557861328125
-0.1062912791967392 -0.11317554861307144 0.845400333404541
-0.14503709971904755 -0.12817531824111938 0.8686469793319702
-0.12283898890018463 -0.2069048285484314 0.9144299030303955
-0.1108206957578659 -0.2162139117717743 0.8502620458602905
-0.220042884349823 0.25641965866088867 0.08838451653718948
-0.07624106109142303 0.0733681172132492 1.7284010648727417
-0.09109598398208618 0.009325779974460602 1.7901768684387207
-0.13567709922790527 -0.11844426393508911 1.4678603410720825
-0.11591658741235733 -0.13182201981544495 1.5306189060211182
-0.1530471295118332 0.13835905492305756 0.4021984934806824
-0.17196853458881378 0.20428363978862762 0.32061412930488586
-0.2172262966632843 0.22003360092639923 0.10943520814180374
-0.16450195014476776 0.3570050895214081 0.23912887275218964
-0.09633949398994446 -0.08524498343467712 1.336533784866333
-0.14510852098464966 -0.09178122878074646 0.511021614074707
-0.1626451462507248 0.3188190460205078 0.08639048784971237
-0.2043069750070572 0.32454776763916016 0.08210530877113342
-0.09886138141155243 -0.039981644600629807 1.581674337387085
-0.09528075903654099 -0.08223786950111389 1.5437678098678589
-0.02754782885313034 -0.22069615125656128 0.907559871673584
-0.09013164043426514 0.08946589380502701 0.8667063117027283
-0.19358688592910767 0.07845751196146011 0.2658829391002655
-0.1654464602470398 0.16122795641422272 0.2078074961900711
-0.14601095020771027 0.3090883493423462 0.2573322057723999
-0.08409206569194794 -0.06965342909097672 1.305368185043335
-0.09174052625894547 -0.08100096881389618 1.2608654499053955
-0.04678499698638916 -0.20157529413700104 1.3026336431503296
-0.12481509894132614 -0.04249513894319534 0.6485689282417297
-0.10222563147544861 -0.13076308369636536 0.7245297431945801
-0.06999045610427856 -0.11151418089866638 0.8042219877243042
-0.1518692821264267 0.19460497796535492 0.18270665407180786
-0.16454476118087769 0.24671989679336548 0.09669549018144608
-0.10091106593608856 -0.18199951946735382 1.5383847951889038
-0.08034838736057281 -0.07832236588001251 1.374045968055725
-0.051569897681474686 -0.06114479899406433 1.3108620643615723
-0.11466570943593979 -0.11295201629400253 0.5263887643814087
-0.0867789015173912 -0.09827889502048492 0.539439857006073
-0.11921784281730652 0.016651298850774765 0.5533163547515869
-0.07118897140026093 -0.17404022812843323 1.4971778392791748
-0.05231085792183876 -0.12650196254253387 1.4569281339645386
-0.09379216283559799 -0.08580343425273895 1.4263575077056885
-0.09280455112457275 -0.016421662643551826 0.5324825048446655
-0.048683058470487595 0.03231608867645264 1.788210153579712
-0.08168747276067734 -0.2006821632385254 1.6975188255310059
-0.019650505855679512 -0.1981002241373062 0.991865873336792
-0.05480873957276344 -0.1398915946483612 1.4800293445587158
-0.029796326532959938 -0.16842398047447205 1.4646698236465454
-0.05192990228533745 -0.15316817164421082 1.4458075761795044
-0.025489429011940956 -0.20149686932563782 1.6214674711227417
-0.07020346820354462 -0.2099960595369339 1.563197374343872
-0.03288502246141434 -0.10196005553007126 1.4914482831954956
-0.07861056178808212 -0.06938869506120682 0.6212412118911743
0.009542439132928848 -0.00572841614484787 1.8224785327911377
-0.03166048601269722 0.08411427587270737 1.6909565925598145
-0.01099882647395134 -0.22869887948036194 1.5724588632583618
-0.03235693275928497 -0.21607887744903564 1.5070867538452148
-0.01460747979581356 -0.10997582972049713 1.4586095809936523
-0.006283538416028023 -0.21841387450695038 1.5071851015090942
0.016327999532222748 -0.07741732895374298 1.4340271949768066
-0.010890819132328033 -0.06657981872558594 1.3038716316223145
0.0045842938125133514 0.048777543008327484 1.7811644077301025
0.010135157033801079 -0.11054256558418274 1.4990818500518799
0.0071166083216667175 -0.16474568843841553 1.482104778289795
0.0312989316880703 0.05955621600151062 1.729641318321228
0.022185664623975754 0.005524434149265289 1.7975071668624878
0.005700062960386276 -0.15961122512817383 1.4532911777496338
0.053772587329149246 -0.17318624258041382 1.525947093963623
0.014602405950427055 -0.13285797834396362 1.465106725692749
0.05212758108973503 -0.3075929880142212 0.6650439500808716
0.03869001567363739 -0.06645405292510986 1.5264695882797241
0.08316950500011444 -0.3651295006275177 0.604122519493103
0.03445940092206001 -0.22592802345752716 1.249812126159668
0.0753016322851181 -0.07906591147184372 1.280090570449829
0.0750296488404274 -0.07323949038982391 1.1567007303237915
0.15939630568027496 -0.5000240206718445 0.14275820553302765
0.1954858899116516 -0.49679380655288696 0.11497966945171356
0.1493111550807953 -0.312073290348053 0.1473103165626526
0.049843281507492065 -0.19979575276374817 1.2428250312805176
0.041662607342004776 -0.21891409158706665 1.1668305397033691
0.04886355623602867 -0.232621967792511 0.8027940392494202
0.1497480273246765 -0.38010773062705994 0.0925213173031807
0.07509687542915344 -0.002975873649120331 1.7568082809448242
0.05198497325181961 -0.18711154162883759 1.7032721042633057
0.04086165502667427 -0.18590837717056274 1.6103150844573975
0.046395495533943176 -0.19830000400543213 1.5596997737884521
0.08857902884483337 -0.13483735918998718 0.8891674876213074
0.13292869925498962 -0.0013789311051368713 1.7836267948150635
0.04665261134505272 -0.05743464455008507 1.5822631120681763
0.04945724457502365 -0.08009158074855804 1.557723879814148
0.1304004192352295 -0.33502650260925293 0.3914523720741272
0.13078005611896515 -0.34086138010025024 0.3328322172164917
0.1688518226146698 -0.3039693832397461 0.12364664673805237
0.07623657584190369 -0.006850201636552811 1.849376916885376
0.09194120764732361 -0.1093561202287674 1.4474457502365112
0.09581311047077179 -0.19819161295890808 0.8818061351776123
0.07513495534658432 -0.11816281080245972 0.8694676160812378
0.1202290877699852 -0.17211218178272247 0.8777354955673218
0.09612105041742325 -0.14818419516086578 0.7362550497055054
0.21172545850276947 -0.5048080682754517 0.13672298192977905
0.09001853317022324 -0.011642307043075562 1.7714083194732666
0.07028476893901825 -0.1725136637687683 1.1419892311096191
0.08024144917726517 -0.19817514717578888 1.2618234157562256
0.08305970579385757 -0.21680423617362976 1.2531770467758179
0.13030537962913513 -0.16233515739440918 0.9274723529815674
0.08423034846782684 -0.12810885906219482 1.6174204349517822
0.07949667423963547 -0.05044734850525856 1.5893933773040771
0.07810147106647491 -0.07696642726659775 1.5861846208572388
0.08776707947254181 -0.09405077248811722 1.5844286680221558
0.09972488880157471 -0.11098160594701767 1.5647950172424316
0.12359056621789932 -0.2541764974594116 0.6918026804924011
0.10963435471057892 -0.28859639167785645 0.7563090324401855
0.10798405110836029 -0.1653420627117157 1.4037901163101196
0.12322212010622025 -0.08842945098876953 1.367109775543213
0.08011965453624725 -0.09235194325447083 1.37400484085083
0.0867643877863884 -0.1036621481180191 1.3458921909332275
0.10723243653774261 -0.1326252520084381 0.8572326302528381
0.21449409425258636 -0.34495726227760315 0.11840997636318207
0.23129837214946747 -0.37896907329559326 0.10670243203639984
0.09902477264404297 -0.02784951776266098 1.7247376441955566
0.1230204701423645 -0.1211657002568245 1.4226244688034058
0.1879253089427948 -0.39125514030456543 0.39792922139167786
0.11909075826406479 -0.010111231356859207 1.692710518836975
0.09127108752727509 0.014817077666521072 1.6892614364624023
0.10618118941783905 -0.021613072603940964 1.6599557399749756
0.22093059122562408 -0.39800533652305603 0.2063668966293335
0.23753055930137634 -0.4684291183948517 0.133261039853096
0.2048792541027069 -0.5017101764678955 0.1733001321554184
0.16184520721435547 0.006840582005679607 0.9349327087402344
0.15183080732822418 -0.019239438697695732 0.8268579244613647
0.13091540336608887 -0.02012385055422783 1.786582112312317
0.17365053296089172 0.03476438298821449 0.8278695940971375
0.1890387237071991 0.021441087126731873 0.8875914812088013
0.1545337736606598 -0.09999141842126846 1.3617738485336304
0.1766211986541748 -0.12622880935668945 1.3403773307800293
0.12744206190109253 -0.16310539841651917 1.368019461631775
0.18034279346466064 -0.09167654067277908 1.3109476566314697
0.1736694574356079 -0.0893411636352539 1.2875113487243652
0.21418043971061707 -0.17422018945217133 1.2396150827407837
0.209419846534729 -0.13611316680908203 1.298229455947876
0.22302746772766113 -0.07178884744644165 1.2542922496795654
0.24335184693336487 -0.029913097620010376 1.183825969696045
0.273491770029068 -0.03706470876932144 1.204133152961731
0.265459805727005 -0.08478083461523056 1.23751699924469
0.26419597864151 -0.14582523703575134 1.2359812259674072
0.29715678095817566 -0.027608469128608704 1.1515331268310547
0.3536304235458374 -0.10792635381221771 1.1787943840026855
0.34845849871635437 -0.06858694553375244 1.1737871170043945
0.325052410364151 -0.0357045903801918 1.1522204875946045
0.3434791564941406 -0.15653282403945923 1.1377997398376465
0.3454238474369049 -0.09680641442537308 1.1265530586242676
0.3322991132736206 -0.0694252997636795 1.1236693859100342
0.43300366401672363 -0.08165434747934341 1.008021593093872
0.34200865030288696 -0.1286386102437973 1.11299467086792
0.3567943274974823 -0.1323731541633606 1.081266164779663
0.3813205063343048 -0.06301093101501465 1.0496957302093506
0.35242676734924316 -0.1056753545999527 1.0634056329727173
0.36701589822769165 -0.13880008459091187 1.0538145303726196
0.3879634439945221 -0.106387197971344 1.0332096815109253
0.4124164581298828 -0.09556377679109573 1.0310273170471191
0.38905397057533264 -0.14932888746261597 1.0191118717193604
0.4028513729572296 -0.12088697403669357 1.021252989768982
0.3919074237346649 -0.1350012719631195 1.0257892608642578
0.43275508284568787 -0.0820360779762268 0.9845117926597595
0.414052277803421 -0.14039207994937897 1.007402777671814
0.4067094922065735 -0.08308563381433487 0.9991570711135864
0.43214327096939087 -0.1150624006986618 0.9849672913551331
0.44308656454086304 -0.09788504242897034 0.9934812188148499
-0.36235782504081726 -0.01950824446976185 1.06643545627594
-0.3643118739128113 -0.08576459437608719 1.0383259057998657
-0.34314462542533875 -0.06363965570926666 1.0424953699111938
-0.37431633472442627 -0.12861637771129608 1.0666909217834473
-0.28985095024108887 -0.02050870656967163 1.0701841115951538
-0.34037572145462036 -0.12555474042892456 1.0533602237701416
-0.20051975548267365 -0.0641809031367302 1.2479405403137207
-0.2089785784482956 -0.12256504595279694 1.2054011821746826
-0.17168135941028595 -0.10784542560577393 0.963179349899292
-0.1785639226436615 -0.02101748436689377 0.933143138885498
-0.1310780644416809 0.048311688005924225 0.9292905926704407
-0.17008206248283386 0.03464396297931671 1.224349856376648
-0.1705930083990097 0.025991864502429962 1.1576125621795654
-0.18358471989631653 0.05002680793404579 1.1198862791061401
-0.1559997797012329 -0.016994480043649673 0.965794563293457
-0.20059211552143097 -0.030462011694908142 1.767993688583374
-0.14062726497650146 -0.08759213238954544 1.3726993799209595
-0.16665227711200714 -0.06484164297580719 1.3080421686172485
-0.12200161814689636 0.05122385174036026 1.0057458877563477
-0.1686965823173523 0.04372130706906319 0.9190330505371094
-0.23164629936218262 0.26896536350250244 0.19994467496871948
-0.24413107335567474 0.2808292508125305 0.13912996649742126
-0.17499910295009613 -0.035214975476264954 1.7506004571914673
-0.16006463766098022 -0.034538429230451584 1.6904370784759521
-0.13739775121212006 -0.19766756892204285 1.2311904430389404
-0.13761252164840698 -0.20772764086723328 1.197275996208191
-0.1413874328136444 -0.2302294373512268 1.1866421699523926
-0.14848065376281738 0.005485823377966881 1.3695002794265747
-0.13617616891860962 -0.002377323806285858 1.364626169204712
-0.11200203001499176 -0.19824153184890747 1.2479976415634155
-0.13846594095230103 -0.10433696210384369 1.217275857925415
-0.2161174714565277 0.18641334772109985 0.21942035853862762
-0.2132302075624466 0.2012757509946823 0.2677496075630188
-0.10751879215240479 0.02209360897541046 1.2157385349273682
-0.1408843845129013 -0.1315179318189621 1.4828732013702393
-0.14101241528987885 -0.12452258914709091 1.456674337387085
-0.12683998048305511 -0.12477515637874603 1.4316562414169312
-0.1407148838043213 -0.11839055269956589 1.4314883947372437
-0.1385258436203003 -0.1351565420627594 1.4144927263259888
-0.1445768177509308 -0.10810790956020355 0.7793375253677368
-0.15940570831298828 -0.06975139677524567 0.7727774381637573
-0.1312251091003418 0.11669587343931198 1.001746654510498
-0.12337827682495117 0.11709999293088913 1.0583581924438477
-0.10292230546474457 -0.18990227580070496 1.250213861465454
-0.13235166668891907 -0.10429520159959793 0.8569689989089966
-0.19702661037445068 0.3037443459033966 0.2563793957233429
-0.19827036559581757 0.3406432271003723 0.2309802621603012
-0.14460457861423492 -0.18661361932754517 0.8495778441429138
-0.12908844649791718 0.086860291659832 1.1831541061401367
-0.13164934515953064 -0.17365708947181702 1.6876453161239624
-0.12497676908969879 -0.06659987568855286 1.5668044090270996
-0.11343386024236679 0.021975722163915634 1.5134644508361816
-0.10016748309135437 -0.004201874136924744 1.5806372165679932
-0.12240789085626602 -0.014082588255405426 1.5556397438049316
-0.12064145505428314 -0.009256049990653992 1.4635030031204224
-0.06795692443847656 0.06596215814352036 1.5402684211730957
-0.106539785861969 -0.11365465819835663 1.5219465494155884
-0.09265066683292389 0.041447583585977554 0.9824376702308655
-0.12373138964176178 -0.0031767264008522034 1.853831171989441
-0.1365184485912323 -0.017716117203235626 1.8512489795684814
-0.13504332304000854 -0.028549641370773315 1.8390452861785889
-0.025945475324988365 -0.010880816727876663 1.4383119344711304
-0.10912235081195831 0.03055613674223423 1.4123293161392212
-0.13690166175365448 0.3232244849205017 0.15417861938476562
-0.06787324696779251 0.07784579694271088 1.328755497932434
-0.09087947756052017 -0.1819573938846588 1.5948331356048584
-0.13816677033901215 0.031683698296546936 0.40707501769065857
-0.06321777403354645 -0.006650853902101517 1.5140900611877441
-0.0744675025343895 -0.06057240068912506 1.5142465829849243
-0.051835209131240845 0.058341093361377716 1.452085256576538
-0.04005339741706848 0.055026471614837646 0.8588579893112183
-0.13853339850902557 0.1145181953907013 0.4088186025619507
-0.084990493953228 0.08030208945274353 0.9013462066650391
-0.04137416556477547 0.03365512192249298 1.046583652496338
-0.07817396521568298 -0.21366968750953674 1.2438063621520996
-0.07672196626663208 -0.18720239400863647 1.150640845298767
-0.12830576300621033 0.10704781860113144 0.3701057732105255
-0.11149688065052032 0.13266034424304962 0.3079104423522949
-0.13754867017269135 0.173670694231987 0.34406718611717224
-0.06360182166099548 -0.023929592221975327 1.5428630113601685
-0.06650422513484955 -0.1192748099565506 0.6683509945869446
-0.09383738040924072 -0.042800091207027435 0.6427693367004395
-0.06036101281642914 0.13715136051177979 1.0394973754882812
-0.07205507904291153 0.1240164190530777 0.9442365169525146
-0.024459954351186752 -0.22364121675491333 1.1703510284423828
-0.12743045389652252 0.25415754318237305 0.21623316407203674
-0.06677809357643127 0.06471726298332214 0.9482482671737671
-0.06287446618080139 0.040568768978118896 0.9986773729324341
0.007943086326122284 -0.018564635887742043 1.5244146585464478
-0.06011957675218582 -0.1835632473230362 1.3982629776000977
-0.008441945537924767 0.0951123982667923 1.2980897426605225
0.027824658900499344 -0.012367971241474152 1.4249203205108643
0.00532183051109314 -0.027655180543661118 1.5336971282958984
-0.0031836414709687233 0.07355517894029617 0.9542509317398071
0.008280772715806961 0.059370383620262146 0.9060938954353333
0.003049315884709358 -0.19867537915706635 1.3899803161621094
0.007945677265524864 0.037547219544649124 1.0415605306625366
0.0003576579038053751 -0.22029441595077515 1.1087337732315063
0.07629251480102539 0.08063385635614395 1.3255524635314941
0.030703065916895866 -0.06437373161315918 1.3220338821411133
0.06364362686872482 0.052593644708395004 1.4604127407073975
0.03309272602200508 -0.0025054439902305603 1.4722034931182861
0.045086368918418884 -0.053693413734436035 1.2296080589294434
0.04207810387015343 0.10108400136232376 0.9129332304000854
0.026347912847995758 -0.04874468594789505 1.7963021993637085
0.13038067519664764 -0.44700947403907776 0.15238142013549805
0.14228595793247223 -0.4609745740890503 0.11230916529893875
0.11951659619808197 -0.365397572517395 0.16922590136528015
0.0072831325232982635 -0.19892892241477966 1.698330044746399
0.05962298810482025 -0.18911081552505493 0.7245694994926453
0.10217450559139252 -0.008382312953472137 1.44287109375
0.06183397397398949 -0.13153037428855896 1.5313935279846191
0.09923775494098663 -0.14410576224327087 1.4573026895523071
0.05241028219461441 -0.09489922225475311 1.4317221641540527
0.10346310585737228 -0.32457447052001953 0.46233540773391724
0.11982700228691101 -0.4539596140384674 0.3375946283340454
0.143591046333313 -0.35437220335006714 0.295369029045105
0.0746445506811142 0.07896067202091217 0.959057092666626
0.05395068973302841 0.10492120683193207 0.9135398864746094
0.08113402128219604 -0.23007149994373322 0.8179514408111572
0.09976013749837875 -0.23337163031101227 0.6846281290054321
0.03402583673596382 -0.09931506961584091 1.7944812774658203
0.07699637115001678 -0.11529797315597534 1.748311996459961
0.09587237983942032 -0.3688732385635376 0.6567721366882324
0.04776770621538162 -0.03486040234565735 1.8038080930709839
0.0725909024477005 -0.058615610003471375 1.7573133707046509
0.0904821828007698 -0.1019747331738472 1.1476657390594482
0.09196525812149048 -0.08497107028961182 1.1189521551132202
0.08872361481189728 -0.1622917354106903 1.095159888267517
0.06433064490556717 -0.17260757088661194 1.689993143081665
0.07282248139381409 -0.11589501053094864 1.5630645751953125
0.07183299213647842 -0.16126492619514465 1.5725445747375488
0.11951212584972382 0.06355158239603043 0.9154402613639832
0.10105518251657486 -0.16617044806480408 1.2965571880340576
0.11476202309131622 -0.22405791282653809 1.2387597560882568
0.10483911633491516 -0.13925707340240479 1.2486848831176758
0.1957763284444809 -0.35624781250953674 0.23663514852523804
0.17288124561309814 -0.4530354142189026 0.2500392198562622
0.19283436238765717 -0.44635504484176636 0.2311004251241684
0.09079098701477051 -0.029962114989757538 1.7746365070343018
0.11441844701766968 -0.18761590123176575 1.2912195920944214
0.17498905956745148 -0.32361653447151184 0.5072513818740845
0.14209581911563873 -0.36181098222732544 0.5825313925743103
0.18421781063079834 -0.35505712032318115 0.45751115679740906
0.11593742668628693 -0.16558027267456055 1.445785641670227
0.09842297434806824 -0.15795764327049255 1.4417383670806885
0.12546959519386292 -0.12961092591285706 1.4096550941467285
0.1223517581820488 0.07332976907491684 0.8978658318519592
0.1180829405784607 -0.10586501657962799 0.8634822368621826
0.21181708574295044 -0.38196587562561035 0.332175076007843
0.21611855924129486 -0.41239261627197266 0.34555041790008545
0.1358998566865921 -0.11456435918807983 1.406986117362976
0.16395257413387299 0.025590313598513603 1.2385878562927246
0.16403895616531372 0.056034527719020844 1.2042951583862305
0.1300950050354004 -0.2701893746852875 1.1176517009735107
0.1610112190246582 -0.04043551906943321 0.9744534492492676
0.1627083420753479 -0.09354625642299652 0.97017502784729
0.18709662556648254 -0.06119631230831146 1.2407522201538086
0.2742045819759369 -0.12223586440086365 1.1104974746704102
0.2710455358028412 -0.06831684708595276 1.1118760108947754
0.2924331724643707 -0.17758968472480774 1.1599106788635254
-0.3456181287765503 -0.026513103395700455 1.0396031141281128
-0.3711501359939575 -0.08818274736404419 1.0005565881729126
-0.27841827273368835 -0.1272360384464264 1.1138505935668945
-0.28983625769615173 -0.15280570089817047 1.1615626811981201
-0.23702940344810486 -0.09110663831233978 1.1392110586166382
-0.22324180603027344 -0.048609212040901184 1.1754331588745117
-0.1967102289199829 -0.1533329039812088 0.868999183177948
-0.19968795776367188 0.045899152755737305 0.964419960975647
-0.18847998976707458 0.04018624499440193 1.081261157989502
-0.15218281745910645 -0.2700943052768707 1.0747241973876953
-0.1338397115468979 -0.17179977893829346 0.9599939584732056
-0.22944222390651703 0.12714828550815582 0.32743266224861145
-0.21272383630275726 0.07716701924800873 0.3036211431026459
-0.1585025191307068 0.023214833810925484 0.5417479276657104
-0.15561282634735107 -0.1938566267490387 0.8551924228668213
-0.15323886275291443 -0.07667598128318787 0.6181412935256958
-0.14443232119083405 -0.11285873502492905 0.6735429763793945
-0.13654416799545288 -0.04303900897502899 0.6833944320678711
-0.11632408946752548 -0.0301215797662735 1.114133358001709
-0.11033175140619278 -0.10100723803043365 1.1349378824234009
-0.09399375319480896 0.11514729261398315 1.138742208480835
-0.11905970424413681 -0.011597422882914543 0.8530824184417725
-0.17111320793628693 0.0552687868475914 0.3039324879646301
-0.11503994464874268 -0.06336171180009842 1.2239917516708374
-0.10273761302232742 -0.05889807641506195 1.1478298902511597
-0.1571349948644638 -0.01780794747173786 0.43535175919532776
-0.12872983515262604 -0.04373500868678093 1.7736986875534058
-0.12934377789497375 -0.08401750773191452 1.7723928689956665
-0.07985061407089233 -0.11669152975082397 1.790381908416748
-0.09447547793388367 -0.16550832986831665 1.755860686302185
-0.11507433652877808 -0.17831841111183167 1.6487157344818115
-0.143341064453125 0.06834391504526138 0.360168993473053
-0.06823351979255676 -0.11759500205516815 0.7260125875473022
-0.11943881213665009 0.10414563119411469 0.2925075590610504
-0.1418309211730957 0.07931298762559891 0.27772289514541626
-0.1406784951686859 0.19711756706237793 0.3069818615913391
-0.05637702718377113 0.06560535728931427 0.9748451113700867
-0.07681144028902054 -0.01921786740422249 1.8182913064956665
-0.0933663472533226 -0.033815328031778336 1.8054989576339722
0.013538261875510216 0.04709382355213165 1.1296665668487549
-0.08807321637868881 0.039945825934410095 1.1351951360702515
-0.0019902519416064024 0.03171088546514511 1.1979875564575195
0.014559479430317879 -0.07253806293010712 1.2680387496948242
-0.0021497365087270737 0.1246551051735878 1.1696263551712036
-0.01206072699278593 0.05226100608706474 0.9983760714530945
0.0568096786737442 0.14171428978443146 1.0710145235061646
0.01789073273539543 0.07441145181655884 1.6623897552490234
0.02965478226542473 0.047690242528915405 1.0062029361724854
0.04646331071853638 -0.20885507762432098 0.9145145416259766
0.09041950851678848 -0.41130945086479187 0.3429225981235504
0.1149597093462944 -0.42280858755111694 0.28909003734588623
0.043940141797065735 -0.25159966945648193 0.7684165239334106
0.032664358615875244 0.010440101847052574 1.076913833618164
0.07464772462844849 -0.28653720021247864 0.6296579837799072
0.08900830149650574 0.024667073041200638 1.2758386135101318
0.07659481465816498 -0.18146482110023499 1.4177768230438232
0.05283278599381447 0.05399126559495926 1.628024935722351
0.053891927003860474 -0.02398548275232315 1.6209626197814941
0.05948004126548767 -0.012171484529972076 1.5862860679626465
0.04650767892599106 -0.019272688776254654 1.852895736694336
0.0810803771018982 -0.18541109561920166 1.3392577171325684
0.14356419444084167 -0.2861982583999634 0.5617817640304565
0.11112946271896362 -0.271749347448349 0.5508260726928711
0.14848202466964722 -0.3212708532810211 0.41021227836608887
0.17249193787574768 -0.334921270608902 0.3863946199417114
0.09939492493867874 -0.10980811715126038 1.5523974895477295
0.08946673572063446 -0.11971317231655121 1.5653347969055176
0.10059709846973419 -0.11697742342948914 1.5459481477737427
0.12870661914348602 -0.14762337505817413 0.7605822086334229
0.12883678078651428 -0.28696757555007935 0.7047316431999207
0.12316782027482986 0.03984421491622925 0.9428263306617737
0.12131429463624954 -0.07232366502285004 1.090959072113037
0.12054210901260376 -0.12751570343971252 1.0793755054473877
0.12546882033348083 -0.13852518796920776 1.0215001106262207
0.09925702214241028 -0.04934724420309067 1.6694862842559814
0.1113366186618805 -0.07155568897724152 1.5815777778625488
0.10793884843587875 -0.20739489793777466 1.2230255603790283
0.11911225318908691 -0.0027671530842781067 1.5557397603988647
0.11006724834442139 -0.02165718376636505 1.5980674028396606
0.22475570440292358 -0.3588865399360657 0.15089279413223267
0.2371392697095871 -0.42002326250076294 0.13880027830600739
0.13430193066596985 -0.023918595165014267 1.5196483135223389
0.14046610891819 -0.012975293211638927 1.485953688621521
0.15115229785442352 -0.0168740414083004 1.43708074092865
0.1530488133430481 -0.0015173032879829407 1.4172945022583008
0.12284950911998749 -0.27899491786956787 1.1348785161972046
0.16928492486476898 -0.13593459129333496 0.8765078186988831
0.1441107988357544 -0.25303366780281067 1.154573678970337
0.13822852075099945 -0.2778571844100952 1.1357207298278809
0.2009851336479187 -0.09207342565059662 0.8782322406768799
0.20224522054195404 -0.08245334029197693 0.8543509244918823
0.21445074677467346 -0.048610784113407135 0.8490043878555298
-0.24592995643615723 -0.1490143984556198 1.1773769855499268
-0.1683695912361145 -0.17203110456466675 1.2536933422088623
-0.1804479956626892 -0.16683444380760193 1.2372690439224243
-0.16880394518375397 -0.15814349055290222 1.2473959922790527
-0.1628226637840271 -0.16101980209350586 1.2639129161834717
-0.20238012075424194 0.0064959656447172165 0.8648284673690796
-0.13141398131847382 -0.12487202882766724 1.2955365180969238
-0.15130694210529327 -0.08037321269512177 1.0855176448822021
-0.1493658870458603 0.014356330037117004 1.5573997497558594
-0.13452017307281494 -0.12857705354690552 1.2003722190856934
-0.1413339227437973 -0.10995467007160187 1.152782678604126
-0.1283186376094818 0.0039705540984869 1.4476605653762817
-0.12251921743154526 -0.002448923885822296 1.3919388055801392
-0.12508320808410645 -0.1585691273212433 1.0462656021118164
-0.08901422470808029 -0.18118539452552795 1.0034273862838745
-0.13769152760505676 -0.023843547329306602 0.7744324803352356
-0.08133216947317123 0.09600616246461868 1.2209393978118896
-0.09172007441520691 0.0708942860364914 1.6380032300949097
-0.1232207864522934 0.3310944437980652 0.212752565741539
-0.13500405848026276 0.34648850560188293 0.22119200229644775
-0.0886181965470314 0.029234368354082108 0.8706353306770325
-0.009215448051691055 0.09962458908557892 0.8501689434051514
-0.07093976438045502 -0.01276125106960535 0.84526526927948
0.00943630188703537 0.007983646355569363 1.3105745315551758
-0.04201802611351013 -0.07369436323642731 0.7564631700515747
-0.03617454320192337 -0.19641785323619843 1.6728203296661377
-0.01157226413488388 0.021121984347701073 0.8680486679077148
-0.006899220868945122 -0.018338453024625778 0.8485459685325623
0.0129775395616889 -0.1079515591263771 0.8603208661079407
-0.07949641346931458 -0.16673479974269867 0.8589690923690796
-0.00028332509100437164 -0.22004751861095428 0.8568738698959351
0.02100360207259655 -0.11181218922138214 0.8443998098373413
-0.0013112922897562385 -0.1570909172296524 0.866410493850708
0.0014734789729118347 -0.05394354090094566 1.5135141611099243
0.02536109648644924 -0.035760004073381424 0.8372693061828613
