-0.1407724767923355 -0.13963015377521515 1.4797824621200562
-0.14088693261146545 -0.13198170065879822 1.4536044597625732
-0.12664440274238586 -0.1322561502456665 1.4280508756637573
-0.14081750810146332 -0.12549817562103271 1.4283818006515503
-0.1382628232240677 -0.14209023118019104 1.4108541011810303
-0.14542871713638306 -0.10792934894561768 0.7786900997161865
-0.16045980155467987 -0.06976084411144257 0.7720522880554199
-0.13585074245929718 0.11090753972530365 0.9987965822219849
-0.12699730694293976 0.11090581119060516 1.0553998947143555
-0.10383056104183197 -0.19382160902023315 1.2445182800292969
-0.13254275918006897 -0.10405421257019043 0.8560221195220947
-0.20559494197368622 0.32479381561279297 0.2760082185268402
-0.20707271993160248 0.36592885851860046 0.25348028540611267
-0.14479102194309235 -0.1862119734287262 0.8482768535614014
-0.13191500306129456 0.08050236105918884 1.1795830726623535
-0.1314249187707901 -0.17989033460617065 1.6845362186431885
-0.12585529685020447 -0.07378803193569183 1.5635594129562378
-0.11424095928668976 0.015324115753173828 1.5107064247131348
-0.1006295457482338 -0.010577883571386337 1.5773260593414307
-0.12302923947572708 -0.02056591771543026 1.5522911548614502
-0.12119325250387192 -0.016084762290120125 1.4613462686538696
-0.06900379061698914 0.05981415510177612 1.5369246006011963
-0.10709958523511887 -0.12088809907436371 1.519054889678955
-0.09201133251190186 0.04131215810775757 0.9816118478775024
-0.12358342111110687 -0.008090585470199585 1.8497401475906372
-0.13581448793411255 -0.02294042333960533 1.8469915390014648
-0.1350274682044983 -0.03401675820350647 1.8347045183181763
-0.026292407885193825 -0.01731196790933609 1.435468316078186
-0.10953707993030548 0.023764582350850105 1.4091386795043945
-0.1472465544939041 0.35576537251472473 0.17197860777378082
-0.06858465820550919 0.07173780351877213 1.3246792554855347
-0.09067133069038391 -0.1887558549642563 1.5923888683319092
-0.14507821202278137 0.039576638489961624 0.4101889729499817
-0.06409494578838348 -0.012424930930137634 1.5107886791229248
-0.07534518092870712 -0.06749279797077179 1.511353611946106
-0.05243191868066788 0.0528438538312912 1.4488990306854248
-0.03971773013472557 0.055112019181251526 0.8573068380355835
-0.14551222324371338 0.12352132052183151 0.41660356521606445
-0.08955833315849304 0.07536567747592926 0.8983787298202515
-0.04191844165325165 0.03272900730371475 1.0456485748291016
-0.07817848771810532 -0.21737074851989746 1.2378640174865723
-0.07691024243831635 -0.1894875168800354 1.1461180448532104
-0.13575446605682373 0.11757329851388931 0.37685516476631165
-0.11989724636077881 0.14637553691864014 0.3147466778755188
-0.14572648704051971 0.18615582585334778 0.3544870913028717
-0.06465117633342743 -0.030814487487077713 1.5397058725357056
-0.06848083436489105 -0.12021002173423767 0.6659592390060425
-0.09682920575141907 -0.04365912079811096 0.6410500407218933
-0.06341468542814255 0.1311568021774292 1.0364093780517578
-0.07662098109722137 0.11932388693094254 0.940909743309021
-0.02433464676141739 -0.2261694073677063 1.1652417182922363
-0.1371166855096817 0.2770949900150299 0.22896456718444824
-0.07093910127878189 0.059518881142139435 0.9449071884155273
-0.0666428655385971 0.03437356650829315 0.995885968208313
0.007052641361951828 -0.025016261264681816 1.5214802026748657
-0.06016696244478226 -0.18964701890945435 1.3935548067092896
-0.009532460942864418 0.08916634321212769 1.2943400144577026
0.027682432904839516 -0.01827164925634861 1.4221928119659424
0.0048073939979076385 -0.033897221088409424 1.5302952527999878
-0.007841961458325386 0.06912922114133835 0.9505156874656677
0.004053795710206032 0.05559565871953964 0.9026762247085571
0.002715643495321274 -0.20499414205551147 1.3849360942840576
0.007561441045254469 0.03704140707850456 1.0407981872558594
0.0004784725606441498 -0.22179250419139862 1.1049655675888062
0.07608615607023239 0.075208380818367 1.3224889039993286
0.030520765110850334 -0.06950460374355316 1.3203034400939941
0.0630192905664444 0.04650776460766792 1.4576716423034668
0.03240261226892471 -0.008118920028209686 1.4697362184524536
0.04498166963458061 -0.05676661431789398 1.228069543838501
0.04219517484307289 0.10093394666910172 0.9109183549880981
0.025564879179000854 -0.05347670614719391 1.7924493551254272
0.14232172071933746 -0.46553170680999756 0.15928877890110016
0.1549585908651352 -0.4755951762199402 0.11808484047651291
0.12985603511333466 -0.3867928683757782 0.18229641020298004
0.008240858092904091 -0.20370641350746155 1.6953229904174805
0.060398198664188385 -0.20034624636173248 0.7263535857200623
0.10186722129583359 -0.01429682970046997 1.4410312175750732
0.061441391706466675 -0.13750235736370087 1.528639316558838
0.09845159947872162 -0.1512896567583084 1.4544422626495361
0.05174132436513901 -0.10104678571224213 1.4292194843292236
0.10819004476070404 -0.347938597202301 0.470983624458313
0.12710900604724884 -0.47956472635269165 0.34941914677619934
0.15134179592132568 -0.3795766830444336 0.30802077054977417
0.07059266418218613 0.07524514943361282 0.9556537866592407
0.04920747131109238 0.10131760686635971 0.909818172454834
0.08028750121593475 -0.2360929250717163 0.8253228664398193
0.10078045725822449 -0.24932622909545898 0.6889489889144897
0.03419908508658409 -0.10321435332298279 1.7911992073059082
0.0770162045955658 -0.1202152818441391 1.7447545528411865
0.0974135473370552 -0.3889136016368866 0.6686661839485168
0.04782276228070259 -0.039239030331373215 1.7999727725982666
0.07217958569526672 -0.06329645961523056 1.7535656690597534
0.09047675877809525 -0.1038593053817749 1.1452068090438843
0.09173674881458282 -0.08616028726100922 1.1170858144760132
0.08863140642642975 -0.16356343030929565 1.092170238494873
0.06410562992095947 -0.17779743671417236 1.6867951154708862
0.07212713360786438 -0.12184713780879974 1.5607162714004517
0.07247783243656158 -0.1674344539642334 1.5698586702346802
0.11530771851539612 0.06051409989595413 0.9124721884727478
0.10171320289373398 -0.1701943576335907 1.2923473119735718
0.11637521535158157 -0.22692108154296875 1.2338017225265503
0.10510431230068207 -0.14217433333396912 1.2448170185089111
0.204219788312912 -0.3805537819862366 0.25027117133140564
0.18226812779903412 -0.47672170400619507 0.26123738288879395
0.20199964940547943 -0.46898153424263 0.2422257512807846
0.09047757089138031 -0.03455532342195511 1.7709596157073975
0.11581119894981384 -0.1915207803249359 1.2872101068496704
0.17882497608661652 -0.3461422026157379 0.5171700716018677
0.14452481269836426 -0.3835604786872864 0.5941935777664185
0.18932712078094482 -0.37902432680130005 0.4683254361152649
0.11517048627138138 -0.1730317771434784 1.4422343969345093
0.09690598398447037 -0.16543668508529663 1.4386515617370605
0.12479463219642639 -0.1362593173980713 1.4071483612060547
0.1223514974117279 0.07326294481754303 0.8947924375534058
0.11707843840122223 -0.10450242459774017 0.8631407618522644
0.21872691810131073 -0.40806570649147034 0.34413406252861023
0.22302640974521637 -0.4378851652145386 0.3580639362335205
0.1350707858800888 -0.12018728256225586 1.4047688245773315
0.16339971125125885 0.020494159311056137 1.2351398468017578
0.16281259059906006 0.051711928099393845 1.2008825540542603
0.13348479568958282 -0.27121973037719727 1.1119778156280518
0.16039419174194336 -0.038998331874608994 0.9718835353851318
0.16184067726135254 -0.09135541319847107 0.9675977230072021
0.19360733032226562 -0.06300260126590729 1.242955207824707
0.2862977981567383 -0.12269619107246399 1.1148135662078857
0.2834934592247009 -0.06764104962348938 1.1168667078018188
0.30193957686424255 -0.17863860726356506 1.1647837162017822
-0.3587682545185089 -0.02977120131254196 1.045818567276001
-0.3853118121623993 -0.09085642546415329 1.0067228078842163
-0.28822946548461914 -0.13017331063747406 1.1147704124450684
-0.2969394326210022 -0.1565011888742447 1.1623190641403198
-0.24604909121990204 -0.09402315318584442 1.1393811702728271
-0.23081910610198975 -0.051573313772678375 1.1761155128479004
-0.19651150703430176 -0.15286076068878174 0.8683069348335266
-0.2039458304643631 0.03965071216225624 0.961594820022583
-0.19200211763381958 0.03327011689543724 1.0786240100860596
-0.1583651900291443 -0.27093902230262756 1.067695140838623
-0.13314282894134521 -0.1718178391456604 0.9580303430557251
-0.2376709282398224 0.14115117490291595 0.3366563022136688
-0.22183403372764587 0.09097859263420105 0.30927497148513794
-0.16295471787452698 0.024780144914984703 0.5465499758720398
-0.15558665990829468 -0.19345280528068542 0.8540282249450684
-0.15635214745998383 -0.0780998021364212 0.6173696517944336
-0.14691190421581268 -0.11343918740749359 0.6722942590713501
-0.13878992199897766 -0.04334058240056038 0.6822412014007568
-0.11734102666378021 -0.031566016376018524 1.112673282623291
-0.111165851354599 -0.1031474620103836 1.1324868202209473
-0.09669072180986404 0.10878147184848785 1.135274887084961
-0.11928512156009674 -0.011042924597859383 0.8521632552146912
-0.18052472174167633 0.06866450607776642 0.3080843687057495
-0.11578410863876343 -0.06731314957141876 1.2220497131347656
-0.10385928303003311 -0.060551248490810394 1.1462459564208984
-0.16348518431186676 -0.011918755248188972 0.4373636841773987
-0.12848764657974243 -0.0493774451315403 1.7702388763427734
-0.1292775273323059 -0.09010357409715652 1.7687792778015137
-0.07949522137641907 -0.12168768048286438 1.7870845794677734
-0.09380936622619629 -0.17056915163993835 1.7528578042984009
-0.11488479375839233 -0.18517804145812988 1.6456122398376465
-0.15129095315933228 0.07864948362112045 0.36499395966529846
-0.06963185220956802 -0.1171882227063179 0.7239384651184082
-0.12857207655906677 0.11789539456367493 0.2977725863456726
-0.15133880078792572 0.09367918223142624 0.2817589044570923
-0.14918233454227448 0.2132904827594757 0.31921321153640747
-0.056152015924453735 0.0656583309173584 0.9738277792930603
-0.07660335302352905 -0.024499794468283653 1.8140347003936768
-0.09372813999652863 -0.03857642412185669 1.8012144565582275
0.01083249133080244 0.04154229536652565 1.1261764764785767
-0.08979961276054382 0.03299114108085632 1.1315064430236816
-0.003664054675027728 0.025642137974500656 1.1948727369308472
0.014452867209911346 -0.07638663053512573 1.2661749124526978
-0.004250799305737019 0.11905457079410553 1.1655699014663696
-0.015412695705890656 0.04713527113199234 0.9948117136955261
0.05356306955218315 0.13725614547729492 1.0672186613082886
0.016338970512151718 0.06923956423997879 1.6587095260620117
0.026121370494365692 0.042727794498205185 1.0029689073562622
0.046399280428886414 -0.2077280580997467 0.9132966995239258
0.09752659499645233 -0.436763197183609 0.3536844849586487
0.12384206801652908 -0.4477764964103699 0.29989007115364075
0.04395487904548645 -0.26192033290863037 0.7754066586494446
0.03204996511340141 0.009497282095253468 1.0761370658874512
0.07637637853622437 -0.3067820966243744 0.6374806761741638
0.0885971337556839 0.019429218024015427 1.2724297046661377
0.07616733014583588 -0.18745046854019165 1.4135798215866089
0.051362596452236176 0.04862288385629654 1.6242257356643677
0.052803073078393936 -0.029557492583990097 1.617732048034668
0.05861414223909378 -0.017990872263908386 1.5834007263183594
0.046358995139598846 -0.02366960048675537 1.8486653566360474
0.08145682513713837 -0.1906411051750183 1.3344478607177734
0.14671660959720612 -0.3083508014678955 0.5705819129943848
0.11429250240325928 -0.29394274950027466 0.5584031343460083
0.15435127913951874 -0.3459603190422058 0.41930675506591797
0.17866511642932892 -0.3601222038269043 0.39644956588745117
0.0986652672290802 -0.11637373268604279 1.5496351718902588
0.08989556133747101 -0.1258857250213623 1.5626533031463623
0.10001529008150101 -0.1227167546749115 1.5431140661239624
0.12925566732883453 -0.15617427229881287 0.7611510157585144
0.12962912023067474 -0.30315259099006653 0.7135273814201355
0.12263495475053787 0.04027725011110306 0.9397345185279846
0.12108469754457474 -0.0732935443520546 1.0892889499664307
0.1207699179649353 -0.12794838845729828 1.076969861984253
0.1252320408821106 -0.13766232132911682 1.019066572189331
0.09832040965557098 -0.054934486746788025 1.6659553050994873
0.11063216626644135 -0.0773419737815857 1.578609585762024
0.10985546559095383 -0.21011728048324585 1.2180278301239014
0.11791802942752838 -0.009632423520088196 1.5533655881881714
0.10850855708122253 -0.027537722140550613 1.5944888591766357
0.23448596894741058 -0.37884286046028137 0.16682091355323792
0.2480599582195282 -0.4373394548892975 0.1506403535604477
0.13342392444610596 -0.02993161231279373 1.5168876647949219
0.13959527015686035 -0.019593000411987305 1.4845093488693237
0.150833398103714 -0.022274181246757507 1.4351038932800293
0.15289762616157532 -0.00712382048368454 1.4154738187789917
0.12682871520519257 -0.2805294096469879 1.1290535926818848
0.16858339309692383 -0.1333548128604889 0.8765190839767456
0.14742079377174377 -0.2548251748085022 1.1489888429641724
0.14130285382270813 -0.2793363630771637 1.1300983428955078
0.20013462007045746 -0.08997015655040741 0.8770571947097778
0.20172019302845 -0.08141505718231201 0.8528568744659424
0.21422821283340454 -0.048109687864780426 0.846605658531189
-0.2527773678302765 -0.1522293984889984 1.176450252532959
-0.17048753798007965 -0.17643257975578308 1.2494617700576782
-0.18394331634044647 -0.1708371341228485 1.2338169813156128
-0.1714274287223816 -0.16183097660541534 1.2439039945602417
-0.16514483094215393 -0.16567140817642212 1.2606072425842285
-0.20208828151226044 0.006869012489914894 0.8636057376861572
-0.1317407488822937 -0.1298227161169052 1.2917391061782837
-0.15199607610702515 -0.08177497982978821 1.0834150314331055
-0.15022318065166473 0.0071632228791713715 1.5543336868286133
-0.13503725826740265 -0.13142429292201996 1.1969189643859863
-0.14201220870018005 -0.1119241714477539 1.1500130891799927
-0.12901908159255981 -0.0024287309497594833 1.445312261581421
-0.12308252602815628 -0.009142624214291573 1.3887226581573486
-0.1250338852405548 -0.15961575508117676 1.0433955192565918
-0.08894862979650497 -0.1818784773349762 1.000704050064087
-0.1388447880744934 -0.02361949533224106 0.7736655473709106
-0.08292727172374725 0.08929768949747086 1.2170236110687256
-0.09336376190185547 0.06458117067813873 1.6345759630203247
-0.132704958319664 0.35622087121009827 0.23249070346355438
-0.14424797892570496 0.3721121847629547 0.24271520972251892
-0.08870165050029755 0.029366863891482353 0.8696616291999817
-0.009345507249236107 0.0996105745434761 0.8483564853668213
-0.07132003456354141 -0.012119509279727936 0.8437578678131104
0.00946095585823059 0.001994711346924305 1.3074787855148315
-0.04305463656783104 -0.07335162162780762 0.7540574073791504
-0.03558966517448425 -0.20217517018318176 1.6700059175491333
-0.011038248427212238 0.021335942670702934 0.8658355474472046
-0.006791146472096443 -0.017838269472122192 0.8468062281608582
0.012905440293252468 -0.1066584438085556 0.8592805862426758
-0.07938354462385178 -0.16639436781406403 0.8575758337974548
0.0003849472850561142 -0.21897484362125397 0.8559441566467285
0.020523859187960625 -0.11169426143169403 0.8441495895385742
-0.0006794137298129499 -0.15627771615982056 0.8652768135070801
0.0003011617809534073 -0.06084110587835312 1.5107507705688477
0.02532951720058918 -0.035602226853370667 0.8351561427116394
0.027453642338514328 -0.06952590495347977 0.80464106798172
0.01180584728717804 -0.03513309732079506 1.5873390436172485
0.014753635972738266 -0.031902097165584564 1.5582892894744873
0.030871501192450523 -0.11623069643974304 0.8558071851730347
0.13321584463119507 0.05157255381345749 0.81559818983078
0.10556642711162567 -0.40732651948928833 0.3449126183986664
0.05265435576438904 -0.07622774690389633 0.7796354293823242
0.06396882236003876 0.0477144718170166 1.1575013399124146
0.11995196342468262 -0.4053804576396942 0.48033615946769714
0.12460478395223618 -0.4021645188331604 0.41116052865982056
0.13472937047481537 -0.4195626378059387 0.43570399284362793
0.13296905159950256 -0.4773656129837036 0.39594125747680664
0.10367903858423233 -0.004888258874416351 1.5232497453689575
0.07908984273672104 -0.022527310997247696 0.8228319883346558
0.1077837198972702 -0.070961594581604 0.7950987815856934
0.10393577814102173 -0.11192178726196289 1.2536869049072266
0.14358653128147125 -0.4030332565307617 0.5374414920806885
0.09370660781860352 -0.002307102084159851 1.6283299922943115
0.0885005071759224 -0.08848235756158829 1.3173578977584839
0.16512838006019592 -0.42213356494903564 0.4402126371860504
0.07956470549106598 0.11730830371379852 1.1379107236862183
0.10529594123363495 -0.07810422033071518 1.2335392236709595
0.19263391196727753 -0.3830038607120514 0.3118666410446167
0.11510349810123444 0.11659477651119232 1.042708158493042
0.17605704069137573 -0.3755340874195099 0.3328273296356201
0.17737701535224915 -0.4929018020629883 0.3681662678718567
0.1428673267364502 0.0102584483101964 1.2962646484375
0.1047360748052597 -0.16354776918888092 1.4862685203552246
0.12021610885858536 -0.1468702256679535 1.4550960063934326
0.10277075320482254 -0.16068854928016663 1.4865913391113281
0.13377803564071655 -0.13406118750572205 1.445205807685852
0.1339215785264969 -0.23437196016311646 1.2003629207611084
0.11816965043544769 -0.24268274009227753 1.1888988018035889
0.15450818836688995 0.03417227044701576 1.1825975179672241
0.16593854129314423 0.0681261345744133 1.1043237447738647
0.1555703729391098 0.060990553349256516 1.0680830478668213
0.1634843647480011 -0.10902858525514603 1.2786364555358887
0.1487502157688141 -0.1555805802345276 1.2711673974990845
0.1541142612695694 -0.15167447924613953 0.8910122513771057
0.1597464382648468 -0.17770196497440338 1.2741930484771729
0.21865205466747284 -0.16792184114456177 1.1749858856201172
0.20114226639270782 -0.08644220232963562 1.1876587867736816
0.21978604793548584 -0.13251718878746033 1.1562888622283936
0.29518452286720276 -0.16458703577518463 1.205329179763794
0.33248746395111084 -0.08337972313165665 1.1003477573394775
0.32916003465652466 -0.16067305207252502 1.1256004571914673
-0.15805116295814514 -0.268206387758255 1.111264944076538
-0.1570003777742386 -0.21076536178588867 1.1799395084381104
-0.16348424553871155 -0.20359240472316742 1.203369140625
-0.14650598168373108 -0.255066454410553 1.115594506263733
-0.1451130509376526 -0.0024893898516893387 1.4779690504074097
-0.15392851829528809 -0.017337197437882423 1.4604899883270264
-0.1605166345834732 0.0023040082305669785 1.4122583866119385
-0.15636731684207916 -0.061135753989219666 1.7296466827392578
-0.15549206733703613 -0.11240726709365845 1.6518354415893555
-0.20731694996356964 0.08534005284309387 0.36902084946632385
-0.13835494220256805 -0.06163642555475235 0.8493393659591675
-0.13896183669567108 -0.0862017273902893 0.8277416229248047
-0.19463816285133362 0.05614600330591202 0.9325231909751892
-0.09357774257659912 -0.18394091725349426 1.2391941547393799
-0.12623177468776703 -0.021763090044260025 0.8232359886169434
-0.09688994288444519 -0.060749463737010956 1.7849531173706055
-0.0885629877448082 -0.14788630604743958 1.1302727460861206
-0.04819910228252411 -0.21058231592178345 1.1188302040100098
-0.10605365037918091 0.04650454968214035 1.0454083681106567
-0.017043136060237885 0.04935936629772186 1.0375001430511475
-0.08182428777217865 -0.044497136026620865 1.1651779413223267
-0.05933640897274017 -0.10708821564912796 0.8483633995056152
-0.04160919785499573 -0.20695307850837708 1.0581070184707642
-0.06112092360854149 0.008822334930300713 1.06689453125
-0.026810303330421448 -0.17044281959533691 1.767911672592163
0.018607011064887047 -0.168483704328537 0.7959256172180176
-0.05672690272331238 0.006324696354568005 1.2723667621612549
0.1510038524866104 -0.4189797043800354 0.10205116122961044
0.0864017903804779 0.12548460066318512 0.9748067855834961
0.06588459014892578 0.06036261469125748 1.0561578273773193
0.022975150495767593 0.13598263263702393 0.9856622815132141
0.10104983299970627 0.08467075973749161 0.8309585452079773
0.21073347330093384 -0.3351347744464874 0.16045984625816345
0.11992081999778748 -0.04618874192237854 0.8219795823097229
0.1519789695739746 -0.4084876775741577 0.4906492829322815
0.11865153163671494 -0.1759682595729828 1.399049997329712
0.12543371319770813 -0.17682038247585297 1.3087174892425537
0.20341292023658752 -0.005195586010813713 0.8228546977043152
0.20399048924446106 -0.020419705659151077 0.8966343402862549
0.33719998598098755 -0.12371888756752014 1.1027405261993408
-0.31776881217956543 -0.155239537358284 1.1233855485916138
-0.19371534883975983 -0.09038010239601135 0.9264616370201111
-0.21871596574783325 -0.07057548314332962 0.8684349060058594
-0.16102556884288788 -0.01734631508588791 1.4101940393447876
-0.16482053697109222 0.005049290135502815 1.2275378704071045
-0.1460607498884201 -0.07943505793809891 1.5533456802368164
-0.14231093227863312 -0.07301265746355057 1.0509475469589233
-0.14633409678936005 -0.10353986918926239 1.088749885559082
-0.1444506198167801 -0.07430487126111984 1.554038166999817
-0.14353571832180023 -0.09147705137729645 1.5421900749206543
-0.14158156514167786 -0.08534738421440125 1.5491472482681274
-0.14445489645004272 -0.0858386754989624 1.554752230644226
-0.14677587151527405 -0.10189875960350037 1.5447685718536377
-0.20326507091522217 0.18992356956005096 0.20466814935207367
-0.14617817103862762 -0.13832330703735352 1.7165272235870361
-0.0420692078769207 -0.051756851375103 1.2218619585037231
-0.14911703765392303 0.30766770243644714 0.13729390501976013
-0.049461256712675095 -0.07148194313049316 1.2624602317810059
-0.015021951869130135 -0.04657263681292534 1.176157832145691
-0.04211737960577011 0.09419545531272888 0.9346808195114136
-0.02771138586103916 -0.0640600249171257 1.8066474199295044
-0.057561445981264114 -0.07311007380485535 0.6888076066970825
-0.03508305177092552 0.010612324811518192 1.2305601835250854
0.018780916929244995 -0.19907602667808533 1.0068984031677246
-0.023238258436322212 -0.23440194129943848 1.203816533088684
0.0008701784536242485 0.037676721811294556 1.0911226272583008
0.12804819643497467 -0.4027734100818634 0.29179322719573975
0.07654233276844025 -0.17147675156593323 0.9892518520355225
0.11779685318470001 -0.15141022205352783 0.9678477644920349
0.0727616399526596 -0.020932238548994064 1.5469417572021484
0.07994072139263153 -0.18969950079917908 1.1651629209518433
0.035562530159950256 -0.05018498748540878 1.1734400987625122
0.09327399730682373 -0.028406033292412758 1.0857176780700684
0.07715719938278198 0.0686420425772667 0.9463995099067688
0.2277889847755432 -0.472351610660553 0.06541046500205994
0.2033439427614212 -0.4569527208805084 0.059520166367292404
0.25483590364456177 -0.4501417279243469 0.08035506308078766
0.20183628797531128 -0.48379895091056824 0.33861246705055237
0.10305289924144745 -0.16076511144638062 1.4831788539886475
0.1034989282488823 -0.16100949048995972 1.4825927019119263
0.09844488650560379 -0.13419999182224274 1.3285229206085205
0.12558946013450623 -0.16066795587539673 1.3025665283203125
0.1558271199464798 0.08936837315559387 0.9850779175758362
0.14963512122631073 0.059119947254657745 0.9380583763122559
0.16093036532402039 0.07067057490348816 0.9347028732299805
0.33618032932281494 -0.06528982520103455 1.1090260744094849
0.35664111375808716 -0.13325795531272888 1.0781776905059814
0.38443857431411743 -0.15455739200115204 1.0643389225006104
-0.306319922208786 -0.06653960049152374 1.0610320568084717
-0.16626480221748352 -0.24208581447601318 1.1595909595489502
-0.1794968545436859 0.0577755831182003 0.38706550002098083
-0.15040834248065948 0.04271211475133896 0.903852641582489
-0.09821339696645737 -0.16167482733726501 1.0797533988952637
-0.04116417095065117 -0.03493056446313858 0.8441309928894043
-0.06236496940255165 -0.021177496761083603 0.8059052228927612
-0.0539853610098362 -0.07459376007318497 0.8048252463340759
-0.013240400701761246 0.002467603422701359 1.1129368543624878
0.030034899711608887 -0.20018883049488068 0.8510084748268127
0.09988231956958771 0.016871534287929535 0.8353086709976196
0.07974044978618622 0.06393798440694809 1.0169172286987305
0.10035271942615509 -0.055488862097263336 1.5748560428619385
0.1107955276966095 -0.03789610415697098 1.5463165044784546
0.18640071153640747 -0.07853502035140991 0.9190565943717957
-0.17265549302101135 -0.2434266209602356 1.1236917972564697
-0.1549205482006073 -0.02125142142176628 1.5769081115722656
-0.11077944934368134 0.06063389778137207 0.95246821641922
-0.132782444357872 0.016525469720363617 1.6018407344818115
-0.10130883753299713 -0.023973627015948296 1.5984200239181519
-0.06669425964355469 -0.03115791827440262 1.5787328481674194
0.04681544005870819 -0.20382755994796753 1.0607361793518066
0.06489714980125427 -0.1951480209827423 1.2499340772628784
0.1477404534816742 -0.47194385528564453 0.2517305016517639
0.10760580003261566 -0.16247136890888214 1.2163822650909424
0.11594805121421814 -0.13303937017917633 1.167342185974121
0.13474304974079132 -0.006926054134964943 1.4383974075317383
0.11405251920223236 0.02510058507323265 1.4315235614776611
0.11802379786968231 -0.08590231090784073 1.1826180219650269
0.11903979629278183 -0.09179192781448364 0.833674430847168
0.09852869063615799 -0.2310035526752472 1.216245174407959
0.1453114151954651 0.028269881382584572 1.31551194190979
-0.146401047706604 0.010610101744532585 1.3247114419937134
-0.1618124097585678 0.11172342300415039 0.44677942991256714
0.035909589380025864 -0.21258901059627533 0.7695930600166321
0.030817251652479172 -0.17360660433769226 1.7492554187774658
-0.19960394501686096 0.055794939398765564 1.010333776473999
-0.1553368717432022 -0.16472917795181274 1.2626621723175049
-0.12420570105314255 0.05511734262108803 0.4422852694988251
0.0053190868347883224 0.05813814699649811 1.4494290351867676
0.17713430523872375 -0.4608573615550995 0.06898149847984314
0.1051066666841507 -0.1222066804766655 1.5455727577209473
0.10182886570692062 -0.12123671174049377 1.5416700839996338
0.10572373867034912 -0.14935040473937988 1.437604546546936
0.19946126639842987 -0.4668441414833069 0.30183616280555725
0.2129431813955307 -0.4282491207122803 0.28998270630836487
0.20143671333789825 -0.18599414825439453 1.2204434871673584
-0.17002034187316895 -0.16563573479652405 0.9294863343238831
-0.15113620460033417 -0.0029681045562028885 1.3652558326721191
-0.15087145566940308 -0.005434717983007431 1.365782618522644
-0.1545131802558899 -0.008057476952672005 1.366899847984314
-0.13740521669387817 0.18919123709201813 0.2719012498855591
-0.0402744859457016 -0.08882808685302734 0.8448445796966553
0.12521149218082428 -0.4346729815006256 0.24599885940551758
0.2563518285751343 -0.18798062205314636 1.1840465068817139
0.09053827822208405 -0.12453806400299072 1.6913063526153564
0.13213209807872772 -0.15722644329071045 0.8218259811401367
0.150800883769989 -0.010833028703927994 1.3905242681503296
0.15086513757705688 0.00786286685615778 1.3408547639846802
0.14731021225452423 -0.3540387451648712 0.1315099596977234
0.3795595169067383 -0.5379655361175537 0.9688112735748291
0.3685733675956726 -0.49955618381500244 0.9532201886177063
0.37311890721321106 -0.5097301006317139 0.9518784880638123
0.36105063557624817 -0.5090991258621216 0.9560794234275818
0.37703749537467957 -0.5342699885368347 0.9513119459152222
0.37910276651382446 -0.528923511505127 0.9706084132194519
0.37348344922065735 -0.36281341314315796 1.001370906829834
0.36220666766166687 -0.3680703341960907 0.9891036152839661
0.375649094581604 -0.3893895447254181 0.9940303564071655
0.36671754717826843 -0.40045031905174255 0.992625892162323
0.35474327206611633 -0.17327743768692017 0.9886900782585144
0.35396817326545715 -0.19635652005672455 0.9975582957267761
0.3575204908847809 -0.1838400959968567 0.9749085307121277
0.36726656556129456 -0.3715243339538574 0.9503116011619568
0.3635386526584625 -0.39471763372421265 0.9618659019470215
0.37692418694496155 -0.4367676079273224 1.0053805112838745
0.3754298985004425 -0.418823778629303 0.9972555637359619
0.3585631549358368 -0.21926794946193695 0.9443275332450867
0.3569662570953369 -0.23618309199810028 0.9644213914871216
0.37377870082855225 -0.28664708137512207 1.0173795223236084
0.363351970911026 -0.28235775232315063 1.0146396160125732
0.38537389039993286 -0.507259726524353 0.9911735653877258
0.3793821930885315 -0.48142728209495544 0.9471848011016846
0.3648984432220459 -0.18300172686576843 0.9648368954658508
0.3616783022880554 -0.1878696084022522 0.9602128863334656
0.3620988130569458 0.007567070424556732 1.125443696975708
0.3622414469718933 -0.00745045393705368 1.1183819770812988
0.3594352602958679 0.013919629156589508 1.1035476922988892
0.3740901052951813 -0.45929181575775146 0.9895833730697632
0.3766103982925415 -0.48697754740715027 0.9863508939743042
0.36633798480033875 -0.1832411289215088 0.9582750797271729
0.3639153242111206 -0.17734813690185547 0.9483626484870911
0.3849354684352875 -0.5468495488166809 0.9098227620124817
0.385845810174942 -0.5642000436782837 0.9144077301025391
0.3649730384349823 0.021840237081050873 1.1225841045379639
0.3699740767478943 0.008821725845336914 1.1296918392181396
0.3595540225505829 0.026325471699237823 1.1173980236053467
0.36434462666511536 0.018479913473129272 1.1034120321273804
0.3924157917499542 -0.6051140427589417 0.957237720489502
0.4002439081668854 -0.6323363184928894 0.9613097906112671
0.3964557647705078 -0.628393828868866 0.9429439902305603
0.3676352798938751 -0.30200690031051636 0.9491687417030334
0.3716103732585907 -0.32248419523239136 0.9420667886734009
0.37298476696014404 -0.3480932116508484 0.930341899394989
0.37929490208625793 -0.34071263670921326 0.9264586567878723
0.3694513738155365 -0.0014870166778564453 1.1348967552185059
0.36647677421569824 0.027737058699131012 1.1149623394012451
0.3918076753616333 -0.4549442529678345 1.0084795951843262
0.396754652261734 -0.4572082459926605 1.0093053579330444
0.38778141140937805 -0.4739822447299957 1.001509428024292
0.3987453579902649 -0.4905102252960205 1.0037282705307007
0.3729889392852783 -0.2551476061344147 0.9493786096572876
0.37094902992248535 -0.2721378803253174 0.9386312365531921
0.3697100877761841 -0.2779613733291626 0.9461774826049805
0.3688735365867615 0.028635792434215546 1.1179721355438232
0.37449386715888977 -0.0016320347785949707 1.1308289766311646
0.37197229266166687 0.012531094253063202 1.106503963470459
0.36015182733535767 -0.13911691308021545 0.9316215515136719
0.3610573410987854 -0.1445605456829071 0.9201464653015137
0.36751794815063477 -0.16208051145076752 0.9392335414886475
0.36464619636535645 -0.15522992610931396 0.9341063499450684
0.3610553443431854 -0.15176987648010254 0.9307737946510315
0.3885575532913208 -0.36736059188842773 0.9147555232048035
0.37557005882263184 -0.34669893980026245 0.9166492223739624
0.37840041518211365 -0.35408854484558105 0.9044303894042969
0.3835085332393646 -0.357890784740448 0.9032630324363708
0.3713497817516327 0.008351586759090424 1.1121946573257446
0.4048541784286499 -0.6375997066497803 0.9664056897163391
0.4011547863483429 -0.6300211548805237 0.9493914842605591
0.40870150923728943 -0.6487426161766052 0.9607008099555969
0.3975471556186676 -0.6525875329971313 0.963646650314331
0.39804601669311523 -0.6202168464660645 0.9375118613243103
0.3839375078678131 -0.17133256793022156 0.9831862449645996
0.3738246560096741 -0.17973589897155762 0.966301441192627
0.39439865946769714 -0.5230076909065247 0.9084716439247131
0.3875308334827423 -0.5505752563476562 0.912891685962677
0.3980943262577057 -0.5802770853042603 0.9163041114807129
0.38496828079223633 -0.279049277305603 1.0245485305786133
0.3857206106185913 -0.29655691981315613 1.017697811126709
0.39364489912986755 -0.30589908361434937 1.010504961013794
0.39376118779182434 -0.4495558440685272 1.0179299116134644
0.39947566390037537 -0.4575100243091583 1.003912329673767
0.4023294150829315 -0.514551043510437 0.9960954785346985
0.39209645986557007 -0.4156198501586914 1.0093903541564941
0.39744922518730164 -0.5001566410064697 0.9354437589645386
0.39834967255592346 -0.5341394543647766 0.9222028255462646
0.39059844613075256 -0.27257171273231506 1.0187791585922241
0.3996339440345764 -0.4234532117843628 0.9870823621749878
0.4046769440174103 -0.4015168845653534 0.987238347530365
0.4022795259952545 -0.4461177885532379 0.989249050617218
0.40009117126464844 -0.5942509770393372 0.9477905631065369
0.4086318910121918 -0.5772439241409302 0.9409284591674805
0.39226970076560974 -0.39761608839035034 0.939892053604126
0.3983994126319885 -0.40551844239234924 0.9554128050804138
0.3942011892795563 -0.4228343069553375 0.9507198333740234
0.4003490209579468 -0.4259909987449646 0.961676299571991
0.3995775580406189 -0.347004234790802 0.9967142343521118
0.3903942108154297 -0.3873273730278015 0.9902087450027466
0.40080416202545166 -0.5048168301582336 0.9769613742828369
0.40841448307037354 -0.5231558084487915 0.9668905138969421
0.39752593636512756 -0.530570387840271 0.9677632451057434
0.39972254633903503 -0.4888169467449188 0.9551391005516052
0.4025803208351135 -0.4951488971710205 0.9482877254486084
0.3963164687156677 -0.35704314708709717 0.9532314538955688
0.3961122930049896 -0.3737775683403015 0.9515371322631836
0.390621155500412 -0.34182852506637573 0.9412199258804321
0.3931673765182495 -0.3661193251609802 0.9449560642242432
0.3916003108024597 -0.3865545392036438 0.9512643218040466
0.3986964225769043 -0.3433014452457428 0.9721964001655579
0.3979753851890564 -0.32914358377456665 0.9823967814445496
0.39223331212997437 -0.30478131771087646 0.9570229649543762
0.39228707551956177 -0.3240022659301758 0.9691104888916016
0.4056164622306824 -0.5078327059745789 0.948699414730072
0.41041940450668335 -0.5267432928085327 0.9502220153808594
0.40636998414993286 -0.5165050029754639 0.9481529593467712
0.42010700702667236 -0.5177719593048096 0.9516362547874451
0.3919634222984314 -0.1902332305908203 0.9922022223472595
0.3621680736541748 -0.4836209714412689 0.9717798233032227
0.35874319076538086 -0.496634304523468 0.9592618346214294
0.36455273628234863 -0.41109606623649597 0.9812108874320984
0.36283108592033386 -0.41058748960494995 0.9755970239639282
0.3569401204586029 -0.43075472116470337 0.9803792238235474
0.3600223958492279 -0.41830363869667053 0.972699761390686
0.36201268434524536 -0.43483200669288635 0.977185845375061
0.36743614077568054 -0.3677898645401001 0.9697015881538391
0.3642244338989258 -0.3821532130241394 0.9657367467880249
0.36373981833457947 -0.3508325517177582 0.9754348993301392
0.36370426416397095 -0.43092167377471924 0.9852523803710938
0.3809047043323517 -0.5008261203765869 0.9277534484863281
0.3777686655521393 -0.5299440622329712 0.9481017589569092
0.36513715982437134 -0.4030570983886719 0.9537901282310486
0.37745824456214905 -0.5571364164352417 0.9540573954582214
0.37651774287223816 -0.5800201892852783 0.9432708621025085
0.3845812678337097 -0.5615078210830688 0.9423453211784363
0.3868028521537781 -0.601367175579071 0.952003538608551
0.3592357635498047 -0.17316749691963196 1.010090708732605
0.3778284192085266 -0.2410668581724167 1.0618934631347656
0.36711281538009644 -0.24392132461071014 1.051672101020813
0.3799596428871155 -0.24792708456516266 1.0559039115905762
0.36472827196121216 -0.2596045136451721 0.9593760967254639
0.35807910561561584 0.008526347577571869 1.0909680128097534
0.3642696440219879 -0.018626898527145386 1.1250154972076416
0.3638209402561188 -0.03511147201061249 1.1166545152664185
0.36449381709098816 -0.027920160442590714 1.1096205711364746
0.3872096538543701 -0.36931920051574707 1.0038788318634033
0.38843730092048645 -0.5288295745849609 0.998866081237793
0.39318254590034485 -0.5909661054611206 0.9269285202026367
0.35847562551498413 -0.06162034720182419 1.059017300605774
0.36821314692497253 -0.08666697144508362 1.038191318511963
0.38402172923088074 -0.34757405519485474 1.021129846572876
0.37610697746276855 -0.3507108688354492 1.01088285446167
0.37881094217300415 -0.3993724286556244 0.99956876039505
0.39028996229171753 -0.6047127842903137 0.9258153438568115
0.39926114678382874 -0.6427534818649292 0.9678035974502563
0.40320339798927307 -0.6535325050354004 0.9684444665908813
0.3992515802383423 -0.6436967253684998 0.9527920484542847
0.36456990242004395 -0.14018458127975464 1.0201661586761475
0.3735325038433075 -0.16672714054584503 1.013093113899231
0.39426103234291077 -0.3962081968784332 1.0003629922866821
0.365485817193985 -0.16869781911373138 0.9858194589614868
0.3918412923812866 -0.5643458366394043 0.9171063899993896
0.3821646273136139 -0.1991485059261322 1.0906463861465454
0.38575828075408936 -0.19969668984413147 1.0919822454452515
0.3836881220340729 -0.20626609027385712 1.075713872909546
0.38539475202560425 -0.2158030867576599 1.08186674118042
0.390685498714447 -0.2316286563873291 1.083418607711792
0.36879223585128784 -0.19906198978424072 1.0526882410049438
0.3844439387321472 -0.19941949844360352 1.05684232711792
0.4009549915790558 -0.6517282724380493 0.9703976511955261
0.386388897895813 -0.4138915538787842 0.9387415051460266
0.38585060834884644 -0.4254387617111206 0.9414013028144836
0.3812713623046875 -0.4337162375450134 0.9414220452308655
0.38041892647743225 -0.38785260915756226 0.9286830425262451
0.39189228415489197 -0.21267804503440857 1.0820989608764648
0.3883811831474304 -0.23150378465652466 1.0801503658294678
0.37368178367614746 -0.18354976177215576 0.950652003288269
0.3860885798931122 -0.20580151677131653 1.0868022441864014
0.3870519697666168 -0.2107963263988495 1.0729674100875854
0.39335787296295166 -0.43683403730392456 1.0096033811569214
0.37332168221473694 -0.17864249646663666 0.923180341720581
0.37149158120155334 -0.1790252923965454 0.9177205562591553
0.3704855740070343 -0.1877267062664032 0.9019453525543213
0.37095198035240173 -0.19946683943271637 0.905630350112915
0.3835811913013458 -0.16929057240486145 1.0097925662994385
0.3917747437953949 -0.2355910837650299 1.0627559423446655
0.39607536792755127 -0.45525866746902466 0.9878559708595276
0.3956138789653778 -0.47881922125816345 0.9899352192878723
0.376465380191803 -0.1972956657409668 0.9451866745948792
0.3835686445236206 -0.20486608147621155 0.9394510984420776
0.3723256587982178 -0.19635067880153656 0.929010272026062
0.4048767685890198 -0.47385644912719727 0.9809786081314087
0.40729743242263794 -0.44954681396484375 0.9768935441970825
0.4002031087875366 -0.45948508381843567 0.9593645930290222
0.39954155683517456 -0.43726474046707153 0.963982880115509
0.3945804238319397 -0.5484168529510498 0.9319475889205933
0.4001489281654358 -0.555508017539978 0.9351648688316345
0.38656195998191833 -0.19987517595291138 0.9638961553573608
0.39107632637023926 -0.21509522199630737 1.0124017000198364
0.39599859714508057 -0.24028486013412476 1.0003418922424316
0.39512208104133606 -0.23030313849449158 0.989249050617218
0.39748138189315796 -0.25839677453041077 0.9936060309410095
0.39342835545539856 -0.2646668255329132 0.9825742244720459
0.4115184545516968 -0.4764908254146576 0.9648439884185791
0.4159514904022217 -0.4635666608810425 0.9614718556404114
0.4206698536872864 -0.5125889778137207 0.9691013097763062
0.41504141688346863 -0.3933003842830658 0.979725182056427
0.4078179895877838 -0.4278135299682617 0.9780699014663696
0.40810340642929077 -0.4041663408279419 0.9763565063476562
0.40305450558662415 -0.41220787167549133 0.9675197005271912
0.40893781185150146 -0.4247444272041321 0.9753381013870239
0.40134289860725403 -0.4098026752471924 0.9790937304496765
0.4102241098880768 -0.4265809655189514 0.970105767250061
0.42017778754234314 -0.5236954689025879 0.9581835269927979
0.41241782903671265 -0.5088408589363098 0.9531903266906738
0.3651675283908844 -0.5089970827102661 0.9724641442298889
0.3654077649116516 -0.5229531526565552 0.9672386646270752
0.36446413397789 -0.5014656186103821 0.9556319713592529
0.3634923994541168 -0.5219383239746094 0.9597156047821045
0.36059027910232544 -0.227522075176239 1.0439811944961548
0.35589924454689026 -0.2033657282590866 0.9819049835205078
0.3516300320625305 -0.21176432073116302 0.9714045524597168
0.3597647547721863 -0.19310227036476135 1.0293734073638916
0.37405166029930115 -0.48812347650527954 0.9796221256256104
0.37199866771698 -0.4624260663986206 0.9624459147453308
0.36225923895835876 -0.25849753618240356 0.9855817556381226
0.3630251884460449 -0.2624291479587555 0.9698089361190796
0.3601783514022827 -0.24900397658348083 1.0287222862243652
0.36728939414024353 -0.2667500376701355 1.0233932733535767
0.36826980113983154 -0.45460498332977295 0.9661451578140259
0.3792334496974945 -0.5080353021621704 0.9798555374145508
0.3649046719074249 -0.2919459342956543 0.9714946746826172
0.36692729592323303 -0.3347594141960144 0.9719843864440918
0.36632782220840454 -0.31399157643318176 0.958304762840271
0.36835193634033203 -0.42667877674102783 0.9613754153251648
0.3832949995994568 -0.5834261775016785 0.9630067348480225
0.38899046182632446 -0.6201406121253967 0.9527580738067627
0.3877815902233124 -0.6090991497039795 0.9338847994804382
0.3729764223098755 -0.23075711727142334 1.0751564502716064
0.3770778179168701 -0.26282504200935364 1.0553146600723267
0.37473589181900024 -0.3105137348175049 1.0153311491012573
0.37310439348220825 -0.33647602796554565 1.0141640901565552
0.3697476387023926 -0.3297325372695923 0.9452080130577087
0.37889933586120605 -0.28426605463027954 1.0588765144348145
0.37104353308677673 -0.2526164650917053 1.0333542823791504
0.37734848260879517 -0.2732419967651367 1.0246671438217163
0.3889170289039612 -0.548008143901825 0.9878047704696655
0.39564579725265503 -0.5700845122337341 0.9764419794082642
0.3802277743816376 -0.431671679019928 0.9445890188217163
0.36686187982559204 -0.11418032646179199 1.059629201889038
0.36284932494163513 -0.09972519427537918 1.0647766590118408
0.3745805025100708 -0.34819966554641724 0.915077805519104
0.3885383605957031 -0.3275960087776184 1.0110869407653809
0.390897274017334 -0.3456816077232361 1.0209323167800903
0.39161255955696106 -0.5435716509819031 0.990003764629364
0.3978540301322937 -0.5472831726074219 0.9879940748214722
0.3922971487045288 -0.5576555728912354 0.9825043082237244
0.37379494309425354 -0.21096846461296082 0.9359438419342041
0.3727513253688812 -0.2313671112060547 0.9283865690231323
0.3677542507648468 -0.22921741008758545 0.9286633133888245
0.36642149090766907 -0.2064545601606369 0.9288804531097412
0.3703736364841461 -0.20366108417510986 0.9269793629646301
0.3676309883594513 -0.20082028210163116 0.9113929271697998
0.36791521310806274 -0.2464430332183838 0.945896565914154
0.3630746603012085 -0.19876357913017273 0.9048676490783691
0.3649539649486542 -0.20775213837623596 0.8944623470306396
0.38152891397476196 -0.18346935510635376 1.0336084365844727
0.3769876956939697 -0.18777114152908325 1.0343444347381592
0.37030228972435 -0.17057302594184875 1.0074137449264526
0.3844810724258423 -0.23733796179294586 1.0683568716049194
0.3888886868953705 -0.2450854480266571 1.054807186126709
0.39794328808784485 -0.45514899492263794 1.0262919664382935
0.392785906791687 -0.45013344287872314 1.0293279886245728
0.3864783048629761 -0.44394612312316895 1.0136269330978394
0.3700348138809204 -0.20184436440467834 0.8922920227050781
0.36714011430740356 -0.1831979751586914 0.9010440111160278
0.3692026436328888 -0.2408512979745865 0.9435545206069946
0.3916720151901245 -0.4874301552772522 0.9349871277809143
0.38976722955703735 -0.5020308494567871 0.9239116907119751
0.3907671868801117 -0.20947659015655518 1.0573041439056396
0.38308775424957275 -0.1600726842880249 1.0398411750793457
0.4012168049812317 -0.5286291837692261 0.9766467213630676
0.38482433557510376 -0.346352219581604 0.9217391610145569
0.37479284405708313 -0.026046253740787506 1.0772112607955933
0.3757801353931427 -0.03948401287198067 1.0693130493164062
0.3936532735824585 -0.35476475954055786 0.9270546436309814
0.3828679621219635 -0.14679595828056335 1.0335437059402466
0.3879726231098175 -0.16853655874729156 1.0291448831558228
0.38128843903541565 -0.1646011471748352 1.0176860094070435
0.4044276773929596 -0.47729045152664185 0.9591230750083923
0.3887113928794861 -0.17996734380722046 0.9774684906005859
0.39363691210746765 -0.33518126606941223 0.9531117677688599
0.3920105993747711 -0.18683451414108276 1.0226815938949585
0.39920830726623535 -0.2052364945411682 1.0170066356658936
0.3917078971862793 -0.21498075127601624 1.0411218404769897
0.39255547523498535 -0.22316458821296692 1.021359920501709
0.39267241954803467 -0.17428621649742126 1.0126450061798096
0.389461487531662 -0.1761772781610489 0.9996574521064758
0.41169992089271545 -0.47188782691955566 0.967422604560852
0.3639407455921173 -0.3839167654514313 0.9855903387069702
0.3552754521369934 -0.3874363899230957 0.981974720954895
0.35587525367736816 -0.39733222126960754 0.9875288605690002
0.3594759404659271 -0.37744849920272827 0.9766858220100403
0.3567197918891907 -0.4023228883743286 0.9768341183662415
0.36256054043769836 -0.46387216448783875 0.9768314361572266
0.36550092697143555 -0.47699153423309326 0.980119526386261
0.3672260642051697 -0.40646669268608093 0.9748005867004395
0.3643762469291687 -0.41109976172447205 0.9633139967918396
0.36824366450309753 -0.44098415970802307 0.9711784720420837
0.36739474534988403 -0.45092272758483887 0.9788433313369751
0.3560672402381897 -0.23851022124290466 0.9882193803787231
0.3657587766647339 -0.23121249675750732 1.0566786527633667
0.37149232625961304 -0.2076610028743744 1.053818941116333
0.35902073979377747 -0.15451906621456146 1.0393937826156616
0.3587322235107422 -0.143257275223732 1.0307776927947998
0.3773442506790161 -0.394432008266449 0.9359384179115295
0.36617377400398254 -0.3473253846168518 0.9441640973091125
0.37134549021720886 -0.36417484283447266 0.9088324308395386
0.3708901107311249 -0.36350852251052856 0.9418432712554932
0.3647010326385498 -0.041621845215559006 1.1104861497879028
0.36591023206710815 0.00018555670976638794 1.1036347150802612
0.3628552556037903 -0.018791131675243378 1.1024976968765259
0.35831189155578613 -0.021772243082523346 1.0926110744476318
0.35654911398887634 -0.0283648781478405 1.081363558769226
0.36137738823890686 -0.09674911201000214 1.0398058891296387
0.36098891496658325 -0.11530042439699173 1.0292538404464722
0.3777877390384674 -0.2007831633090973 1.0875434875488281
0.3916281461715698 -0.45500296354293823 1.0239975452423096
0.389658123254776 -0.5013582706451416 0.9997861385345459
0.39187684655189514 -0.5217577815055847 0.9080669283866882
0.3829549252986908 -0.5177688598632812 0.913827657699585
0.3665337562561035 -0.17458178102970123 0.9161045551300049
0.35674870014190674 -0.18441241979599 0.9048804044723511
0.3737984895706177 -0.10159929096698761 1.0632084608078003
0.37633392214775085 -0.1222434863448143 1.0565154552459717
0.3894697427749634 -0.4510153830051422 1.030258297920227
0.37976229190826416 -0.31004083156585693 0.9457902312278748
0.38358134031295776 -0.32674962282180786 0.947265625
0.3884379267692566 -0.3352965712547302 1.0141829252243042
0.3895137906074524 -0.35329627990722656 1.0095022916793823
0.3847385346889496 -0.373115211725235 0.9999513030052185
0.3924422562122345 -0.24065786600112915 0.9581518173217773
0.37826812267303467 -0.059242114424705505 1.0774754285812378
0.3834664821624756 -0.07240910083055496 1.0602556467056274
0.40617841482162476 -0.5701162815093994 0.9400060176849365
0.39199620485305786 -0.2697291970252991 1.0071780681610107
0.39835473895072937 -0.29012301564216614 0.9920985102653503
0.3900323808193207 -0.24198612570762634 0.9758433103561401
0.3877468705177307 -0.22898972034454346 0.9498404264450073
0.37810781598091125 -0.25529807806015015 0.9566875100135803
0.3990955054759979 -0.2312886118888855 1.0130393505096436
0.4003199636936188 -0.24065297842025757 1.0279570817947388
0.39894819259643555 -0.2496296912431717 1.0226802825927734
0.39363807439804077 -0.25046828389167786 1.004268765449524
0.35896092653274536 -0.2214662879705429 1.0200937986373901
0.35051706433296204 -0.18795166909694672 1.0112918615341187
0.35025742650032043 -0.2023492306470871 1.0144685506820679
0.350234717130661 -0.20873022079467773 0.9992225170135498
0.3732810616493225 -0.4812282919883728 0.9585150480270386
0.35333701968193054 -0.20031704008579254 0.9696770310401917
