0.08856770396232605 -0.17429892718791962 1.3772575855255127
0.10365787148475647 -0.15391302108764648 1.3402596712112427
0.12453118711709976 0.061483219265937805 0.9012201428413391
0.1088860034942627 -0.11749529838562012 0.8240517377853394
0.15258708596229553 -0.0870891660451889 0.19474685192108154
0.16056542098522186 -0.11810731887817383 0.2069220244884491
0.11188682913780212 -0.15530236065387726 1.3362191915512085
0.17812110483646393 0.014783516526222229 1.3135870695114136
0.18594802916049957 0.04440749064087868 1.2996416091918945
0.03798983618617058 -0.3139781951904297 1.1052125692367554
0.16382423043251038 -0.07248592376708984 0.9682238101959229
0.16582071781158447 -0.12886415421962738 0.9524892568588257
0.09384597092866898 -0.18955454230308533 1.1580039262771606
0.0893014669418335 -0.2933763861656189 1.0473132133483887
0.09608013927936554 -0.2563546299934387 1.0237400531768799
0.11586800962686539 -0.3211628496646881 1.109417200088501
-0.24956080317497253 -0.024206731468439102 1.024834156036377
-0.2792523503303528 -0.07616713643074036 0.9882580637931824
-0.2163589596748352 -0.11650310456752777 1.093005895614624
-0.2361629605293274 -0.13454680144786835 1.1321265697479248
-0.17683428525924683 -0.0895872712135315 1.1203092336654663
-0.15852969884872437 -0.05178684741258621 1.1534366607666016
-0.18737882375717163 -0.1554936319589615 0.8507195115089417
-0.0698188915848732 0.12300840765237808 1.1299126148223877
-0.07506601512432098 0.09524309635162354 1.2142367362976074
-0.15315428376197815 -0.2510092258453369 1.0660306215286255
-0.1463949978351593 -0.1599501669406891 0.9397810697555542
-0.17055654525756836 -0.07813442498445511 0.230418860912323
-0.1488833874464035 -0.12706094980239868 0.2452855110168457
-0.11810027807950974 -0.02390425279736519 0.4558272361755371
-0.14489305019378662 -0.19492492079734802 0.8438556790351868
-0.11466147005558014 -0.08150246739387512 0.5969998836517334
-0.11493653059005737 -0.12000294774770737 0.6565455198287964
-0.1036287397146225 -0.05969283729791641 0.66385817527771
-0.10082615911960602 -0.04323135316371918 1.1049041748046875
-0.11231034249067307 -0.10800161212682724 1.1184337139129639
0.011455023661255836 0.12786953151226044 1.2799055576324463
-0.10881420224905014 -0.023823315277695656 0.8359022736549377
-0.10528287291526794 -0.13719280064105988 0.26183831691741943
-0.10231445729732513 -0.07778384536504745 1.208366870880127
-0.08887659013271332 -0.0732305645942688 1.1377826929092407
-0.10145232826471329 -0.11663030087947845 0.40414297580718994
-0.07352232933044434 -0.1318553239107132 1.6852046251296997
-0.08188030868768692 -0.1630474328994751 1.6656054258346558
-0.046900033950805664 -0.19729822874069214 1.6674070358276367
-0.06823255866765976 -0.2257981151342392 1.624174952507019
-0.088407501578331 -0.21139049530029297 1.5342226028442383
-0.08640700578689575 -0.0950770229101181 0.29684576392173767
-0.04101719334721565 -0.13461926579475403 0.7240999341011047
-0.0576721616089344 -0.10251817852258682 0.22575554251670837
-0.07580888271331787 -0.13269485533237457 0.23016074299812317
-0.08818019926548004 -0.040199123322963715 0.16753844916820526
-0.052117880433797836 0.06514767557382584 0.9690256118774414
-0.02680143713951111 -0.12652382254600525 1.724440574645996
-0.0437440425157547 -0.1354067623615265 1.7105680704116821
0.07282763719558716 0.07100730389356613 1.2497711181640625
-0.004510020837187767 0.07509607821702957 1.2526795864105225
0.055280767381191254 0.051479749381542206 1.294966697692871
0.009032249450683594 -0.09645356982946396 1.2431050539016724
0.07657765597105026 0.11884937435388565 1.3038761615753174
0.06711731851100922 0.10063250362873077 1.155663013458252
0.12949219346046448 0.1426773965358734 1.2374801635742188
0.07191073149442673 -0.026424117386341095 1.643927812576294
0.09707716107368469 0.08954401314258575 1.1584935188293457
0.039915360510349274 -0.21833017468452454 0.8989031314849854
0.03704405203461647 -0.12088991701602936 0.21646973490715027
0.056575533002614975 -0.14057999849319458 0.15668824315071106
0.028619281947612762 -0.13106957077980042 0.6667489409446716
0.04117639362812042 -0.013592597097158432 1.078133225440979
0.048255451023578644 -0.04926067963242531 0.5294610857963562
0.12269608676433563 0.018552066758275032 1.3412729501724243
0.06161310896277428 -0.20182353258132935 1.3765403032302856
0.0988648533821106 -0.03632558137178421 1.605836272239685
0.08345504105091095 -0.09547387063503265 1.558434009552002
0.08727065473794937 -0.07559458911418915 1.5426554679870605
0.07346211373806 -0.1490907520055771 1.745359182357788
0.04657759517431259 -0.22243988513946533 1.317073941230774
0.11148701608181 -0.03110376186668873 0.451068639755249
0.07989799976348877 -0.018158629536628723 0.4466215670108795
0.10200048238039017 -0.043058842420578 0.29361575841903687
0.12347841262817383 -0.0511251725256443 0.26362311840057373
0.10105812549591064 -0.15423059463500977 1.4695582389831543
0.09123807400465012 -0.16267284750938416 1.4757062196731567
0.10110944509506226 -0.15489405393600464 1.4612462520599365
0.10208624601364136 -0.055367566645145416 0.7305192351341248
0.10879849642515182 -0.09895926713943481 0.5978100299835205
0.13192811608314514 0.020189285278320312 0.9414615035057068
0.1047191321849823 -0.10131683945655823 1.0877701044082642
0.09524291008710861 -0.15158319473266602 1.0688618421554565
0.10955807566642761 -0.16702336072921753 1.010297417640686
0.11487072706222534 -0.13061267137527466 1.585198163986206
0.11984717845916748 -0.12402747571468353 1.5092796087265015
0.046438440680503845 -0.2523247301578522 1.2011146545410156
0.14179441332817078 -0.05661308020353317 1.5124101638793945
0.13037210702896118 -0.08936583995819092 1.5423169136047363
0.15057048201560974 -0.1146870106458664 0.0058118198066949844
0.15888698399066925 -0.18255889415740967 0.00934632308781147
0.14580941200256348 -0.067728690803051 1.477510929107666
0.14899131655693054 -0.05055508762598038 1.4561197757720947
0.15465371310710907 -0.04806967079639435 1.426946997642517
0.1564965397119522 -0.03341814875602722 1.4189420938491821
0.03709166496992111 -0.3190000355243683 1.123313069343567
0.16315123438835144 -0.15842518210411072 0.829581081867218
0.05410214141011238 -0.3009023070335388 1.1371581554412842
0.04663737118244171 -0.3217707872390747 1.122970461845398
0.19354310631752014 -0.11545749008655548 0.8414549827575684
0.19152042269706726 -0.0925496369600296 0.8215820789337158
0.20362484455108643 -0.05792563408613205 0.8301411271095276
-0.2005227506160736 -0.13632117211818695 1.149945616722107
-0.15332655608654022 -0.16227181255817413 1.2254685163497925
-0.1609460860490799 -0.15695276856422424 1.2088594436645508
-0.1511995643377304 -0.1506168246269226 1.2195409536361694
-0.14669674634933472 -0.1553277224302292 1.2376357316970825
-0.19775055348873138 -0.001726558431982994 0.8430660963058472
-0.11811144649982452 -0.12780512869358063 1.2699551582336426
-0.14731472730636597 -0.08315582573413849 1.0689022541046143
-0.07927414029836655 -0.02934444323182106 1.5379561185836792
-0.13468171656131744 -0.1324830949306488 1.1814863681793213
-0.142306849360466 -0.11378499865531921 1.1346843242645264
-0.0588265061378479 -0.006178747862577438 1.451629877090454
-0.048856209963560104 -0.00420723482966423 1.4203075170516968
-0.13885721564292908 -0.1502765715122223 1.0184860229492188
-0.10452388226985931 -0.1701168417930603 0.9796813726425171
-0.11447443813085556 -0.043875113129615784 0.7540198564529419
0.010239006951451302 0.09670638293027878 1.335463047027588
-0.016286037862300873 -0.014875797554850578 1.6286085844039917
-0.0730370432138443 -0.03131972253322601 0.009157121181488037
-0.0874222069978714 -0.01646381989121437 -0.0056644100695848465
-0.08166037499904633 0.023539453744888306 0.8542235493659973
-0.004017150029540062 0.09455961734056473 0.8557864427566528
-0.05717207491397858 -0.02599700540304184 0.8304476737976074
0.05736486613750458 0.008553248830139637 1.3664928674697876
-0.01923206076025963 -0.09467661380767822 0.7549099922180176
-0.025408415123820305 -0.23738078773021698 1.5405244827270508
-0.009265207685530186 0.015439844690263271 0.8720767498016357
-0.005974815227091312 -0.026342744007706642 0.8479883670806885
0.0036724312230944633 -0.11678891628980637 0.8493453860282898
-0.07801507413387299 -0.16499720513820648 0.8556064367294312
-0.006352376192808151 -0.22536389529705048 0.8484687805175781
0.010979179292917252 -0.10942806303501129 0.8134735822677612
-0.009274526499211788 -0.16039976477622986 0.859978199005127
0.025418700650334358 -0.08926402777433395 1.4639489650726318
0.011206044815480709 -0.03621755540370941 0.8365619778633118
0.011446015909314156 -0.048938728868961334 0.8095988631248474
0.046344876289367676 -0.08865627646446228 1.5377018451690674
0.04806556552648544 -0.07837186753749847 1.5169035196304321
0.022506292909383774 -0.1235317513346672 0.8316656351089478
0.11961719393730164 0.056028321385383606 0.8304443955421448
0.04163360968232155 -0.09136804193258286 0.21116667985916138
0.029257478192448616 -0.034879736602306366 0.791668713092804
0.11226928979158401 0.06330426037311554 1.271065354347229
0.0750674307346344 -0.11492492258548737 0.33844417333602905
0.07113885134458542 -0.1025649756193161 0.2750133275985718
0.08672083169221878 -0.12282425165176392 0.29198360443115234
0.07768553495407104 -0.16741067171096802 0.24115797877311707
0.12637221813201904 -0.03872033953666687 1.4902390241622925
0.06478685140609741 -0.016740644350647926 0.8275212645530701
0.08546027541160583 -0.036465056240558624 0.7983174324035645
0.07360726594924927 -0.14855912327766418 1.2213220596313477
0.10627155005931854 -0.12430921196937561 0.38859713077545166
0.1201338917016983 -0.07618209719657898 1.5784919261932373
0.06899026036262512 -0.1325443685054779 1.2746412754058838
0.1176539734005928 -0.12557342648506165 0.29152101278305054
0.13981714844703674 0.1153736412525177 1.2819068431854248
0.08178839087486267 -0.11721009016036987 1.2030768394470215
0.12311717867851257 -0.07036741077899933 0.15100111067295074
0.1751495599746704 0.12210465967655182 1.2096123695373535
0.10970921814441681 -0.05515257641673088 0.19220173358917236
0.11886868625879288 -0.17553481459617615 0.21319204568862915
0.16031982004642487 0.0021897475235164165 1.3545811176300049
0.10808458924293518 -0.16266578435897827 1.4116100072860718
0.11146247386932373 -0.15891340374946594 1.3835077285766602
0.1087985634803772 -0.1598028540611267 1.4129228591918945
0.1223808005452156 -0.13393190503120422 1.3608795404434204
0.058837249875068665 -0.27518096566200256 1.181323528289795
0.041733503341674805 -0.28440457582473755 1.176558256149292
0.1770617514848709 0.03695129603147507 1.2798881530761719
0.19843024015426636 0.07374559342861176 1.2360600233078003
0.19045484066009521 0.07587097585201263 1.2067375183105469
0.08341521769762039 -0.20099999010562897 1.21800696849823
0.06743486225605011 -0.2332831174135208 1.2342424392700195
0.1494656801223755 -0.182939350605011 0.8450170755386353
0.07713356614112854 -0.24967870116233826 1.2423617839813232
0.0674852728843689 -0.2834508419036865 1.1415776014328003
0.07223142683506012 -0.22694692015647888 1.1166822910308838
0.06476505100727081 -0.2667381763458252 1.1090871095657349
0.13174323737621307 -0.29602253437042236 1.1389468908309937
0.12809404730796814 -0.2821224629878998 1.0064918994903564
0.11717844009399414 -0.32611531019210815 1.0634243488311768
-0.15486213564872742 -0.24754825234413147 1.1040711402893066
-0.1422749012708664 -0.1965823769569397 1.167083740234375
-0.1497291773557663 -0.18971392512321472 1.1882882118225098
-0.14243072271347046 -0.23662973940372467 1.1114156246185303
-0.07310084253549576 -0.008793467655777931 1.4786996841430664
-0.07969290018081665 -0.018043769523501396 1.4617602825164795
-0.08059143275022507 0.006359618157148361 1.42952561378479
-0.0971980020403862 -0.12727664411067963 1.6516517400741577
-0.10787422209978104 -0.1501411646604538 1.5678975582122803
-0.14438705146312714 -0.09331883490085602 0.2890376150608063
-0.12341583520174026 -0.07607422769069672 0.8286303281784058
-0.12046918272972107 -0.10321846604347229 0.8100818395614624
-0.055128633975982666 0.13870297372341156 1.1120986938476562
-0.09681721031665802 -0.17909809947013855 1.2189691066741943
-0.10705669224262238 -0.03970976546406746 0.8047173023223877
-0.05081538110971451 -0.14783889055252075 1.6897495985031128
-0.10679446160793304 -0.15070576965808868 1.112548828125
-0.07546671479940414 -0.20788860321044922 1.0935912132263184
-0.004333140328526497 0.1014900803565979 1.1956173181533813
0.06288385391235352 0.09416475147008896 1.1885623931884766
-0.06509057432413101 -0.06372883915901184 1.1564240455627441
-0.04540996626019478 -0.11770813167095184 0.8454571962356567
-0.06537520885467529 -0.20337338745594025 1.03457510471344
-0.05091230943799019 -0.0008764266967773438 1.0654947757720947
-0.010477636009454727 -0.23545540869235992 1.6310808658599854
0.0028790519572794437 -0.1016150638461113 0.7427968978881836
0.007302580401301384 0.025310620665550232 1.3442069292068481
0.0579000748693943 -0.18448898196220398 -0.02282743901014328
0.15997450053691864 0.14618729054927826 1.162379264831543
0.12413497269153595 0.09115717560052872 1.2021408081054688
0.11579875648021698 0.16006888449192047 1.178860068321228
0.09129627048969269 0.08571544289588928 0.8461371660232544
0.12492171674966812 -0.07291803508996964 -0.012684743851423264
0.10467682778835297 -0.03872747719287872 0.8189160823822021
0.11054917424917221 -0.11975511908531189 0.3443867862224579
0.09477153420448303 -0.2015022188425064 1.3550403118133545
0.06980729103088379 -0.2290133535861969 1.283623218536377
0.18919327855110168 -0.0036620954051613808 0.8253974914550781
0.20095977187156677 -0.05572541058063507 0.8914618492126465
0.1231263279914856 -0.3093435764312744 1.0243606567382812
-0.24701982736587524 -0.1339213103055954 1.0967276096343994
-0.20296095311641693 -0.0835486575961113 0.9015493392944336
-0.21239203214645386 -0.07750988751649857 0.8452606201171875
-0.08334897458553314 -0.006315574049949646 1.421470284461975
-0.07312596589326859 0.042210325598716736 1.3145675659179688
-0.09552884101867676 -0.09870010614395142 1.5034053325653076
-0.14314481616020203 -0.06745438277721405 1.0347892045974731
-0.1485326588153839 -0.1039355993270874 1.0710670948028564
-0.09373397380113602 -0.09632260352373123 1.504167914390564
-0.09606006741523743 -0.10728535056114197 1.4903669357299805
-0.09708511084318161 -0.10066471993923187 1.5002011060714722
-0.09742359071969986 -0.10527949035167694 1.501499891281128
-0.1027694046497345 -0.11627327650785446 1.4882123470306396
-0.12262270599603653 -0.1341736912727356 0.12922950088977814
-0.10598772019147873 -0.18830230832099915 1.609074354171753
-0.03277444839477539 -0.07049030065536499 1.2096179723739624
-0.07320081442594528 -0.1486186385154724 0.034730229526758194
-0.044908154755830765 -0.08445771038532257 1.245658040046692
-0.01052547711879015 -0.0710991770029068 1.165662169456482
-0.040723495185375214 0.09342591464519501 0.9267746210098267
0.003690674901008606 -0.1609199047088623 1.6989853382110596
-0.025797750800848007 -0.08779270946979523 0.6860655546188354
0.028211113065481186 0.03370952978730202 1.316398024559021
-0.0008855722844600677 -0.19787892699241638 0.9897805452346802
-0.05017441511154175 -0.23267659544944763 1.1837197542190552
0.0683317705988884 0.07619819045066833 1.2216728925704956
0.059369754046201706 -0.09745977818965912 0.1399076282978058
0.059696368873119354 -0.1845848262310028 0.9783642292022705
0.11832721531391144 -0.1779985874891281 0.9497186541557312
0.10247863829135895 -0.0682050883769989 1.5133566856384277
0.04024764895439148 -0.20773723721504211 1.1370649337768555
0.025917626917362213 -0.07951021194458008 1.161476492881775
0.08970750123262405 -0.05605252459645271 1.0878775119781494
0.08896270394325256 0.05510083585977554 0.9498040676116943
0.12205902487039566 -0.2600458562374115 -0.031799592077732086
0.09817085415124893 -0.24556589126586914 -0.04469163343310356
0.14976182579994202 -0.2311059981584549 -0.03679119423031807
0.1382029503583908 -0.16442644596099854 0.19211964309215546
0.10583804547786713 -0.16007328033447266 1.409792423248291
0.10920645296573639 -0.16089162230491638 1.4107928276062012
0.06698983907699585 -0.1853683441877365 1.2897998094558716
0.06779880076646805 -0.21882730722427368 1.2736775875091553
0.2024223804473877 0.10720284283161163 1.1543039083480835
0.1960330754518509 0.09495566785335541 1.1119701862335205
0.20591525733470917 0.09976352751255035 1.1112037897109985
0.13584929704666138 -0.2723435163497925 1.0097991228103638
0.1269686371088028 -0.32715165615081787 1.0050679445266724
0.13588076829910278 -0.348422110080719 0.9975863099098206
-0.21548140048980713 -0.0603015162050724 1.0465117692947388
-0.15859076380729675 -0.22132492065429688 1.1482808589935303
-0.11431853473186493 -0.09887762367725372 0.32328295707702637
-0.022800346836447716 0.12793612480163574 1.0877609252929688
-0.11708404123783112 -0.15854869782924652 1.0589803457260132
-0.029127076268196106 -0.046254195272922516 0.8378918766975403
-0.04310890659689903 -0.03985191509127617 0.7948830127716064
-0.03617708384990692 -0.09245745092630386 0.8027701377868652
-0.005003561265766621 -0.02151159755885601 1.1123433113098145
0.021835336461663246 -0.20794597268104553 0.8345595598220825
0.08752188086509705 0.01382610946893692 0.8446626663208008
0.1362716257572174 0.09517182409763336 1.1740692853927612
0.11900220811367035 -0.10647675395011902 1.516376256942749
0.1288997232913971 -0.08269906044006348 1.5016720294952393
0.18685860931873322 -0.12433255463838577 0.8929587602615356
-0.16262902319431305 -0.22412297129631042 1.116186499595642
-0.0874762088060379 -0.057861942797899246 1.545602798461914
0.00478424783796072 0.1291474848985672 1.1293041706085205
-0.064102403819561 -0.040036123245954514 1.579124927520752
-0.045849140733480453 -0.06991482526063919 1.5591305494308472
-0.019593410193920135 -0.07705868035554886 1.5365983247756958
0.018528055399656296 -0.21074986457824707 1.041780710220337
0.030457839369773865 -0.21596619486808777 1.224144458770752
0.07678919285535812 -0.17707544565200806 0.11742356419563293
0.06800982356071472 -0.19218741357326508 1.185133457183838
0.0802164226770401 -0.16191676259040833 1.140402913093567
0.14217282831668854 -0.0337165966629982 1.4308032989501953
0.1346825361251831 -0.006255530286580324 1.4515380859375
0.08787006139755249 -0.12346173822879791 1.1576073169708252
0.10578827559947968 -0.07641202956438065 0.8067030906677246
0.03359781950712204 -0.2666178345680237 1.205713152885437
0.16431275010108948 0.009888896718621254 1.3752093315124512
-0.06339355558156967 0.025137122720479965 1.3829926252365112
-0.10961824655532837 -0.023168843239545822 0.33186402916908264
0.015287193469703197 -0.10240484029054642 0.6991140842437744
0.03742227703332901 -0.23880243301391602 1.6131844520568848
-0.06585246324539185 0.12648709118366241 1.1692793369293213
-0.14050649106502533 -0.15625399351119995 1.2420070171356201
-0.06842286139726639 -0.06072400510311127 0.3657858669757843
0.06032167747616768 0.02001359313726425 1.4907342195510864
0.07461173087358475 -0.24576348066329956 -0.029017547145485878
0.10469192266464233 -0.15613184869289398 1.4601612091064453
0.10183674842119217 -0.15453438460826874 1.459484577178955
0.09470570087432861 -0.16261863708496094 1.3746039867401123
0.13209488987922668 -0.15689627826213837 0.15588033199310303
0.14409300684928894 -0.12297657877206802 0.13478714227676392
0.07820338755846024 -0.27898046374320984 1.1879680156707764
-0.17578855156898499 -0.15634772181510925 0.9091454744338989
-0.07071482390165329 0.008865252137184143 1.4042696952819824
-0.0696256086230278 0.0065849050879478455 1.4064279794692993
-0.07458463311195374 0.004774067550897598 1.405005693435669
-0.06954196840524673 -0.08284611999988556 0.1617746502161026
-0.027990180999040604 -0.09963084012269974 0.8422245979309082
0.05226188153028488 -0.14447087049484253 0.10628288239240646
0.09112454205751419 -0.30186226963996887 1.145526647567749
0.09706294536590576 -0.19329577684402466 1.578150987625122
0.11653652787208557 -0.10034552216529846 0.7575289011001587
0.15755684673786163 -0.02980223298072815 1.4032665491104126
0.16018736362457275 -0.008073434233665466 1.380105972290039
0.05984682962298393 -0.10567055642604828 -0.023371214047074318
0.01244554203003645 -0.6107571125030518 1.0508240461349487
0.014167262241244316 -0.5878634452819824 1.025710105895996
0.011446302756667137 -0.5954779982566833 1.0283660888671875
0.006278570741415024 -0.5893033146858215 1.036482334136963
0.00633950624614954 -0.6091877222061157 1.0383186340332031
0.011964436620473862 -0.6053227186203003 1.050703525543213
0.06150005757808685 -0.48985034227371216 1.0194690227508545
0.048318397253751755 -0.49233007431030273 1.0161480903625488
0.053232550621032715 -0.5104007124900818 1.024785041809082
0.04872157424688339 -0.5174856185913086 1.0288691520690918
0.08972159773111343 -0.3684382736682892 0.9468576312065125
0.08730219304561615 -0.3757387697696686 0.9633859992027283
0.08872763812541962 -0.37828466296195984 0.9420872330665588
0.0410778746008873 -0.5042135715484619 0.9860862493515015
0.04000760614871979 -0.5169506669044495 1.0010356903076172
0.051553841680288315 -0.5363576412200928 1.0482367277145386
0.05025314539670944 -0.5279269814491272 1.038377046585083
0.07560089975595474 -0.4044635593891144 0.9301161766052246
0.072401262819767 -0.41196945309638977 0.9496601819992065
0.08597736805677414 -0.4383377432823181 1.0120400190353394
0.08299137651920319 -0.4335576295852661 1.0056779384613037
0.029899921268224716 -0.5917448997497559 1.0600290298461914
0.02172507718205452 -0.5776796936988831 1.0190149545669556
0.09217339754104614 -0.3771234452724457 0.9308609962463379
0.08507813513278961 -0.382479727268219 0.9279103875160217
0.1715255081653595 -0.23329117894172668 0.9911748170852661
0.16831889748573303 -0.24106553196907043 0.9906941652297974
0.16778692603111267 -0.2317512184381485 0.9709625840187073
0.03740642964839935 -0.5558464527130127 1.0443675518035889
0.033859606832265854 -0.574630081653595 1.0494240522384644
0.09150815010070801 -0.38014841079711914 0.9263929128646851
0.08827784657478333 -0.3806958794593811 0.9170182347297668
-0.00045450683683156967 -0.6298117637634277 1.0052196979522705
-0.0009252354502677917 -0.6385049819946289 1.0134122371673584
0.18186447024345398 -0.22037938237190247 0.9832937717437744
0.1780683398246765 -0.23046566545963287 0.995186448097229
0.1759272813796997 -0.22086450457572937 0.9778066277503967
0.17196762561798096 -0.22788289189338684 0.9690487384796143
-0.0029094466008245945 -0.6636431217193604 1.0646284818649292
-0.004026628099381924 -0.6794047355651855 1.076699137687683
-0.00847635604441166 -0.6797682046890259 1.0580854415893555
0.05872361734509468 -0.4625723659992218 0.9592034220695496
0.059008821845054626 -0.4771733283996582 0.9623082280158997
0.0464518666267395 -0.49204951524734497 0.9560045003890991
0.05430879443883896 -0.4884180426597595 0.9555924534797668
0.1789097636938095 -0.23686398565769196 0.9990904331207275
0.1785428524017334 -0.22098669409751892 0.9724852442741394
0.050667960196733475 -0.5527560710906982 1.0589121580123901
0.058259718120098114 -0.5535160303115845 1.0607820749282837
0.04386991262435913 -0.5655194520950317 1.0613224506378174
0.04208938404917717 -0.5803070068359375 1.0662165880203247
0.07236175984144211 -0.4325511157512665 0.9452396631240845
0.06833527237176895 -0.44433915615081787 0.9426869750022888
0.065223827958107 -0.44589686393737793 0.9497537016868591
0.182782381772995 -0.22373118996620178 0.9770377278327942
0.18045377731323242 -0.23751509189605713 0.9967597126960754
0.1758171021938324 -0.23528510332107544 0.9723945260047913
0.0908253937959671 -0.36010420322418213 0.886920154094696
0.08848410099744797 -0.36384904384613037 0.8815113306045532
0.09143286943435669 -0.37128397822380066 0.9040443897247314
0.09171643108129501 -0.3712340295314789 0.8948091268539429
0.0873541608452797 -0.3659004271030426 0.8907178640365601
0.04867684096097946 -0.5118956565856934 0.9515376687049866
0.046456482261419296 -0.4988105297088623 0.9476832151412964
0.04432308301329613 -0.5039730072021484 0.936917781829834
0.039709869772195816 -0.5058507919311523 0.9385963082313538
0.17694266140460968 -0.2364426851272583 0.9818933606147766
0.0021089036017656326 -0.6850546598434448 1.0813876390457153
-0.004048422444611788 -0.6825982928276062 1.0646761655807495
-0.0004093684256076813 -0.6938464641571045 1.0781760215759277
-0.005658458918333054 -0.6939796209335327 1.0831818580627441
-0.006550680845975876 -0.6764155626296997 1.0511692762374878
0.11146683990955353 -0.3733106851577759 0.9416688084602356
0.0970887541770935 -0.3812679648399353 0.9304887056350708
0.009176036342978477 -0.6175617575645447 0.997334897518158
-0.0007464177906513214 -0.6379733085632324 1.0078656673431396
-0.0008280433248728514 -0.6518023014068604 1.0219578742980957
0.10008600354194641 -0.43606215715408325 1.007867455482483
0.09363335371017456 -0.4498699903488159 1.0114047527313232
0.09254015982151031 -0.45864319801330566 1.0080915689468384
0.06026559695601463 -0.5498747825622559 1.0614497661590576
0.05567631870508194 -0.5575093030929565 1.0543217658996582
0.04125727713108063 -0.5964424014091492 1.0658249855041504
0.05852118134498596 -0.5296712517738342 1.0443782806396484
0.030163375660777092 -0.5980647802352905 1.0099520683288574
0.014611952006816864 -0.6227158308029175 1.013118028640747
0.10157071053981781 -0.43487244844436646 1.0040260553359985
0.0611613392829895 -0.5397011637687683 1.0294897556304932
0.07050712406635284 -0.52576744556427 1.0225803852081299
0.05924464762210846 -0.5513482093811035 1.0357691049575806
0.007658226415514946 -0.6609655618667603 1.0524446964263916
0.010188459418714046 -0.6510319709777832 1.0424193143844604
0.048680875450372696 -0.52719646692276 0.9829054474830627
0.055271945893764496 -0.5308889150619507 0.9938579797744751
0.047213099896907806 -0.5454406142234802 1.0008894205093384
0.05371660366654396 -0.5479155778884888 1.0086445808410645
0.08061834424734116 -0.4866916537284851 1.0107645988464355
0.06399083882570267 -0.5138035416603088 1.02058744430542
0.04033694416284561 -0.5939551591873169 1.047959566116333
0.033901188522577286 -0.6131908893585205 1.044430136680603
0.028325706720352173 -0.6142410039901733 1.0516612529754639
0.038653064519166946 -0.5883001089096069 1.023353099822998
0.03653441369533539 -0.5954604148864746 1.019789457321167
0.06835315376520157 -0.502495527267456 0.9810023307800293
0.060394808650016785 -0.5156835913658142 0.9839833378791809
0.06483440846204758 -0.4925810694694519 0.9664540886878967
0.0599515326321125 -0.5114544630050659 0.9755980968475342
0.053906381130218506 -0.5211429595947266 0.9857483506202698
0.07522104680538177 -0.48634958267211914 0.9889556765556335
0.08276855200529099 -0.4770199656486511 0.990149974822998
0.07666489481925964 -0.4668847918510437 0.9648114442825317
0.07948624342679977 -0.4757480025291443 0.9790871143341064
0.02990972436964512 -0.6026570200920105 1.024855613708496
0.028759222477674484 -0.6179424524307251 1.0320932865142822
0.0272704865783453 -0.6095129251480103 1.0277832746505737
0.036676838994026184 -0.6131636500358582 1.0292394161224365
0.11802255362272263 -0.38782671093940735 0.9546186923980713
0.018014444038271904 -0.5707471966743469 1.0416820049285889
0.01078321784734726 -0.5813748240470886 1.0350513458251953
0.039019789546728134 -0.52227783203125 1.0235595703125
0.036850880831480026 -0.521767795085907 1.0184310674667358
0.030591601505875587 -0.5331064462661743 1.0285719633102417
0.03222069889307022 -0.5261678695678711 1.0179003477096558
0.03246048837900162 -0.5360925197601318 1.0274604558944702
0.05142681673169136 -0.4984733462333679 0.9999942779541016
0.04321657121181488 -0.5035635232925415 1.0016988515853882
0.05358583480119705 -0.4820972681045532 0.9952402114868164
0.03610637038946152 -0.5358529686927795 1.031052589416504
0.011207599192857742 -0.5972598791122437 1.008381724357605
0.0061041610315442085 -0.6087899208068848 1.0331065654754639
0.0368213877081871 -0.525246262550354 0.9979374408721924
0.0006098207086324692 -0.6248976588249207 1.046223521232605
-0.002994352951645851 -0.6431053876876831 1.0453001260757446
0.0011505372822284698 -0.6306227445602417 1.0367600917816162
-0.006360102444887161 -0.6556577682495117 1.0573008060455322
0.10362289100885391 -0.36363422870635986 0.962597131729126
0.10885025560855865 -0.4012332260608673 1.0283839702606201
0.10324423015117645 -0.4046403169631958 1.0239595174789429
0.10896629095077515 -0.40782618522644043 1.028726577758789
0.07403352111577988 -0.42674410343170166 0.950901985168457
0.16246825456619263 -0.23679867386817932 0.9630968570709229
0.17171430587768555 -0.2490997314453125 1.0031607151031494
0.16529585421085358 -0.25891774892807007 0.9986540079116821
0.16132712364196777 -0.2560582160949707 0.9901607036590576
0.06987836211919785 -0.49678027629852295 1.0259685516357422
0.027816781774163246 -0.6041279435157776 1.073473572731018
-0.007240564562380314 -0.6590350866317749 1.037198543548584
0.14004535973072052 -0.2850947976112366 0.9626696109771729
0.13558299839496613 -0.30906835198402405 0.9568631649017334
0.07745036482810974 -0.47906604409217834 1.0302040576934814
0.06891795992851257 -0.4837743043899536 1.0251208543777466
0.05811433494091034 -0.5148842930793762 1.032197117805481
-0.006262057460844517 -0.6664283871650696 1.0379163026809692
-0.004169553518295288 -0.6872668266296387 1.0856221914291382
-0.005064526107162237 -0.6943904757499695 1.0890934467315674
-0.010818908922374249 -0.6893004775047302 1.0720984935760498
0.11626340448856354 -0.345930814743042 0.9599551558494568
0.11404973268508911 -0.3612564504146576 0.9626602530479431
0.06527690589427948 -0.5167233347892761 1.0301828384399414
0.09930204600095749 -0.3658435046672821 0.9452918767929077
-0.0020256787538528442 -0.6467340588569641 1.015455961227417
0.1336502879858017 -0.37101906538009644 1.0396122932434082
0.13457122445106506 -0.37068819999694824 1.0364267826080322
0.12676680088043213 -0.37853074073791504 1.0277154445648193
0.12803688645362854 -0.38423988223075867 1.0376371145248413
0.12514492869377136 -0.3948001265525818 1.0410399436950684
0.1142318919301033 -0.37940406799316406 1.0059956312179565
0.12413959205150604 -0.37962502241134644 1.0110012292861938
-0.006278520449995995 -0.6957005858421326 1.09134840965271
0.038875482976436615 -0.5365736484527588 0.9865884780883789
0.03809310868382454 -0.5474189519882202 0.9931694865226746
0.03464363515377045 -0.5489593744277954 0.9949932098388672
0.04320719465613365 -0.52203369140625 0.9716376066207886
0.13285687565803528 -0.3832891583442688 1.0344774723052979
0.12827152013778687 -0.39634257555007935 1.0382496118545532
0.09258852899074554 -0.3848860263824463 0.9182753562927246
0.1333002746105194 -0.37792328000068665 1.035151481628418
0.12923452258110046 -0.3810725510120392 1.0269981622695923
0.05731740593910217 -0.5401738882064819 1.0504517555236816
0.08763669431209564 -0.3891136050224304 0.8949528932571411
0.08588622510433197 -0.386999249458313 0.8871966600418091
0.0761490985751152 -0.3947990834712982 0.8810909986495972
0.0761377289891243 -0.4032857418060303 0.8877887725830078
0.12223494052886963 -0.37188053131103516 0.9612110257148743
0.12122202664613724 -0.4038090705871582 1.0250005722045898
0.05005812272429466 -0.5602955222129822 1.040820837020874
0.04416641220450401 -0.5768136978149414 1.0486526489257812
0.09153570979833603 -0.39692652225494385 0.9184103608131409
0.09199845790863037 -0.4038269817829132 0.9181205034255981
0.08625447750091553 -0.39892035722732544 0.9055702090263367
0.047472916543483734 -0.5766241550445557 1.0410422086715698
0.05082399398088455 -0.5609837174415588 1.0303541421890259
0.047242578119039536 -0.5665894746780396 1.0169768333435059
0.053206976503133774 -0.5541160106658936 1.0137417316436768
0.01026740949600935 -0.6349412202835083 1.026331901550293
0.015106376260519028 -0.6371546387672424 1.0299603939056396
0.10262449085712433 -0.3971022069454193 0.9332638382911682
0.11353936791419983 -0.4020657241344452 0.9776583909988403
0.10771555453538895 -0.4210142493247986 0.9758813381195068
0.10836998373270035 -0.412458598613739 0.9667084813117981
0.0995778888463974 -0.4318222403526306 0.9797369837760925
0.09327282756567001 -0.43742552399635315 0.9735350012779236
0.04671056568622589 -0.5826236009597778 1.0258575677871704
0.05111251026391983 -0.5728960037231445 1.023461937904358
0.041714806109666824 -0.605364978313446 1.0386234521865845
0.07573366165161133 -0.5268240571022034 1.0113364458084106
0.0642525851726532 -0.548959493637085 1.0226414203643799
0.0680713951587677 -0.5302786827087402 1.0137462615966797
0.06005457416176796 -0.5384165644645691 1.0095901489257812
0.06325139850378036 -0.5470420718193054 1.0161491632461548
0.06129003316164017 -0.5342943668365479 1.0172797441482544
0.06121697649359703 -0.5499133467674255 1.0165225267410278
0.0407707542181015 -0.6154394745826721 1.0374057292938232
0.03893697261810303 -0.6085308194160461 1.0278469324111938
0.014905489981174469 -0.5855024456977844 1.0459656715393066
0.005074093118309975 -0.6002429127693176 1.049080729484558
0.010481837205588818 -0.5840869545936584 1.0308722257614136
0.00926242396235466 -0.5990119576454163 1.039799690246582
0.09814165532588959 -0.3942645788192749 1.0121957063674927
0.084627166390419 -0.38413524627685547 0.95265793800354
0.07845504581928253 -0.3936651945114136 0.9486004710197449
0.10088565945625305 -0.3725934326648712 0.986992597579956
0.027986031025648117 -0.577918529510498 1.0463682413101196
0.02593531273305416 -0.5642913579940796 1.0228991508483887
0.07523894309997559 -0.42381590604782104 0.9751443862915039
0.07084736227989197 -0.42849308252334595 0.9638509750366211
0.09150860458612442 -0.40816551446914673 1.0069032907485962
0.08923318982124329 -0.42140138149261475 1.0081419944763184
0.03002132847905159 -0.556442141532898 1.0208706855773926
0.025979988276958466 -0.5891597270965576 1.051365613937378
0.06982030719518661 -0.44863182306289673 0.9753459692001343
0.05700678750872612 -0.47321146726608276 0.9881885051727295
0.057870540767908096 -0.4665011763572693 0.970150887966156
0.03255617246031761 -0.5388525724411011 1.0110142230987549
0.004737543873488903 -0.6458561420440674 1.0588339567184448
-0.004240155220031738 -0.6697430610656738 1.0646226406097412
-0.004816325381398201 -0.6692693829536438 1.0494182109832764
0.11505541950464249 -0.39134424924850464 1.038397192955017
0.1032508984208107 -0.41833221912384033 1.0325876474380493
0.08126476407051086 -0.4532984793186188 1.0159744024276733
0.07607177644968033 -0.47169268131256104 1.023504614830017
0.054723046720027924 -0.47761327028274536 0.9664298892021179
0.10254398733377457 -0.43020471930503845 1.0421321392059326
0.09632015973329544 -0.415004700422287 1.011697769165039
0.09517556428909302 -0.42995500564575195 1.010193109512329
0.02278236299753189 -0.6181041598320007 1.0726752281188965
0.012982500717043877 -0.6378374099731445 1.0658721923828125
0.03128330036997795 -0.5492366552352905 0.9979428052902222
0.13350257277488708 -0.32157811522483826 0.9831523299217224
0.13636112213134766 -0.3089042901992798 0.9822396039962769
0.041289959102869034 -0.49692225456237793 0.9487636089324951
0.08350832760334015 -0.46863242983818054 1.0185980796813965
0.08375866711139679 -0.480575293302536 1.0312204360961914
0.027455559000372887 -0.6144639253616333 1.0734641551971436
0.02799820341169834 -0.6200156211853027 1.071317195892334
0.019250910729169846 -0.6294583678245544 1.0702368021011353
0.0805506706237793 -0.40771234035491943 0.9171026945114136
0.07707992941141129 -0.4192877411842346 0.91511070728302
0.07224166393280029 -0.41839855909347534 0.9162331223487854
0.07619069516658783 -0.4018384516239166 0.9098842144012451
0.07987231761217117 -0.4020841717720032 0.9051534533500671
0.07556034624576569 -0.4019829034805298 0.8918952941894531
0.07206526398658752 -0.4254729449748993 0.9362167716026306
0.07265939563512802 -0.40070053935050964 0.887431263923645
0.0684480369091034 -0.40791571140289307 0.8805813789367676
0.11986906081438065 -0.3690146803855896 0.9850526452064514
0.1210113912820816 -0.3741150200366974 0.9862174987792969
0.10773734748363495 -0.3673345744609833 0.9576483964920044
0.11629805713891983 -0.40034687519073486 1.0308793783187866
0.11373990774154663 -0.4068673253059387 1.0266551971435547
0.059526972472667694 -0.551915168762207 1.072479009628296
0.05847818776965141 -0.5472280979156494 1.0725817680358887
0.058342739939689636 -0.541689932346344 1.0595598220825195
0.07687048614025116 -0.40743720531463623 0.8786455392837524
0.07197221368551254 -0.3938152492046356 0.8788857460021973
0.07596809417009354 -0.4251328110694885 0.9334320425987244
0.023083806037902832 -0.5862038135528564 1.0043303966522217
0.014328662306070328 -0.6003831624984741 1.0020338296890259
0.12823839485645294 -0.38549649715423584 1.011368989944458
0.12542270123958588 -0.35689496994018555 0.9838905334472656
0.03302229195833206 -0.6109106540679932 1.055736780166626
0.04875917732715607 -0.4980599880218506 0.951949954032898
0.16491365432739258 -0.264545738697052 0.9633475542068481
0.16068172454833984 -0.2752615511417389 0.9638286828994751
0.054572369903326035 -0.5035730600357056 0.9587433338165283
0.13088981807231903 -0.3515516221523285 0.97178715467453
0.1252441704273224 -0.36611872911453247 0.9763891100883484
0.12223094701766968 -0.36406344175338745 0.9651358127593994
0.04383796453475952 -0.5785043835639954 1.0228967666625977
0.10918675363063812 -0.38129138946533203 0.9376524686813354
0.06778566539287567 -0.48737844824790955 0.9714980721473694
0.12588156759738922 -0.38066041469573975 0.9776743650436401
0.11964912712574005 -0.39262089133262634 0.9785687923431396
0.1222478449344635 -0.3929581344127655 1.0015389919281006
0.11570267379283905 -0.40393584966659546 0.989075243473053
0.12478764355182648 -0.37290048599243164 0.9651728868484497
0.11739172041416168 -0.37353193759918213 0.95328688621521
0.04981023445725441 -0.5795075297355652 1.0301244258880615
0.04408375918865204 -0.5039471387863159 1.0197787284851074
0.03901393339037895 -0.5032077431678772 1.0160425901412964
0.04248085618019104 -0.5129503607749939 1.0250515937805176
0.04178066551685333 -0.5012925267219543 1.0091716051101685
0.033299993723630905 -0.513683557510376 1.0179921388626099
0.027204621583223343 -0.5585082769393921 1.0397862195968628
0.025029852986335754 -0.566397488117218 1.0448095798492432
0.040011726319789886 -0.5207362174987793 1.0147203207015991
0.03326946124434471 -0.5295835733413696 1.0077252388000488
0.029527517035603523 -0.54695063829422 1.0252277851104736
0.03211464732885361 -0.5483209490776062 1.0349631309509277
0.07818307727575302 -0.4109360873699188 0.9718577861785889
0.10466048121452332 -0.39438843727111816 1.024551510810852
0.11262933909893036 -0.3808208107948303 1.0113308429718018
0.11506441235542297 -0.34577542543411255 0.9800053238868713
0.11327758431434631 -0.3415961265563965 0.9710337519645691
0.040810152888298035 -0.5220508575439453 0.9789338707923889
0.04907231032848358 -0.4881612956523895 0.9712360501289368
0.038487955927848816 -0.5061131715774536 0.9474303722381592
0.04437736049294472 -0.5003684163093567 0.9740892648696899
0.1642054319381714 -0.2659015953540802 0.9973345994949341
0.16830264031887054 -0.2425866425037384 0.9779666066169739
0.1619836986064911 -0.25272899866104126 0.9829561114311218
0.1605972796678543 -0.2546774446964264 0.974100649356842
0.15033800899982452 -0.26066145300865173 0.969913125038147
0.13127417862415314 -0.31213778257369995 0.9596914052963257
0.1235760748386383 -0.3263082206249237 0.9605497121810913
0.1275373250246048 -0.3720468580722809 1.0375816822052002
0.055288612842559814 -0.5510485172271729 1.0706735849380493
0.03547390550374985 -0.5831507444381714 1.0642337799072266
0.005414115265011787 -0.6143858432769775 0.9974507689476013
0.0071654655039310455 -0.6103686094284058 1.000341534614563
0.07978411763906479 -0.3846060335636139 0.8890942335128784
0.07141298800706863 -0.3935627043247223 0.8822901248931885
0.14420531690120697 -0.3149295449256897 0.9808093309402466
0.1357964724302292 -0.32537657022476196 0.9814819097518921
0.055005501955747604 -0.546593964099884 1.0752146244049072
0.06839708983898163 -0.4662298560142517 0.9567348957061768
0.06568029522895813 -0.47727304697036743 0.9618873596191406
0.08308045566082001 -0.4758080840110779 1.0218015909194946
0.07612630724906921 -0.4855610132217407 1.022970199584961
0.06992492079734802 -0.5017096996307373 1.0237269401550293
0.09362974017858505 -0.4221826195716858 0.942699670791626
0.16105374693870544 -0.2862464189529419 0.97532057762146
0.15343046188354492 -0.29446926712989807 0.9645500183105469
0.015270218253135681 -0.6436513066291809 1.0380196571350098
0.10233005881309509 -0.436030775308609 0.9961594343185425
0.09665760397911072 -0.44989335536956787 0.9869406223297119
0.09687517583370209 -0.4221686124801636 0.9562959671020508
0.09218757599592209 -0.4163106083869934 0.9316560626029968
0.08224231004714966 -0.4328094720840454 0.9497243762016296
0.10946296155452728 -0.41027575731277466 0.983757495880127
0.11622191965579987 -0.4114699363708496 1.0001379251480103
0.11011343449354172 -0.4197675287723541 0.9981383681297302
0.10746824741363525 -0.4236902594566345 0.9842981696128845
0.09091878682374954 -0.39190441370010376 0.9898564219474792
0.09496930241584778 -0.3694120943546295 0.9712958931922913
0.09046104550361633 -0.3805607259273529 0.9802893996238708
0.08624688535928726 -0.38693296909332275 0.9701594710350037
0.017782317474484444 -0.5779104232788086 1.0275222063064575
0.0803861916065216 -0.3878680169582367 0.9409052729606628
0.016178801655769348 -0.6120650172233582 1.056239366531372
0.06579495221376419 -0.4400706887245178 0.9633133411407471
0.14792221784591675 -0.277657151222229 0.9813475012779236
0.14030197262763977 -0.28460821509361267 0.9743840098381042
0.141628697514534 -0.28139156103134155 0.967705249786377
0.10147066414356232 -0.4134410619735718 1.013661503791809
0.1024622768163681 -0.42853373289108276 1.0340322256088257
0.10324486345052719 -0.41694071888923645 1.019543170928955
0.0778796598315239 -0.40264156460762024 0.9167965054512024
0.06418831646442413 -0.404466450214386 0.8801653981208801
0.027697551995515823 -0.5642957091331482 1.0013961791992188
0.02599381096661091 -0.573681652545929 1.0026317834854126
0.019109118729829788 -0.5828888416290283 1.007401943206787
0.11203277111053467 -0.37134718894958496 0.9900940656661987
0.10597822815179825 -0.42820462584495544 1.0376520156860352
0.09988237917423248 -0.43031615018844604 1.0360708236694336
0.10387744009494781 -0.4267200231552124 1.023219347000122
0.10103515535593033 -0.42437243461608887 1.0086134672164917
-0.003718397580087185 -0.6347498893737793 1.0046123266220093
-0.0063087064772844315 -0.6601159572601318 1.0316243171691895
0.16479410231113434 -0.254199355840683 0.9706792831420898
0.16719560325145721 -0.24134856462478638 0.954268217086792
0.16649189591407776 -0.2437134087085724 0.9663592576980591
0.165331169962883 -0.25213557481765747 0.9662440419197083
0.1640065759420395 -0.2545164227485657 0.9593663215637207
0.15932519733905792 -0.24282319843769073 0.9510863423347473
0.1587422788143158 -0.25575199723243713 0.9556858539581299
0.07986132055521011 -0.43179845809936523 0.9447846412658691
0.1538979858160019 -0.27034398913383484 0.9501299262046814
0.14313340187072754 -0.3113465905189514 0.961044430732727
0.1346047818660736 -0.32316213846206665 0.9589775204658508
0.13579042255878448 -0.33416232466697693 0.9716011881828308
0.12334687262773514 -0.37794768810272217 0.9816194772720337
0.12225987017154694 -0.38133516907691956 0.9973155856132507
0.08415521681308746 -0.417431503534317 0.9239705204963684
0.08720272779464722 -0.47909635305404663 0.9990789294242859
0.08529647439718246 -0.46142083406448364 0.9801968336105347
0.05311164632439613 -0.5725533962249756 1.0274932384490967
0.08331118524074554 -0.4975008964538574 1.0010865926742554
0.07590318471193314 -0.5142817497253418 1.009027123451233
0.08178696781396866 -0.5120157599449158 1.0013785362243652
0.0727003887295723 -0.527099609375 1.008227825164795
0.0661858469247818 -0.46649107336997986 1.0072557926177979
0.05301608517765999 -0.4777393341064453 1.0072318315505981
0.07153800874948502 -0.45202115178108215 1.009265422821045
0.057747453451156616 -0.4678202271461487 0.997296929359436
0.0006630006246268749 -0.6200907230377197 1.0188559293746948
0.11464154720306396 -0.34403130412101746 0.9630365967750549
0.10794493556022644 -0.35872769355773926 0.9643240571022034
0.1075069010257721 -0.3597162961959839 0.9787581562995911
0.12479422986507416 -0.31922921538352966 0.9764227271080017
0.12251368910074234 -0.3281218409538269 0.9799266457557678
0.04944588989019394 -0.5439893007278442 1.0581763982772827
0.04415050148963928 -0.5505291223526001 1.05535888671875
0.05686461552977562 -0.5309559106826782 1.0486247539520264
0.016367696225643158 -0.5931381583213806 1.004181146621704
0.08900421112775803 -0.3621900677680969 0.8874931931495667
0.08551515638828278 -0.36821454763412476 0.886600136756897
0.17074018716812134 -0.23364271223545074 0.9585400819778442
0.1629325896501541 -0.23568980395793915 0.9523819088935852
0.16482777893543243 -0.2759098708629608 1.0053507089614868
0.16710910201072693 -0.2816081643104553 0.999852180480957
0.017313480377197266 -0.6379674077033997 1.0638225078582764
0.008939335122704506 -0.6525031328201294 1.0597057342529297
0.020166702568531036 -0.6352721452713013 1.037145733833313
0.0701257586479187 -0.4576151371002197 0.9531221985816956
0.17078861594200134 -0.25636327266693115 0.9861018657684326
0.1689748615026474 -0.25816959142684937 0.9885629415512085
0.16840752959251404 -0.2665213942527771 0.988364577293396
0.11786189675331116 -0.4052867889404297 1.0128852128982544
0.056062422692775726 -0.5520719289779663 1.0253406763076782
0.10583667457103729 -0.3912254571914673 0.936009407043457
0.1018151342868805 -0.4023634195327759 0.9454126954078674
0.02113162726163864 -0.5596386194229126 1.0338165760040283
0.02146303281188011 -0.5702206492424011 1.0343332290649414
0.10093120485544205 -0.37996914982795715 0.9996215105056763
0.07126983255147934 -0.43356919288635254 0.9796270728111267
0.06585478782653809 -0.44668617844581604 0.9881432056427002
0.11201553046703339 -0.367362916469574 0.987109363079071
0.15429846942424774 -0.25351661443710327 0.9580721855163574
0.14819838106632233 -0.26469719409942627 0.9556871652603149
0.14894405007362366 -0.2693537771701813 0.9510828852653503
0.1641927808523178 -0.272971510887146 1.0056389570236206
0.16136346757411957 -0.27347254753112793 1.0035098791122437
0.15336087346076965 -0.2757224440574646 0.9889035224914551
0.004024580121040344 -0.649945855140686 1.0638742446899414
0.043891340494155884 -0.5091450214385986 0.9602012634277344
0.0385124571621418 -0.5018240213394165 0.9401779770851135
0.15653543174266815 -0.2448551058769226 0.9538120627403259
0.03923093155026436 -0.5903328657150269 1.071555495262146
0.034870751202106476 -0.6015208959579468 1.0784859657287598
0.13037227094173431 -0.3444027304649353 0.9857171773910522
0.11851806193590164 -0.3543130159378052 0.9869099259376526
0.06794791668653488 -0.4052889347076416 0.8759461045265198
0.17113658785820007 -0.261620432138443 0.9961488842964172
0.175405815243721 -0.24266782402992249 0.9786021709442139
0.165747731924057 -0.2511264383792877 0.9794138669967651
0.09039274603128433 -0.3658258616924286 0.8849510550498962
0.09269674122333527 -0.3769063353538513 0.9056688547134399
0.15153566002845764 -0.30515390634536743 0.9731605052947998
0.0425451323390007 -0.5184364914894104 0.9650720357894897
0.045000120997428894 -0.5058646202087402 0.9407432675361633
0.08612427115440369 -0.4802524447441101 1.0291587114334106
0.05805749073624611 -0.5247052907943726 0.9997157454490662
0.0643867552280426 -0.526358425617218 1.0053006410598755
0.07646870613098145 -0.49600982666015625 0.9917799830436707
0.07125277072191238 -0.5085952877998352 0.996857762336731
0.08185559511184692 -0.4243451654911041 0.9950279593467712
0.06965068727731705 -0.4615287780761719 1.0158565044403076
