-0.33632951974868774 -0.17445677518844604 1.5603336095809937
-0.5896451473236084 -0.16056564450263977 1.1730611324310303
-0.36790892481803894 -0.17731742560863495 1.6652058362960815
-0.24794596433639526 -0.1356196403503418 1.521144986152649
-0.3281540274620056 -0.11796465516090393 1.5286511182785034
-0.28663119673728943 -0.1262659877538681 1.4373217821121216
-0.29028061032295227 -0.08569936454296112 1.4387211799621582
-0.34312471747398376 -0.06847041100263596 1.3227601051330566
-0.337848961353302 -0.06615781038999557 1.2691569328308105
0.34378552436828613 -0.08859138190746307 1.2822339534759521
0.3095971345901489 -0.10819025337696075 1.2823865413665771
0.3807072937488556 -0.10864762216806412 1.2476985454559326
0.3209013342857361 -0.10510042309761047 1.4357670545578003
0.305879682302475 -0.1268118917942047 1.3396551609039307
0.31579285860061646 -0.09547869116067886 1.3603508472442627
0.4134753346443176 -0.11199069768190384 1.3268455266952515
0.43665656447410583 -0.15397480130195618 1.3153927326202393
0.4765791893005371 -0.11240805685520172 1.2387442588806152
0.506121814250946 -0.11969664692878723 1.2191283702850342
0.47380051016807556 -0.1323978751897812 1.238000512123108
0.5045629143714905 -0.13810518383979797 1.224312663078308
0.5383092164993286 -0.1259109228849411 1.2457548379898071
0.3213861584663391 -0.14148181676864624 1.608257532119751
0.3389221727848053 -0.1741732358932495 1.559280514717102
0.6064691543579102 -0.14200495183467865 1.2429312467575073
0.5788713693618774 -0.17285095155239105 1.2410589456558228
0.5350024700164795 -0.14231494069099426 1.2457492351531982
0.595770537853241 -0.1492924690246582 1.2342817783355713
0.6528612375259399 -0.1513085514307022 1.2203062772750854
0.42065370082855225 -0.17779338359832764 1.4756356477737427
0.6342171430587769 -0.16664940118789673 1.3572146892547607
0.5943594574928284 -0.18900258839130402 1.2691726684570312
0.5887744426727295 -0.16371899843215942 1.2875608205795288
0.5409042835235596 -0.1598002016544342 1.4769682884216309
0.621715247631073 -0.20056551694869995 1.33639657497406
0.7182411551475525 -0.19039225578308105 1.2965298891067505
0.6663258671760559 -0.16436441242694855 1.3312780857086182
0.6921316385269165 -0.1952141523361206 1.3069555759429932
0.6851901412010193 -0.2334098517894745 1.332802176475525
0.5404326915740967 -0.16832031309604645 1.5336158275604248
0.6202790141105652 -0.17927031219005585 1.4305216073989868
0.5956287980079651 -0.21939483284950256 1.4404613971710205
0.4812217652797699 -0.21499446034431458 1.6627922058105469
0.7230401635169983 -0.19865329563617706 1.3483400344848633
0.5171396732330322 -0.17397825419902802 1.6539582014083862
0.561698317527771 -0.18380141258239746 1.6081947088241577
0.5504626631736755 -0.21517503261566162 1.6539089679718018
0.9272482991218567 -0.26731520891189575 1.2348014116287231
0.6147010326385498 -0.22285732626914978 1.5967679023742676
0.669259786605835 -0.22243817150592804 1.5749564170837402
0.6758604645729065 -0.18394599854946136 1.524932622909546
0.7434371113777161 -0.24685730040073395 1.4508665800094604
0.7473993897438049 -0.20750626921653748 1.4491029977798462
0.6964695453643799 -0.18300528824329376 1.5477465391159058
0.7440248131752014 -0.1927051842212677 1.5056113004684448
0.807450532913208 -0.21222816407680511 1.468779444694519
0.7137124538421631 -0.17236119508743286 1.590553641319275
0.7389026284217834 -0.2035062164068222 1.572182059288025
1.0787849426269531 -0.3971938192844391 1.1519991159439087
1.1842178106307983 -0.4143657684326172 1.0472675561904907
1.2134660482406616 -0.34475067257881165 1.0499554872512817
1.1612968444824219 -0.35988932847976685 1.062566876411438
0.9688122272491455 -0.2811540961265564 1.3310983180999756
0.9939658641815186 -0.2830348014831543 1.2983300685882568
0.8558509349822998 -0.19776058197021484 1.4888619184494019
1.2074201107025146 -0.26169949769973755 1.093475341796875
1.1536645889282227 -0.26184946298599243 1.1479082107543945
1.073953628540039 -0.2586342394351959 1.339406967163086
1.1591109037399292 -0.2807067632675171 1.2723101377487183
1.1032295227050781 -0.2943638861179352 1.2508329153060913
1.1380615234375 -0.3137367367744446 1.2851901054382324
-1.1301766633987427 -0.5207139253616333 1.1851391792297363
-1.1044803857803345 -0.5284553170204163 1.1861810684204102
-0.9036538004875183 -0.37870171666145325 1.4666049480438232
-0.9023973941802979 -0.3613714873790741 1.4765119552612305
-0.9216116070747375 -0.3800353705883026 1.4232052564620972
-0.9576619863510132 -0.40630048513412476 1.3221385478973389
-0.903861403465271 -0.3876437544822693 1.3356046676635742
-0.9711278676986694 -0.4519755244255066 1.2881633043289185
-0.9494199752807617 -0.41005536913871765 1.261372447013855
-0.8458631038665771 -0.40635401010513306 1.3641782999038696
-0.7476728558540344 -0.36056289076805115 1.5023170709609985
-0.7834318280220032 -0.35841506719589233 1.4729353189468384
-1.0271384716033936 -0.41157057881355286 1.0525181293487549
-1.1078150272369385 -0.4543416202068329 1.073111891746521
-1.1327935457229614 -0.44620680809020996 0.9842522144317627
-0.7409136295318604 -0.3151954114437103 1.4811103343963623
-0.7204005122184753 -0.34507498145103455 1.5416003465652466
-0.9609642028808594 -0.4754316806793213 1.1274545192718506
-0.9640306234359741 -0.4811188578605652 1.104142665863037
-1.0686228275299072 -0.5150113701820374 0.9798314571380615
-1.085218906402588 -0.5328991413116455 0.9335681796073914
-0.908865213394165 -0.37730732560157776 1.2169044017791748
-0.6669583916664124 -0.3256501853466034 1.6343848705291748
-0.8835398554801941 -0.3766774535179138 1.2542614936828613
-0.9202005863189697 -0.3640756607055664 1.1823614835739136
-0.850740909576416 -0.4128962755203247 1.2728074789047241
-0.8576924800872803 -0.42108285427093506 1.257850170135498
-0.8539135456085205 -0.3410467207431793 1.2332806587219238
-0.7884244918823242 -0.37463894486427307 1.3389456272125244
-0.9384300708770752 -0.38574981689453125 1.132833480834961
-0.9685686826705933 -0.4011952877044678 1.0752819776535034
-0.7701857089996338 -0.32428234815597534 1.4155077934265137
-0.7692354917526245 -0.31737539172172546 1.3211365938186646
-0.7877929210662842 -0.35676491260528564 1.2984044551849365
-0.5720586776733398 -0.2901836633682251 1.6475105285644531
-0.6849762201309204 -0.34654608368873596 1.467151165008545
-0.6942239999771118 -0.3107556104660034 1.3285057544708252
-0.5007113218307495 -0.2872658371925354 1.681382656097412
-0.5354987978935242 -0.22920769453048706 1.5633996725082397
-0.6080850958824158 -0.2971176505088806 1.4630166292190552
-0.7073317766189575 -0.25985249876976013 1.2430946826934814
-0.7066217660903931 -0.2974494695663452 1.263174295425415
-0.6072098016738892 -0.24310755729675293 1.4551509618759155
-0.6252123117446899 -0.23248612880706787 1.3692532777786255
-0.40789932012557983 -0.1706129014492035 1.583570122718811
-0.530348002910614 -0.22848254442214966 1.4050360918045044
-0.5462887287139893 -0.21071554720401764 1.2938082218170166
-0.5444320440292358 -0.16656988859176636 1.2883960008621216
-0.5931799411773682 -0.183779776096344 1.2274384498596191
-0.45873403549194336 -0.1705917865037918 1.3035701513290405
-0.5554206967353821 -0.1453663855791092 1.2189748287200928
-0.4395388960838318 -0.16027973592281342 1.4856289625167847
-0.40384069085121155 -0.1679365634918213 1.4249571561813354
-0.498515248298645 -0.11227361857891083 1.1848797798156738
-0.45408645272254944 -0.09118389338254929 1.199062466621399
-0.2267775535583496 -0.08120328187942505 1.517923355102539
-0.3301510512828827 -0.11270175874233246 1.3285216093063354
0.42714256048202515 -0.13562586903572083 1.238718867301941
0.22576162219047546 -0.09978120028972626 1.5179508924484253
0.4860214293003082 -0.11640006303787231 1.3034334182739258
0.4853048622608185 -0.1486663818359375 1.29106867313385
0.5113558173179626 -0.11014075577259064 1.233840823173523
0.4834960699081421 -0.14147578179836273 1.4216068983078003
0.5336949229240417 -0.18546591699123383 1.3432365655899048
0.656693696975708 -0.1394522339105606 1.228819489479065
0.47671669721603394 -0.16220130026340485 1.5929679870605469
0.6593219041824341 -0.22798749804496765 1.3536207675933838
0.6088328957557678 -0.1875632107257843 1.5805350542068481
0.9906454682350159 -0.270132452249527 1.1649284362792969
1.0181756019592285 -0.2611368000507355 1.1616320610046387
1.0870736837387085 -0.27632614970207214 1.068150281906128
1.1377397775650024 -0.28222811222076416 1.0051239728927612
1.122199535369873 -0.3101719915866852 1.0140775442123413
0.8294105529785156 -0.21679984033107758 1.4026927947998047
1.1004704236984253 -0.26239338517189026 1.0786552429199219
1.1446104049682617 -0.26971590518951416 1.0141186714172363
0.9689548015594482 -0.32981035113334656 1.2237586975097656
0.9369916915893555 -0.3413569927215576 1.2685019969940186
0.9499850869178772 -0.3661935031414032 1.2376878261566162
1.0095864534378052 -0.3431447148323059 1.1884876489639282
1.1133283376693726 -0.25793981552124023 1.1170461177825928
1.1676852703094482 -0.27221548557281494 1.0478687286376953
1.0056785345077515 -0.2629603147506714 1.259606957435608
0.9892259836196899 -0.3326084613800049 1.229427456855774
1.052978515625 -0.3438635468482971 1.2050070762634277
0.9869861602783203 -0.35371917486190796 1.2390269041061401
1.049339771270752 -0.38978463411331177 1.1923385858535767
0.950696587562561 -0.30488166213035583 1.297264575958252
1.0238221883773804 -0.3068106174468994 1.2765568494796753
1.1757572889328003 -0.35901087522506714 1.0799827575683594
1.2009451389312744 -0.40448203682899475 1.0268350839614868
1.2168004512786865 -0.30430611968040466 1.043021559715271
0.9725252985954285 -0.2521476447582245 1.3334777355194092
1.1116161346435547 -0.2827305197715759 1.1595580577850342
1.129934549331665 -0.37846362590789795 1.1369301080703735
1.1519055366516113 -0.3646584153175354 1.1444040536880493
1.2192227840423584 -0.34908393025398254 1.0816824436187744
1.0686511993408203 -0.2631048262119293 1.3105067014694214
1.1044977903366089 -0.25547686219215393 1.2935196161270142
1.2143515348434448 -0.3123401701450348 1.15090012550354
1.1997331380844116 -0.31972745060920715 1.1685105562210083
0.9126410484313965 -0.2274182289838791 1.4146289825439453
1.0236179828643799 -0.19712497293949127 1.4303221702575684
0.9911304116249084 -0.22970062494277954 1.4059398174285889
0.8756409287452698 -0.18332533538341522 1.5622532367706299
0.898013710975647 -0.19391769170761108 1.522125244140625
0.8992883563041687 -0.19056212902069092 1.5179136991500854
0.9138528108596802 -0.21279917657375336 1.5077812671661377
0.9814399480819702 -0.1975814700126648 1.4701308012008667
0.959061861038208 -0.2112562507390976 1.4865785837173462
-1.037809133529663 -0.43604832887649536 1.3179643154144287
-1.0110031366348267 -0.4561994671821594 1.325665831565857
-1.021643877029419 -0.48119911551475525 1.2963273525238037
-1.1119990348815918 -0.5019767880439758 0.9752376675605774
-1.1160755157470703 -0.5567436814308167 0.9416182041168213
-0.9679257273674011 -0.480970561504364 1.106587290763855
-1.0146795511245728 -0.5097377896308899 1.084445834159851
-0.9658485054969788 -0.5307278037071228 1.0951170921325684
-1.054675579071045 -0.5503339767456055 1.0302503108978271
-1.0352421998977661 -0.5080576539039612 1.0128915309906006
-1.0385798215866089 -0.5381879210472107 0.9795491695404053
-0.8870456218719482 -0.4417335093021393 1.2164608240127563
-0.8985093832015991 -0.4710124731063843 1.170982003211975
-0.917689323425293 -0.46192148327827454 1.1862208843231201
-0.9937697649002075 -0.5279518961906433 1.032232403755188
-1.0076688528060913 -0.49793383479118347 1.0384942293167114
-0.936564564704895 -0.4985877275466919 1.109326720237732
-0.9876200556755066 -0.4900895655155182 1.084341287612915
-0.8262240886688232 -0.34039175510406494 1.333726167678833
-0.8902875185012817 -0.3511335253715515 1.1688251495361328
-0.8261427879333496 -0.32905834913253784 1.15348219871521
-0.8394307494163513 -0.30263835191726685 1.1565929651260376
-0.7265964150428772 -0.3304789960384369 1.289436936378479
-0.751483678817749 -0.2913881838321686 1.2111495733261108
-0.8139969706535339 -0.290635883808136 1.1769652366638184
-0.806172251701355 -0.3129228353500366 1.161903977394104
-0.4634764492511749 -0.2069016396999359 1.4482609033584595
-0.6711949706077576 -0.21992917358875275 1.1973199844360352
-0.5931969881057739 -0.2186742126941681 1.2089344263076782
-0.6312553882598877 -0.18053078651428223 1.177363634109497
-0.5010935068130493 -0.13410155475139618 1.1773245334625244
-0.5515418648719788 -0.13890370726585388 1.1644128561019897
-0.4040403664112091 -0.08271446824073792 1.2200076580047607
0.7744113802909851 -0.20446988940238953 1.2769064903259277
0.5148191452026367 -0.20583830773830414 1.7230143547058105
0.8844411969184875 -0.23258331418037415 1.2976900339126587
0.839465320110321 -0.2088956981897354 1.2445582151412964
0.8692773580551147 -0.2548847496509552 1.260655403137207
0.8785134553909302 -0.23225262761116028 1.2564436197280884
0.7391082048416138 -0.20880058407783508 1.419262409210205
0.8721103668212891 -0.2952682375907898 1.2928528785705566
0.921457827091217 -0.305379718542099 1.2569841146469116
0.9048874974250793 -0.3360593020915985 1.2747844457626343
0.923403263092041 -0.3379215598106384 1.251861572265625
0.965196967124939 -0.31871291995048523 1.2083994150161743
1.1167670488357544 -0.3331044316291809 1.0585676431655884
1.155700445175171 -0.3377627730369568 1.0199922323226929
1.183549165725708 -0.3146946132183075 1.0249555110931396
0.9260924458503723 -0.259957879781723 1.3030459880828857
0.9581169486045837 -0.25600430369377136 1.2779567241668701
0.9709845185279846 -0.33254674077033997 1.256119966506958
0.9904293417930603 -0.3406241834163666 1.21775484085083
1.0054805278778076 -0.3815248906612396 1.1925530433654785
0.7188401818275452 -0.23300103843212128 1.5432519912719727
1.0339233875274658 -0.26998648047447205 1.280763030052185
1.0858700275421143 -0.2809641361236572 1.260817289352417
0.9494565725326538 -0.2675631046295166 1.388948917388916
1.2244234085083008 -0.3571726977825165 1.1356744766235352
1.2360243797302246 -0.3078412413597107 1.0979783535003662
1.0706158876419067 -0.29766857624053955 1.287795901298523
1.1062027215957642 -0.31599345803260803 1.2489346265792847
1.0660972595214844 -0.22646759450435638 1.4417805671691895
1.0532453060150146 -0.28490933775901794 1.3870956897735596
1.0740582942962646 -0.25790897011756897 1.3908774852752686
1.1677013635635376 -0.29626402258872986 1.2906655073165894
1.157231092453003 -0.2705124318599701 1.2922676801681519
-0.9173676371574402 -0.38827186822891235 1.4351937770843506
-1.1868364810943604 -0.5196823477745056 0.974428653717041
-0.9535220861434937 -0.4725334346294403 1.2042967081069946
-0.9527613520622253 -0.48611536622047424 1.16461980342865
-0.9446179270744324 -0.44196388125419617 1.2470648288726807
-0.6341829299926758 -0.3185535669326782 1.5959246158599854
-0.9186370968818665 -0.38644903898239136 1.2593121528625488
-0.9346135854721069 -0.4053398072719574 1.2258939743041992
-1.1040494441986084 -0.4835115671157837 0.9306779503822327
-1.12385094165802 -0.44274163246154785 0.9237709045410156
-0.9055812954902649 -0.43783366680145264 1.160920262336731
-0.930081844329834 -0.4663013517856598 1.122999906539917
-0.8952997922897339 -0.45577704906463623 1.1475778818130493
-0.6421589851379395 -0.33107003569602966 1.5462172031402588
-0.7198861241340637 -0.30320289731025696 1.4372800588607788
-0.4707944393157959 -0.10967125743627548 1.2579160928726196
0.2637021541595459 -0.0803491622209549 1.3059775829315186
0.24303647875785828 -0.09251908212900162 1.3072656393051147
0.4190375506877899 -0.1433504968881607 1.2770979404449463
0.45257100462913513 -0.11495410650968552 1.2134904861450195
0.49613404273986816 -0.138693705201149 1.3522000312805176
0.6332212090492249 -0.1624235361814499 1.268190860748291
0.6320846676826477 -0.17678801715373993 1.2495228052139282
0.6613403558731079 -0.22212734818458557 1.4343082904815674
0.651543140411377 -0.24109934270381927 1.5240675210952759
0.7774252891540527 -0.25137296319007874 1.376979947090149
0.9933667778968811 -0.3689082860946655 1.1879392862319946
1.0490154027938843 -0.3510989248752594 1.1622233390808105
1.073304533958435 -0.3935348093509674 1.1263595819473267
1.1139777898788452 -0.36386093497276306 1.0842156410217285
0.9028998017311096 -0.2791416347026825 1.3665443658828735
1.198988676071167 -0.4060099720954895 1.0559234619140625
-1.000685214996338 -0.46304288506507874 1.3000881671905518
-0.9990728497505188 -0.4266570508480072 1.0315649509429932
-1.0323185920715332 -0.43704745173454285 0.9852797985076904
-0.5608861446380615 -0.30409175157546997 1.6851239204406738
-0.6696093082427979 -0.21910443902015686 1.1819316148757935
-0.6740686893463135 -0.21388430893421173 1.1508255004882812
-0.6279803514480591 -0.1964339315891266 1.160281777381897
-0.5292688608169556 -0.1252756267786026 1.1611801385879517
-0.28231385350227356 -0.06178176403045654 1.2905173301696777
-0.2740229666233063 -0.0843731164932251 1.2914330959320068
0.5246105194091797 -0.20696504414081573 1.5255192518234253
0.5386210083961487 -0.2173088788986206 1.593222975730896
0.9073116183280945 -0.2442454993724823 1.326397180557251
0.9431793689727783 -0.24335992336273193 1.2537400722503662
0.8083049058914185 -0.2646501660346985 1.3951818943023682
1.0048532485961914 -0.32524383068084717 1.1692688465118408
0.8952353000640869 -0.25670596957206726 1.4100341796875
0.8302099704742432 -0.2394997924566269 1.475174903869629
1.0112035274505615 -0.26009485125541687 1.3902227878570557
1.0482863187789917 -0.2805190980434418 1.3380177021026611
1.1628481149673462 -0.33071625232696533 1.207932949066162
1.1726040840148926 -0.37363895773887634 1.1077483892440796
1.1780208349227905 -0.30403751134872437 1.2036179304122925
-1.140044093132019 -0.5316480398178101 0.9738579988479614
-1.142580270767212 -0.473486989736557 0.9385662078857422
-0.9704118371009827 -0.491409569978714 1.1072380542755127
-1.0796715021133423 -0.510711133480072 0.9896716475486755
-1.0598938465118408 -0.48018237948417664 0.9488890171051025
-0.8651635646820068 -0.3801804780960083 1.185941219329834
-0.4681229591369629 -0.15061409771442413 1.27165687084198
-0.5123558640480042 -0.15417145192623138 1.2148396968841553
-0.5495032668113708 -0.1498715579509735 1.1965479850769043
-0.4232501983642578 -0.1263735592365265 1.2456727027893066
-0.4588562548160553 -0.12803183495998383 1.1716217994689941
-0.4791269898414612 -0.11035754531621933 1.1632189750671387
0.45159798860549927 -0.09635341167449951 1.2218070030212402
0.8251136541366577 -0.27110376954078674 1.3179129362106323
0.8709273934364319 -0.2989702820777893 1.3420639038085938
0.9091010689735413 -0.3101162910461426 1.3136128187179565
1.108916997909546 -0.3339974582195282 1.2312915325164795
-1.14033043384552 -0.5148650407791138 1.0681654214859009
-1.1468504667282104 -0.5470997095108032 1.0373767614364624
-1.1570712327957153 -0.5318803191184998 1.0373632907867432
-0.9981335401535034 -0.4199148118495941 1.1782281398773193
-0.9565884470939636 -0.45544230937957764 1.0999760627746582
-0.9143750071525574 -0.44767144322395325 1.1324682235717773
-0.3568854331970215 -0.09271484613418579 1.2530614137649536
-0.17241156101226807 -0.07125748693943024 1.388704538345337
-0.16949868202209473 -0.05672779679298401 1.3786677122116089
0.23826560378074646 -0.10496921837329865 1.3173669576644897
0.22618699073791504 -0.1894974261522293 1.7175272703170776
0.4368685483932495 -0.17970770597457886 1.7214722633361816
0.45706474781036377 -0.2032417356967926 1.7443068027496338
0.5428761839866638 -0.19860196113586426 1.7018725872039795
0.82182776927948 -0.19117571413516998 1.5560609102249146
0.830608606338501 -0.18483932316303253 1.6008496284484863
0.8503175377845764 -0.16401290893554688 1.5474218130111694
0.8715605139732361 -0.19374980032444 1.5404472351074219
0.8866757750511169 -0.16623206436634064 1.5690394639968872
-0.9747086763381958 -0.4190866947174072 1.3965141773223877
-0.990272581577301 -0.400300532579422 1.3841190338134766
-0.7923094630241394 -0.34320318698883057 1.5553622245788574
-0.7895029187202454 -0.3283940255641937 1.5291318893432617
-1.160886526107788 -0.46722087264060974 0.9957987070083618
-1.1848775148391724 -0.48038792610168457 0.9568967819213867
-1.0566754341125488 -0.5206927061080933 1.0354083776474
-1.0236762762069702 -0.43148329854011536 1.1350195407867432
-0.8852869868278503 -0.3661547005176544 1.288670301437378
-0.5163449048995972 -0.28229382634162903 1.7173198461532593
0.42102527618408203 -0.1101234033703804 1.2820197343826294
0.3666785955429077 -0.12810595333576202 1.518857717514038
0.662120521068573 -0.17940418422222137 1.2989819049835205
0.5763487219810486 -0.15717224776744843 1.4045177698135376
0.7680017352104187 -0.21829062700271606 1.2727692127227783
0.8220447301864624 -0.23967967927455902 1.2464709281921387
0.768488347530365 -0.2556164264678955 1.3099579811096191
1.0346729755401611 -0.2890923321247101 1.1295331716537476
1.0538604259490967 -0.30963677167892456 1.127105951309204
1.0386321544647217 -0.3590034544467926 1.2035915851593018
0.9882088899612427 -0.24638943374156952 1.3734691143035889
1.1393158435821533 -0.2633860111236572 1.2025187015533447
-1.1595574617385864 -0.5276175141334534 0.9955347180366516
-1.1682462692260742 -0.5053421258926392 0.9438508749008179
-0.6749140620231628 -0.18973387777805328 1.151078224182129
-0.5287428498268127 -0.12065808475017548 1.1849784851074219
-0.42078596353530884 -0.10555098950862885 1.2090671062469482
1.0976811647415161 -0.27269113063812256 1.2162455320358276
1.2597029209136963 -0.33205580711364746 1.034813642501831
1.256094217300415 -0.3323412239551544 1.0547040700912476
-0.9601901769638062 -0.4841631352901459 1.1432554721832275
-0.9917119741439819 -0.4385378062725067 1.0546367168426514
-1.0087653398513794 -0.46712905168533325 1.0169329643249512
0.6157366037368774 -0.2001759558916092 1.6448155641555786
1.2592430114746094 -0.3052661418914795 1.047808051109314
1.1043115854263306 -0.2865816652774811 1.3314695358276367
-0.409967303276062 -0.10923345386981964 1.3428034782409668
1.031990647315979 -0.24950404465198517 1.3905017375946045
-0.937829852104187 -0.40605348348617554 1.1014423370361328
1.1574512720108032 -0.39160141348838806 1.0450587272644043
1.025696873664856 -0.2573946416378021 1.373067855834961
-0.9752244353294373 -0.514937162399292 1.1166983842849731
-0.4677426815032959 -0.054760951548814774 0.9185066819190979
-0.4728131592273712 -0.054625581949949265 0.9315418601036072
-0.4575938880443573 -0.08667679131031036 0.9194923043251038
-0.4705411195755005 -0.08341754227876663 0.9334926009178162
-0.42672133445739746 -0.05626753345131874 0.9976603388786316
-0.4397769868373871 -0.06494338065385818 0.9719204306602478
-0.42113497853279114 -0.035395681858062744 0.9459845423698425
-0.41225582361221313 -0.022332804277539253 0.9888247847557068
-0.43091610074043274 -0.09127820283174515 0.9738202095031738
-0.4408552050590515 -0.11771281063556671 0.9521783590316772
-0.3914937674999237 -0.05093059316277504 1.072998046875
-0.41346096992492676 -0.11879286170005798 0.9520586729049683
-0.42308342456817627 -0.07468533515930176 0.9659282565116882
-0.40970778465270996 -0.12027544528245926 0.9996842741966248
-0.40438908338546753 -0.08396518230438232 0.9976233839988708
-0.3772118091583252 -0.021981539204716682 1.0482827425003052
-0.3947422504425049 -0.07414335757493973 1.0016523599624634
-0.3964288830757141 -0.09512056410312653 1.0226885080337524
-0.39655613899230957 -0.0821983814239502 1.0604071617126465
-0.402748167514801 -0.05211210250854492 1.1123898029327393
-0.40544965863227844 -0.1094571202993393 1.0862964391708374
-0.3395792245864868 -0.0044327047653496265 1.157665491104126
-0.355210542678833 0.003937303088605404 1.109409213066101
-0.38640907406806946 -0.07212047278881073 1.142883062362671
-0.3134886622428894 0.010580999776721 1.0999515056610107
-0.31935781240463257 -0.0839385837316513 1.2060928344726562
-0.3582022488117218 -0.13288754224777222 1.13983154296875
-0.30337220430374146 0.011949210427701473 1.1495100259780884
-0.26341575384140015 -0.006127126049250364 1.162410020828247
-0.2648211717605591 -0.025553511455655098 1.2226027250289917
-0.23351559042930603 -0.026505108922719955 1.2280845642089844
-0.22056184709072113 -0.134603813290596 1.2833672761917114
-0.2964760661125183 -0.1371559053659439 1.1999298334121704
-0.22179865837097168 -0.04910436272621155 1.276956558227539
-0.25384530425071716 -0.08512313663959503 1.2707030773162842
-0.20313052833080292 -0.07063478231430054 1.3170969486236572
-0.17945115268230438 -0.08607141673564911 1.350126028060913
-0.16758887469768524 -0.14186078310012817 1.3399780988693237
-0.22101260721683502 -0.1640005260705948 1.2253308296203613
-0.1896868646144867 -0.013156764209270477 1.764976143836975
-0.17009007930755615 -0.008314134553074837 1.4105089902877808
-0.13866916298866272 0.0693780779838562 0.8640525341033936
-0.1828232705593109 0.02313571609556675 0.8574103116989136
-0.157728374004364 -0.07089478522539139 0.866536021232605
-0.20234453678131104 -0.10103486478328705 0.8532701730728149
-0.17883704602718353 -0.013405216857790947 1.6636345386505127
-0.19113261997699738 -0.021172044798731804 1.7944308519363403
-0.16181285679340363 -0.017284683883190155 1.7370463609695435
-0.15420687198638916 0.004210334271192551 1.6750249862670898
-0.15791814029216766 -0.024884771555662155 1.628780484199524
-0.1264595240354538 -0.013035863637924194 1.0497868061065674
-0.15571947395801544 -0.06623397767543793 1.0092780590057373
-0.15532657504081726 -0.1360529214143753 0.9925065636634827
-0.1518666297197342 -0.0571647472679615 1.5617737770080566
-0.2303716242313385 0.3619009256362915 0.20289213955402374
-0.24405725300312042 0.36647412180900574 0.1350601613521576
-0.2538846433162689 0.3410787582397461 0.12142004072666168
-0.13372407853603363 -0.14007887244224548 1.394370198249817
-0.13302014768123627 -0.07479637861251831 1.3529284000396729
-0.12294922024011612 -0.09565974771976471 1.3277065753936768
-0.1403741091489792 -0.15228095650672913 1.3760353326797485
-0.11851926147937775 -0.17621679604053497 1.3181354999542236
-0.19275334477424622 0.010625296272337437 0.5031509399414062
-0.19802048802375793 0.04801701381802559 0.4134913980960846
-0.2033402919769287 0.13332465291023254 0.399711549282074
-0.21069079637527466 0.09356482326984406 0.4066831171512604
-0.1595437079668045 -0.01368880644440651 1.7002946138381958
-0.12060143798589706 -0.1293264776468277 1.2842179536819458
-0.12746816873550415 -0.12580277025699615 1.2430064678192139
-0.12641207873821259 -0.16820447146892548 1.259854793548584
-0.154501810669899 -0.1886693388223648 1.2529964447021484
-0.19333185255527496 0.187362402677536 0.35668203234672546
-0.13733448088169098 -0.12945502996444702 1.573532223701477
-0.14424848556518555 -0.050929635763168335 1.5609643459320068
-0.14383377134799957 -0.08460675179958344 1.5611414909362793
-0.16698622703552246 -0.08795181661844254 0.5510372519493103
-0.0982176810503006 -0.006492767482995987 1.8035181760787964
-0.10931196063756943 -0.16148492693901062 1.2017848491668701
-0.12437950074672699 -0.06482385098934174 1.1730289459228516
-0.12422826141119003 -0.12895116209983826 0.7335589528083801
-0.11363133043050766 0.0370798334479332 1.7329418659210205
-0.10763640701770782 -0.17099501192569733 1.399679183959961
-0.10619699954986572 -0.11242112517356873 0.8439157009124756
-0.14486929774284363 -0.1278669536113739 0.867098867893219
-0.12270725518465042 -0.2066643238067627 0.9127669334411621
-0.11090990900993347 -0.21561390161514282 0.8483301401138306
-0.23475658893585205 0.3017085790634155 0.09492384642362595
-0.0772489383816719 0.06667157262563705 1.7231653928756714
-0.09108265489339828 0.00308213010430336 1.7846060991287231
-0.13475893437862396 -0.12815862894058228 1.4641304016113281
-0.11620348691940308 -0.1406586468219757 1.5261423587799072
-0.16167151927947998 0.14875096082687378 0.41266539692878723
-0.18120728433132172 0.22182101011276245 0.3361450433731079
-0.23209470510482788 0.2585563361644745 0.1137409657239914
-0.17410284280776978 0.38486552238464355 0.2667762041091919
-0.0968431681394577 -0.09146030992269516 1.3331995010375977
-0.15069441497325897 -0.09101797640323639 0.5095006823539734
-0.17634177207946777 0.3673865795135498 0.10164227336645126
-0.2184751182794571 0.3750307559967041 0.09782446175813675
-0.09959455579519272 -0.048182740807533264 1.5772813558578491
-0.09575818479061127 -0.09036220610141754 1.539811611175537
-0.027324587106704712 -0.2204996943473816 0.9052830934524536
-0.08988206088542938 0.08943184465169907 0.8654896020889282
-0.2049679458141327 0.09549486637115479 0.271062433719635
-0.17692831158638 0.1854303628206253 0.21574842929840088
-0.15554606914520264 0.3330734670162201 0.28017598390579224
-0.08454927802085876 -0.07533028721809387 1.3029165267944336
-0.09175330400466919 -0.08630968630313873 1.2577452659606934
-0.0461963415145874 -0.20726659893989563 1.2948520183563232
-0.1279115080833435 -0.04335346072912216 0.6470662951469421
-0.10382924973964691 -0.13108143210411072 0.723080039024353
-0.07025806605815887 -0.11121784150600433 0.8019875884056091
-0.16453053057193756 0.22160561382770538 0.1911809891462326
-0.17922423779964447 0.2883778214454651 0.10279152542352676
-0.10082437098026276 -0.1896834671497345 1.5345885753631592
-0.08104612678289413 -0.08525551855564117 1.3708444833755493
-0.051429130136966705 -0.06641943007707596 1.308693528175354
-0.1198437288403511 -0.11359196901321411 0.5234638452529907
-0.09226274490356445 -0.1000819131731987 0.5368351340293884
-0.12379711121320724 0.01603088155388832 0.5585808753967285
-0.0714053362607956 -0.18214109539985657 1.493485927581787
-0.05248698964715004 -0.13527865707874298 1.4521756172180176
-0.09440936148166656 -0.09476783871650696 1.4236066341400146
-0.09833703935146332 -0.016913847997784615 0.5347686409950256
-0.048755671828985214 0.02510867267847061 1.7829456329345703
-0.08038629591464996 -0.2084777057170868 1.6941218376159668
-0.019286882132291794 -0.1982588768005371 0.9885424375534058
-0.05493592098355293 -0.14832699298858643 1.4760792255401611
-0.030022883787751198 -0.17659756541252136 1.4603983163833618
-0.052183400839567184 -0.1613295078277588 1.4409035444259644
-0.02489522658288479 -0.2091771960258484 1.6180111169815063
-0.06922045350074768 -0.2173151671886444 1.5598492622375488
-0.03329017013311386 -0.11043819785118103 1.4878424406051636
-0.0823839008808136 -0.07124495506286621 0.6191716194152832
0.00906747579574585 -0.012190710753202438 1.8169864416122437
-0.03227377310395241 0.0772535502910614 1.6860229969024658
-0.010182593017816544 -0.23666971921920776 1.568984031677246
-0.03224267065525055 -0.2244371771812439 1.503196120262146
-0.015140386298298836 -0.11822177469730377 1.4539722204208374
-0.006250789389014244 -0.22705288231372833 1.5036441087722778
0.0163346566259861 -0.08546851575374603 1.4303542375564575
-0.011113932356238365 -0.07240542024374008 1.3017358779907227
0.004387404769659042 0.042525410652160645 1.775753140449524
0.009432252496480942 -0.1185101717710495 1.4949951171875
0.006654011085629463 -0.17299731075763702 1.4779773950576782
0.030542857944965363 0.0524737685918808 1.7241697311401367
0.021054567769169807 -0.0007310211658477783 1.791595220565796
0.004925982095301151 -0.1674073338508606 1.44877028465271
0.05423638969659805 -0.18147969245910645 1.522216796875
0.014111841097474098 -0.14129331707954407 1.4605562686920166
0.05416164547204971 -0.3293640613555908 0.6750771999359131
0.03811388090252876 -0.07490579038858414 1.5230040550231934
0.08585944771766663 -0.3891483545303345 0.6170657873153687
0.03531374782323837 -0.2301008701324463 1.2426972389221191
0.07527981698513031 -0.08397083729505539 1.2770397663116455
0.07457456737756729 -0.0759044885635376 1.1547815799713135
0.17469002306461334 -0.5191217660903931 0.14661173522472382
0.21168825030326843 -0.5109761953353882 0.11836975067853928
0.16096758842468262 -0.33660534024238586 0.16686102747917175
0.049981702119112015 -0.20425136387348175 1.2367541790008545
0.041783638298511505 -0.22191044688224792 1.1608840227127075
0.04796130582690239 -0.24067087471485138 0.8099914789199829
0.1632213145494461 -0.39772361516952515 0.10884752124547958
0.07470820844173431 -0.009115200489759445 1.7519476413726807
0.05175464227795601 -0.1940593421459198 1.6993669271469116
0.04097609594464302 -0.19299806654453278 1.6074126958847046
0.046930667012929916 -0.20554396510124207 1.5564922094345093
0.08777593076229095 -0.13116195797920227 0.8897500038146973
0.1325974315404892 -0.007260505110025406 1.778235912322998
0.04572473093867302 -0.06477174907922745 1.5783096551895142
0.04872806370258331 -0.08782127499580383 1.554008960723877
0.1374986171722412 -0.3637627959251404 0.40274521708488464
0.13915681838989258 -0.37089642882347107 0.3447969853878021
0.18111473321914673 -0.32704341411590576 0.14521187543869019
0.07599525153636932 -0.012637909501791 1.844054937362671
0.0918259546160698 -0.11777520179748535 1.4442323446273804
0.09526418149471283 -0.19529058039188385 0.8823974132537842
0.07438090443611145 -0.11604465544223785 0.8694027662277222
0.11903081089258194 -0.16860395669937134 0.8783750534057617
0.0971418097615242 -0.15938739478588104 0.7356327772140503
0.22730757296085358 -0.5220098495483398 0.14074155688285828
0.09005464613437653 -0.01686330884695053 1.7664821147918701
0.07020723074674606 -0.1746051013469696 1.1370561122894287
0.08112265914678574 -0.2022167146205902 1.2554140090942383
0.08448009192943573 -0.22064578533172607 1.246572494506836
0.12944898009300232 -0.1594226062297821 0.9258550405502319
0.08452121913433075 -0.13484925031661987 1.6137351989746094
0.07858890295028687 -0.05792035162448883 1.5857248306274414
0.07694950699806213 -0.0839192196726799 1.582025408744812
0.08695715665817261 -0.10120192170143127 1.5806143283843994
0.09848405420780182 -0.11874090880155563 1.5614535808563232
0.12487104535102844 -0.2726946473121643 0.6986756920814514
0.10901409387588501 -0.3035326600074768 0.7674198150634766
0.10673458874225616 -0.17245981097221375 1.3989142179489136
0.12335942685604095 -0.09397177398204803 1.3640801906585693
0.08047780394554138 -0.09886671602725983 1.3711769580841064
0.08688542991876602 -0.10936564207077026 1.3420689105987549
0.10595515370368958 -0.13296176493167877 0.8595016002655029
0.22697027027606964 -0.36691975593566895 0.13795018196105957
0.24373820424079895 -0.3966955840587616 0.12494790554046631
0.09803672134876251 -0.033574655652046204 1.7200394868850708
0.12245507538318634 -0.12957194447517395 1.4196547269821167
0.1952609121799469 -0.4196469187736511 0.4113442003726959
0.11814024299383163 -0.0163993202149868 1.6880052089691162
0.09053519368171692 0.00850648432970047 1.6848958730697632
0.10591323673725128 -0.028168724849820137 1.655479907989502
0.23193766176700592 -0.422486811876297 0.22157983481884003
0.25195884704589844 -0.4852651059627533 0.1409967839717865
0.21934673190116882 -0.5232776999473572 0.1784365475177765
0.16162165999412537 0.008083254098892212 0.9306249618530273
0.15175826847553253 -0.020070061087608337 0.8221561312675476
0.1303834617137909 -0.025951825082302094 1.781417965888977
0.1740984320640564 0.033437956124544144 0.8222861886024475
0.18866950273513794 0.02246974967420101 0.8815106749534607
0.15397793054580688 -0.10535524785518646 1.3610122203826904
0.17824797332286835 -0.13205210864543915 1.3402127027511597
0.12731456756591797 -0.1695774495601654 1.3642512559890747
0.18300628662109375 -0.09608611464500427 1.3122801780700684
0.178529754281044 -0.09367824345827103 1.2877594232559204
0.21991482377052307 -0.17673298716545105 1.2410537004470825
0.213436096906662 -0.14131203293800354 1.2999305725097656
0.2295355200767517 -0.07550640404224396 1.2581872940063477
0.25388023257255554 -0.030418463051319122 1.1897594928741455
0.28335511684417725 -0.038703035563230515 1.2115007638931274
0.2728310823440552 -0.08748990297317505 1.243600845336914
0.2711709141731262 -0.1484324187040329 1.2402876615524292
0.3098016679286957 -0.028605621308088303 1.1596202850341797
0.3647708296775818 -0.10974116623401642 1.1884360313415527
0.3607039749622345 -0.06961031258106232 1.183822512626648
0.3371444344520569 -0.03634333238005638 1.1620457172393799
0.35586878657341003 -0.15697605907917023 1.1456947326660156
0.358896940946579 -0.09675881266593933 1.135542869567871
0.3458133339881897 -0.06895790994167328 1.1328781843185425
0.45280301570892334 -0.08015911281108856 1.0228347778320312
0.35596466064453125 -0.1287761926651001 1.1213314533233643
0.3732299208641052 -0.13227269053459167 1.0900121927261353
0.3986242115497589 -0.06198456138372421 1.0611438751220703
0.3693309426307678 -0.10434380918741226 1.0729825496673584
0.38443994522094727 -0.1380985975265503 1.0624299049377441
0.406070739030838 -0.1056288629770279 1.0445778369903564
0.43120110034942627 -0.09363880008459091 1.0436259508132935
0.40736648440361023 -0.1476309448480606 1.0296272039413452
0.4216253161430359 -0.11967867612838745 1.0332788228988647
0.4096558094024658 -0.13345345854759216 1.0364347696304321
0.4536036550998688 -0.08026966452598572 0.9987813234329224
0.4342573285102844 -0.13875146210193634 1.0188899040222168
0.4267832636833191 -0.08073072880506516 1.0122195482254028
0.4527563154697418 -0.11313341557979584 0.9980370998382568
0.46346381306648254 -0.09561886638402939 1.0076600313186646
-0.3756694793701172 -0.023449085652828217 1.074514389038086
-0.3792620301246643 -0.08861299604177475 1.044853687286377
-0.3572402894496918 -0.06630755215883255 1.0483627319335938
-0.38646790385246277 -0.132357656955719 1.0724925994873047
-0.3040977120399475 -0.02385125681757927 1.074729323387146
-0.3540685772895813 -0.12884263694286346 1.0568149089813232
-0.2061357945203781 -0.0688512772321701 1.247693419456482
-0.2159055471420288 -0.12665830552577972 1.2037248611450195
-0.17085722088813782 -0.10768238455057144 0.961326003074646
-0.17723415791988373 -0.02117004245519638 0.9317747354507446
-0.1304166316986084 0.04832730069756508 0.9280710816383362
-0.171729177236557 0.02689475566148758 1.2196650505065918
-0.17249402403831482 0.018207907676696777 1.1533732414245605
-0.18646679818630219 0.04233075678348541 1.1167088747024536
-0.15494641661643982 -0.016934003680944443 0.9642074108123779
-0.20055116713047028 -0.0380336195230484 1.7628058195114136
-0.14096315205097198 -0.09519767761230469 1.369290828704834
-0.1686038225889206 -0.07084400206804276 1.3071576356887817
-0.12622272968292236 0.04424302279949188 1.0019621849060059
-0.172965407371521 0.03769513592123985 0.9161384105682373
-0.24312323331832886 0.29857712984085083 0.21692398190498352
-0.2568134069442749 0.320952832698822 0.1529872864484787
-0.1752035915851593 -0.043223313987255096 1.7455735206604004
-0.16010276973247528 -0.04176529496908188 1.6855907440185547
-0.13916197419166565 -0.20231463015079498 1.2240111827850342
-0.14072228968143463 -0.21078240871429443 1.189646601676941
-0.14472481608390808 -0.23428860306739807 1.178423285484314
-0.14960867166519165 -0.002407589927315712 1.3651256561279297
-0.13682132959365845 -0.010118670761585236 1.3605631589889526
-0.11311237514019012 -0.2031264305114746 1.240294098854065
-0.1390371024608612 -0.10803398489952087 1.2140733003616333
-0.22738784551620483 0.21101440489292145 0.23002409934997559
-0.22387653589248657 0.2233458310365677 0.2823716104030609
-0.10911725461483002 0.01445627398788929 1.211397409439087
-0.1406332552433014 -0.14133797585964203 1.4789280891418457
-0.14074569940567017 -0.1335509866476059 1.4527537822723389
-0.126484215259552 -0.13381369411945343 1.4270999431610107
-0.1407296061515808 -0.1269903928041458 1.4275519847869873
-0.13810274004936218 -0.14353998005390167 1.4098985195159912
-0.14545553922653198 -0.10802537202835083 0.7784308195114136
-0.1605316400527954 -0.06993043422698975 0.7717111110687256
-0.13646343350410461 0.11010459810495377 0.99846351146698
-0.12745483219623566 0.10996153950691223 1.0550357103347778
-0.10392483323812485 -0.1946253478527069 1.2431737184524536
-0.13251323997974396 -0.10403822362422943 0.8557034730911255
-0.20683665573596954 0.32756122946739197 0.2792154848575592
-0.20837737619876862 0.36939337849617004 0.25718531012535095
-0.14477354288101196 -0.18613310158252716 0.8479197025299072
-0.13230831921100616 0.07942549884319305 1.179007649421692
-0.13131791353225708 -0.18130670487880707 1.6834793090820312
-0.12589170038700104 -0.07538069039583206 1.5626634359359741
-0.11423325538635254 0.01387045904994011 1.5100960731506348
-0.10055963695049286 -0.012037334963679314 1.5764992237091064
-0.12300089746713638 -0.022005509585142136 1.5514655113220215
-0.1211557537317276 -0.01749170571565628 1.4608687162399292
-0.06905719637870789 0.058406613767147064 1.5362370014190674
-0.10708828270435333 -0.12245891988277435 1.5182143449783325
-0.0919133722782135 0.04128604382276535 0.9813355207443237
-0.12350505590438843 -0.009469781070947647 1.8485581874847412
-0.13560372591018677 -0.024343162775039673 1.8457672595977783
-0.13500234484672546 -0.0354820117354393 1.8334555625915527
-0.026256954297423363 -0.01860150136053562 1.4348769187927246
-0.10947159677743912 0.02240031398832798 1.4085007905960083
-0.14880751073360443 0.3604365587234497 0.1750037968158722
-0.06861519068479538 0.07057373225688934 1.3239355087280273
-0.09057900309562683 -0.19026492536067963 1.5915048122406006
-0.14601479470729828 0.040333740413188934 0.4105566442012787
-0.06412984430789948 -0.013699375092983246 1.5100080966949463
-0.07539870589971542 -0.06901970505714417 1.5105589628219604
-0.05242784321308136 0.051698558032512665 1.4482860565185547
-0.03965133801102638 0.05510304123163223 0.8568873405456543
-0.14648492634296417 0.1244010403752327 0.41773468255996704
-0.09009991586208344 0.07483235001564026 0.8980917930603027
-0.042016368359327316 0.032524414360523224 1.0453829765319824
-0.07811135053634644 -0.21813437342643738 1.236459493637085
-0.07691006362438202 -0.1899322122335434 1.1450533866882324
-0.13679218292236328 0.11868803948163986 0.37786421179771423
-0.12109819054603577 0.14798222482204437 0.31579551100730896
-0.14690756797790527 0.18751336634159088 0.3561047613620758
-0.06471787393093109 -0.03236262500286102 1.5388753414154053
-0.0686178207397461 -0.12063823640346527 0.6654537916183472
-0.09718012064695358 -0.044134896248579025 0.6405434608459473
-0.06378235667943954 0.13023516535758972 1.0360652208328247
-0.07720640301704407 0.11877860873937607 0.9405649900436401
-0.02427554875612259 -0.22666321694850922 1.1640105247497559
-0.13855786621570587 0.28021231293678284 0.23102715611457825
-0.07148973643779755 0.05890446901321411 0.9444930553436279
-0.06718891859054565 0.03351695090532303 0.995537281036377
0.007003385573625565 -0.026431353762745857 1.5207456350326538
-0.060118965804576874 -0.1909368634223938 1.3923653364181519
-0.00966989528387785 0.08805763721466064 1.2937021255493164
0.027750736102461815 -0.019412489607930183 1.4216065406799316
0.0048210956156253815 -0.03530340641736984 1.5293985605239868
-0.008557877503335476 0.06863270699977875 0.9500404000282288
0.0034796535037457943 0.055295735597610474 0.9022680521011353
0.002676047384738922 -0.20634616911411285 1.383662462234497
0.007516436744481325 0.036929886788129807 1.0405675172805786
0.0005083221476525068 -0.22206003963947296 1.1040493249893188
0.07611119002103806 0.07418328523635864 1.3219656944274902
0.03057214803993702 -0.07060661166906357 1.3197945356369019
0.06297337263822556 0.04523061588406563 1.4571024179458618
0.03237340971827507 -0.00928785651922226 1.4691824913024902
0.045009251683950424 -0.05743115767836571 1.2276251316070557
0.0422159843146801 0.10087062418460846 0.9104591608047485
0.02539382502436638 -0.05477605760097504 1.7912698984146118
0.14442840218544006 -0.46778440475463867 0.1603987067937851
0.1572154313325882 -0.47707921266555786 0.11901948601007462
0.13163653016090393 -0.389658659696579 0.18464295566082
0.008409842848777771 -0.20485086739063263 1.6942414045333862
0.06045674905180931 -0.20212902128696442 0.7265172004699707
0.10187534987926483 -0.01549014262855053 1.4405759572982788
0.06139557808637619 -0.1388164460659027 1.5277540683746338
0.09836199879646301 -0.1528342068195343 1.4535658359527588
0.05167381465435028 -0.10244245827198029 1.4284870624542236
0.10897792875766754 -0.3514806032180786 0.47240179777145386
0.12835343182086945 -0.48328763246536255 0.35139402747154236
0.15269498527050018 -0.38322246074676514 0.31025218963623047
0.06996351480484009 0.07485555857419968 0.9552514553070068
0.0484958291053772 0.10096671432256699 0.9094120264053345
0.08005450665950775 -0.23694850504398346 0.8263306617736816
0.10086881369352341 -0.2518700063228607 0.6895791888237
0.03419547528028488 -0.10431459546089172 1.7900809049606323
0.07699987292289734 -0.1214875727891922 1.7435952425003052
0.0976293757557869 -0.392015278339386 0.6705253720283508
0.04784029722213745 -0.040478430688381195 1.7988110780715942
0.07211797684431076 -0.06454475969076157 1.7524046897888184
0.09047575294971466 -0.10423848032951355 1.14454984664917
0.09168827533721924 -0.08640156686306 1.1165800094604492
0.0886075496673584 -0.16381248831748962 1.0914199352264404
0.06402276456356049 -0.1790369302034378 1.6856955289840698
0.07203112542629242 -0.12319201976060867 1.5599267482757568
0.07263294607400894 -0.1688307225704193 1.5689425468444824
0.11465128511190414 0.06029389798641205 0.9121771454811096
0.10177300870418549 -0.17116951942443848 1.2912654876708984
0.1165747418999672 -0.22762565314769745 1.2325570583343506
0.1051444336771965 -0.1428169310092926 1.2438011169433594
0.20568959414958954 -0.38403627276420593 0.252689003944397
0.18388023972511292 -0.48008567094802856 0.2631550431251526
0.2035793662071228 -0.47211796045303345 0.24410566687583923
0.09040740132331848 -0.03582043945789337 1.7698452472686768
0.1159907877445221 -0.1924895942211151 1.2861659526824951
0.17945030331611633 -0.34957456588745117 0.5188060402870178
0.14489123225212097 -0.38689929246902466 0.5960856080055237
0.19019815325737 -0.38265615701675415 0.4701293110847473
0.11506515741348267 -0.1746339648962021 1.4411871433258057
0.09664130955934525 -0.1670721024274826 1.4377299547195435
0.12469898909330368 -0.1377023458480835 1.4063472747802734
0.12233337014913559 0.07320330291986465 0.8940971493721008
0.116813063621521 -0.10425594449043274 0.8628002405166626
0.21989820897579193 -0.41192030906677246 0.3461894094944
0.22420768439769745 -0.44161003828048706 0.3602088689804077
0.1349296122789383 -0.12148310244083405 1.4040262699127197
0.16329024732112885 0.019622325897216797 1.2345004081726074
0.16256633400917053 0.051006995141506195 1.2003133296966553
0.13396497070789337 -0.27151066064834595 1.1105960607528687
0.16030631959438324 -0.03877970948815346 0.9712259769439697
0.16170081496238708 -0.09101178497076035 0.9668799638748169
0.1947472244501114 -0.06368115544319153 1.2430870532989502
0.2883433699607849 -0.1231212317943573 1.1153310537338257
0.285602867603302 -0.06783748418092728 1.1174801588058472
0.3035237789154053 -0.1791517585515976 1.165422797203064
-0.3610527813434601 -0.03020353801548481 1.0467063188552856
-0.38784998655319214 -0.09114112704992294 1.0075898170471191
-0.28996407985687256 -0.13066650927066803 1.1146886348724365
-0.2981584668159485 -0.15715180337429047 1.162156581878662
-0.24759306013584137 -0.09455841779708862 1.139206051826477
-0.23202645778656006 -0.05212292820215225 1.1760523319244385
-0.19642828404903412 -0.15275995433330536 0.8680349588394165
-0.20445843040943146 0.03883099928498268 0.9612213373184204
-0.1924687623977661 0.03220340609550476 1.0782407522201538
-0.15948781371116638 -0.2710592448711395 1.0660966634750366
-0.13304483890533447 -0.17176583409309387 0.9575120210647583
-0.2388259470462799 0.1428053379058838 0.3381325602531433
-0.22316484153270721 0.0926116555929184 0.31016355752944946
-0.16347898542881012 0.02455952577292919 0.5470989942550659
-0.1555214822292328 -0.19336333870887756 0.8537048101425171
-0.15669912099838257 -0.07867997884750366 0.6170204877853394
-0.1471860110759735 -0.11377747356891632 0.6718851923942566
-0.1390228122472763 -0.043658819049596786 0.6818113327026367
-0.11748707294464111 -0.03186045214533806 1.1122956275939941
