0.10881561040878296 -0.0030964799225330353 1.4122440814971924
0.10836705565452576 0.014554392546415329 1.412102460861206
0.13503187894821167 0.0032941214740276337 1.3535212278366089
0.1598198413848877 -0.008635442703962326 1.4282262325286865
0.140994131565094 -0.002406839281320572 1.3578559160232544
0.14785721898078918 -0.00430389866232872 1.4466884136199951
0.14188343286514282 0.02349872887134552 1.3624589443206787
0.14877083897590637 0.014354236423969269 1.4394797086715698
0.16745410859584808 0.012626882642507553 1.5031412839889526
0.17742499709129333 -0.00111301988363266 1.5625789165496826
0.22156277298927307 -0.009695164859294891 1.4116978645324707
0.1926363855600357 -0.014667300507426262 1.5970115661621094
0.21368646621704102 -0.01684556156396866 1.5020523071289062
0.1938924491405487 0.007419992238283157 1.5924242734909058
0.2149360626935959 -0.012101445347070694 1.6751482486724854
0.21782562136650085 0.004763353615999222 1.677718162536621
0.2176324874162674 0.00010672584176063538 1.7223007678985596
0.22260193526744843 -0.02483699843287468 1.7510507106781006
0.2327754646539688 -0.028530597686767578 1.7477763891220093
0.2567008435726166 -0.0284404493868351 1.7775022983551025
0.2791192829608917 0.004338093101978302 1.7698979377746582
0.25781548023223877 -0.009326238185167313 1.7841970920562744
0.3015412986278534 -0.026014752686023712 1.7485414743423462
0.36464250087738037 0.008708097040653229 1.6504284143447876
0.29678308963775635 -0.013858005404472351 1.7842148542404175
0.338800311088562 -0.0022289007902145386 1.7902218103408813
0.34664177894592285 -0.021675508469343185 1.794138789176941
0.40783441066741943 -0.023406654596328735 1.7673710584640503
0.3768910765647888 -0.021961364895105362 1.7253618240356445
0.4195970296859741 -0.017080631107091904 1.6203117370605469
0.41607847809791565 0.01929721049964428 1.558250904083252
0.39865195751190186 0.0005488842725753784 1.780410647392273
0.5145094394683838 -0.011748243123292923 1.7215851545333862
0.41219478845596313 -0.009002048522233963 1.785187005996704
0.46484678983688354 -0.012904051691293716 1.7766276597976685
0.4373212456703186 0.007603704929351807 1.7367624044418335
0.46783164143562317 0.0034460797905921936 1.774564266204834
0.5066918134689331 0.007534811273217201 1.7313001155853271
0.5060681700706482 0.011163249611854553 1.7036515474319458
0.4628332853317261 -0.012621145695447922 1.7093286514282227
0.4735144078731537 -0.005742602050304413 1.7526581287384033
0.5104699730873108 -0.00019044801592826843 1.700447678565979
0.5450371503829956 0.030649490654468536 1.6612865924835205
0.5482750535011292 0.0162708330899477 1.660681962966919
0.5622947216033936 0.026130344718694687 1.6178089380264282
0.586700439453125 0.009591139853000641 1.618605375289917
0.6043362617492676 0.03019336797297001 1.647384762763977
0.6020864844322205 0.01981840282678604 1.6476211547851562
0.6158055663108826 0.029069233685731888 1.5981264114379883
0.5910336375236511 0.024590736255049706 1.6204192638397217
0.6218637228012085 0.03401733934879303 1.557418704032898
0.6312209367752075 0.016812968999147415 1.5527551174163818
0.6672804355621338 0.04017028957605362 1.5246211290359497
0.6675260066986084 0.040753379464149475 1.4808980226516724
0.6493242979049683 0.020604148507118225 1.4855138063430786
0.6695544719696045 0.04018452763557434 1.4447885751724243
0.6166096329689026 0.015161477029323578 1.5941362380981445
0.6608427166938782 0.029280029237270355 1.5777379274368286
0.6637331247329712 0.021327881142497063 1.5341627597808838
0.6523889303207397 0.014400657266378403 1.5762664079666138
0.748354434967041 0.041147343814373016 1.4472914934158325
0.7004393339157104 0.02014414593577385 1.4812884330749512
0.7128691077232361 0.032791510224342346 1.4491721391677856
0.7066982984542847 0.025735635310411453 1.5117642879486084
0.7028450965881348 0.021969901397824287 1.449108600616455
0.7184341549873352 0.036384984850883484 1.4242064952850342
0.7164556384086609 0.016014395281672478 1.4237500429153442
0.7591508030891418 0.04206043854355812 1.465406060218811
0.7501968145370483 0.023849861696362495 1.4525959491729736
0.7495424747467041 0.020999480038881302 1.4707450866699219
0.7561386823654175 0.03777098283171654 1.3973034620285034
0.8094139099121094 0.049212586134672165 1.3705540895462036
0.7633092403411865 0.05384272709488869 1.379981517791748
0.8099374771118164 0.05950921028852463 1.3512122631072998
0.8034437894821167 0.03581039980053902 1.3482885360717773
0.8721158504486084 0.06238926202058792 1.1627954244613647
0.8593634963035583 0.030124204233288765 1.185267448425293
0.8838925957679749 0.03291068971157074 1.138331413269043
0.8862964510917664 0.05080311745405197 1.1663942337036133
0.8536117672920227 0.0023784926161170006 1.1449134349822998
0.9167322516441345 0.009717566892504692 1.1042052507400513
0.9081072807312012 -0.002335549332201481 1.112417221069336
-0.7455302476882935 0.14653292298316956 0.9537951350212097
-0.7275684475898743 0.1455458402633667 0.9207653403282166
-0.741278886795044 0.13301971554756165 0.8891279697418213
-0.7195064425468445 0.1277453899383545 0.9238646030426025
-0.7152228951454163 0.15263403952121735 0.8558976650238037
-0.700292706489563 0.13353689014911652 0.845093846321106
-0.7424652576446533 0.19644300639629364 1.017540693283081
-0.7088751792907715 0.13405337929725647 1.041394591331482
-0.7126504182815552 0.14614415168762207 0.9891685247421265
-0.7043038606643677 0.14608964323997498 0.9840431213378906
-0.6959466338157654 0.1457010954618454 0.9192801117897034
-0.6889766454696655 0.11207661032676697 0.8875246047973633
-0.7045514583587646 0.11488737165927887 0.8570618629455566
-0.6906044483184814 0.13804560899734497 0.7634328007698059
-0.6937271356582642 0.11529609560966492 0.7815988659858704
-0.6662564277648926 0.09628656506538391 0.7432795763015747
-0.6696044206619263 0.10687056183815002 0.9394342303276062
-0.6836049556732178 0.13375155627727509 0.8797959685325623
-0.6747015714645386 0.15215067565441132 0.7559566497802734
-0.67806077003479 0.1251807063817978 0.8696449995040894
-0.67476487159729 0.1336839497089386 0.8976739645004272
-0.6819949150085449 0.1104380190372467 0.850924551486969
-0.6640844345092773 0.08491580188274384 0.8451993465423584
-0.6404123306274414 0.13460418581962585 1.1529865264892578
-0.6384716033935547 0.042984094470739365 0.7070077657699585
-0.6286976337432861 0.05217461287975311 0.6299108862876892
-0.6226768493652344 0.09031258523464203 1.2541251182556152
-0.6595432758331299 0.11157812923192978 1.1830313205718994
-0.6341226100921631 0.12617115676403046 1.12605619430542
-0.6459858417510986 0.09639731049537659 1.2762941122055054
-0.6571331024169922 0.15635713934898376 1.2315473556518555
-0.6277754306793213 0.0419064462184906 0.9037662148475647
-0.6216881275177002 0.13182686269283295 1.4174731969833374
-0.5806209444999695 0.11971253156661987 1.3524959087371826
-0.5755038261413574 0.14208006858825684 0.7561946511268616
-0.5856672525405884 0.15940922498703003 0.6785802841186523
-0.5933783054351807 0.1360320895910263 0.8938212990760803
-0.5616950392723083 0.14313851296901703 0.6632825136184692
-0.5657293200492859 0.09198862314224243 1.0476353168487549
-0.5941996574401855 0.08124639093875885 0.9930752515792847
-0.5716585516929626 0.12127891182899475 0.9508987069129944
-0.5386190414428711 0.11612379550933838 0.9929962158203125
-0.5402825474739075 0.13710692524909973 0.9932078123092651
-0.540443480014801 0.09532014280557632 1.0653700828552246
-0.5367749929428101 0.06313713639974594 1.4690651893615723
-0.5663294196128845 0.10782945156097412 1.501189947128296
-0.49588194489479065 0.12499874830245972 1.0785905122756958
-0.5228257179260254 0.11115454137325287 1.2454802989959717
-0.5460503101348877 0.08851750940084457 1.2304534912109375
-0.4792115092277527 0.048149336129426956 1.5710358619689941
-0.5016046762466431 0.06695865094661713 1.4464209079742432
-0.5137948989868164 0.08833378553390503 1.5558359622955322
-0.4767918288707733 0.09497459977865219 1.1602420806884766
-0.4737173318862915 0.12633267045021057 1.1833014488220215
-0.47854340076446533 0.10764287412166595 1.129464864730835
-0.46589940786361694 0.11539322137832642 1.1180330514907837
-0.4573097229003906 0.10020752996206284 1.377660870552063
-0.4344101548194885 0.10773143172264099 1.307076334953308
-0.35771235823631287 0.04687565192580223 1.4887163639068604
-0.3656924068927765 0.11812212318181992 1.1014426946640015
-0.41982364654541016 0.07100273668766022 1.5810586214065552
-0.26986613869667053 0.030077975243330002 1.468419075012207
-0.3190217614173889 0.07414799928665161 1.461261510848999
-0.2597349286079407 0.042047467082738876 1.3890724182128906
-0.25132066011428833 0.07695358991622925 1.3852286338806152
-0.24235275387763977 0.08423804491758347 1.2875430583953857
-0.21667197346687317 0.0783863216638565 1.2428076267242432
0.24185791611671448 0.04394029080867767 1.2257671356201172
0.22110818326473236 0.01605822890996933 1.2356349229812622
0.2654838562011719 0.030892927199602127 1.1876513957977295
0.2746649980545044 0.0309654138982296 1.3727208375930786
0.2403709590435028 0.0016095377504825592 1.2900450229644775
0.24719810485839844 0.036044396460056305 1.304006814956665
0.31847310066223145 0.03577929735183716 1.2515658140182495
0.3378642499446869 0.007938656955957413 1.2479859590530396
0.3388643264770508 0.04984477162361145 1.157431721687317
0.35970374941825867 0.04684114456176758 1.1315635442733765
0.33942556381225586 0.0357922799885273 1.1595499515533447
0.36109867691993713 0.03441685438156128 1.1397268772125244
0.3954261243343353 0.05076613649725914 1.1484341621398926
0.3314410448074341 0.016788311302661896 1.5441949367523193
0.3405993580818176 -0.014140797778964043 1.5004807710647583
0.44146013259887695 0.05218374729156494 1.1311169862747192
0.4311261773109436 0.02453104965388775 1.1397649049758911
0.3908742070198059 0.03830627351999283 1.150224208831787
0.43859297037124634 0.04417885094881058 1.1292927265167236
0.48062047362327576 0.046830497682094574 1.0949933528900146
0.3766345977783203 -0.0028740204870700836 1.4041091203689575
0.5053280591964722 0.0402301624417305 1.235376000404358
0.4565688967704773 0.008520776405930519 1.1633249521255493
0.4512915313243866 0.031411439180374146 1.1811758279800415
0.47169023752212524 0.03774620592594147 1.374344825744629
0.4974272549152374 0.011663279496133327 1.2217445373535156
0.5491955280303955 0.046036891639232635 1.1556873321533203
0.5228925943374634 0.04961848258972168 1.2003295421600342
0.535688042640686 0.029998131096363068 1.1748234033584595
0.5435515642166138 -0.00193709135055542 1.1970559358596802
0.4909086227416992 0.022504301741719246 1.4299118518829346
0.5250036716461182 0.03216470777988434 1.3097116947174072
0.5123218894004822 -0.0024514663964509964 1.3278043270111084
0.48547568917274475 -0.021122848615050316 1.5678149461746216
0.5744487047195435 0.026726361364126205 1.1976556777954102
0.5074121356010437 0.017814408987760544 1.5458745956420898
0.5315796732902527 0.02068960666656494 1.4871503114700317
0.5393438935279846 -0.014805709943175316 1.5376771688461304
0.6949860453605652 0.020521190017461777 1.0210423469543457
0.5818365812301636 -0.01744341291487217 1.4659161567687988
0.6203286647796631 -0.00823201797902584 1.431098222732544
0.6026979684829712 0.026239946484565735 1.3720548152923584
0.6330503225326538 -0.010090650990605354 1.2854925394058228
0.6311580538749695 0.03083038702607155 1.27974271774292
0.6216564178466797 0.030265865847468376 1.395073652267456
0.6482732892036438 0.029219580814242363 1.3344911336898804
0.685720682144165 0.01911577768623829 1.2728967666625977
0.6534369587898254 0.033084385097026825 1.4248826503753662
0.6740351319313049 0.01307875569909811 1.3982558250427246
0.7979363799095154 -0.07311026006937027 0.8855268955230713
0.8412729501724243 -0.06039133667945862 0.7525485157966614
0.8676832914352417 0.007783595472574234 0.7428946495056152
0.8305836915969849 -0.018908396363258362 0.7763144969940186
0.7722773551940918 -0.010477854870259762 1.0915849208831787
0.778586745262146 -0.00809163972735405 1.0490323305130005
0.7292705774307251 0.037289440631866455 1.2779148817062378
0.8726313710212708 0.06042170897126198 0.788516104221344
0.843130350112915 0.04839463531970978 0.8584756255149841
0.860706627368927 0.015061190351843834 1.054602861404419
0.8984889984130859 0.01870592124760151 0.9648930430412292
0.851351261138916 0.0024154353886842728 0.9611743092536926
0.894714891910553 -0.021751897409558296 0.9754031300544739
-0.7446701526641846 0.13348791003227234 0.8371118903160095
-0.7402010560035706 0.11510970443487167 0.8435684442520142
-0.7232537865638733 0.160243958234787 1.195169448852539
-0.7169201374053955 0.17985117435455322 1.198897361755371
-0.7124775052070618 0.1668146550655365 1.1486093997955322
-0.6917862892150879 0.15107659995555878 1.0388894081115723
-0.659784197807312 0.13953770697116852 1.081732988357544
-0.6997214555740356 0.11501353979110718 0.9974416494369507
-0.657909095287323 0.13558697700500488 1.0045173168182373
-0.6590778827667236 0.10308868438005447 1.1277894973754883
-0.6607974171638489 0.11092732846736908 1.2905536890029907
-0.6556002497673035 0.12474952638149261 1.2573225498199463
-0.5885050296783447 0.1412459760904312 0.8014297485351562
-0.6550782918930054 0.16275271773338318 0.7726500034332275
-0.6174436211585999 0.15768733620643616 0.6973178386688232
-0.622073769569397 0.13405153155326843 1.2841084003448486
-0.6518540382385254 0.10979510843753815 1.3314738273620605
-0.6289318799972534 0.08123622089624405 0.8781373500823975
-0.6173958778381348 0.06745397299528122 0.852218747138977
-0.6214615106582642 0.08340118825435638 0.7056832313537598
-0.614281177520752 0.07461237162351608 0.649785041809082
-0.6048703193664551 0.13540183007717133 0.9880679249763489
-0.6489351391792297 0.1078244000673294 1.4357991218566895
-0.6087149977684021 0.12912298738956451 1.0305547714233398
-0.5897054076194763 0.14085626602172852 0.9655262231826782
-0.6178006529808044 0.08916404843330383 1.0589935779571533
-0.6215353012084961 0.08392991870641708 1.0389201641082764
-0.576626181602478 0.13064542412757874 1.0367306470870972
-0.6049574017524719 0.09226322174072266 1.1427910327911377
-0.581295371055603 0.1240612268447876 0.9136025905609131
-0.5696154832839966 0.12714487314224243 0.8555155992507935
-0.6035453081130981 0.13029105961322784 1.2160321474075317
-0.5673991441726685 0.12163437902927399 1.1507073640823364
-0.5779725909233093 0.09572352468967438 1.1183931827545166
-0.5813167095184326 0.08055965602397919 1.4865210056304932
-0.5990403890609741 0.0810188576579094 1.2928407192230225
-0.5366863012313843 0.08697733283042908 1.186640977859497
-0.5470473170280457 0.056942641735076904 1.5463130474090576
-0.5036590099334717 0.0999537780880928 1.4360260963439941
-0.5385241508483887 0.077628493309021 1.3216540813446045
-0.48906049132347107 0.11990141868591309 1.1162571907043457
-0.5062686204910278 0.0889742523431778 1.130020022392273
-0.5150548219680786 0.11446154117584229 1.3244445323944092
-0.49330058693885803 0.11345106363296509 1.25174880027771
-0.4112120270729065 0.08509394526481628 1.4928767681121826
-0.4450092017650604 0.0772174671292305 1.304647445678711
-0.41108518838882446 0.07672308385372162 1.2131569385528564
-0.3895660638809204 0.10491020232439041 1.210585117340088
-0.4006597399711609 0.10816606879234314 1.1462979316711426
-0.3488870859146118 0.0712013989686966 1.2478269338607788
-0.36454954743385315 0.11665321886539459 1.1498522758483887
-0.40206587314605713 0.09485511481761932 1.4027800559997559
-0.35394486784935 0.06418371200561523 1.361111044883728
-0.3076806664466858 0.10302302986383438 1.1377867460250854
-0.27749156951904297 0.09661467373371124 1.1635377407073975
-0.22770938277244568 0.05817454308271408 1.464552402496338
-0.25243306159973145 0.05255354568362236 1.2906289100646973
0.30676770210266113 0.019414197653532028 1.1679623126983643
0.2206985354423523 0.01632194221019745 1.4615963697433472
0.36517971754074097 0.050843752920627594 1.216233730316162
0.36970120668411255 0.020320072770118713 1.205487847328186
0.362954318523407 0.05628802999854088 1.1454637050628662
0.40972083806991577 0.033069152384996414 1.3328875303268433
0.43236422538757324 0.003379303961992264 1.2533036470413208
0.4881051182746887 0.052429139614105225 1.1038812398910522
0.4504368305206299 0.02212577313184738 1.4994421005249023
0.5373867154121399 0.0009185820817947388 1.2255518436431885
0.564287543296814 0.016391465440392494 1.4500168561935425
0.7230769395828247 0.024279342964291573 0.935120165348053
0.7423658967018127 0.031106652691960335 0.9225250482559204
0.7659357786178589 0.039686866104602814 0.8128145933151245
0.7805140018463135 0.046408798545598984 0.7345800399780273
0.7790472507476807 0.02697688899934292 0.7483855485916138
0.6788528561592102 0.02693905122578144 1.2082096338272095
0.776116132736206 0.05709127336740494 0.8147141337394714
0.7956233620643616 0.061259061098098755 0.7443641424179077
0.733474612236023 -0.03539644181728363 0.9975512027740479
0.7301180362701416 -0.053644709289073944 1.040396809577942
0.7251772880554199 -0.06443507224321365 1.0125579833984375
0.7563592195510864 -0.035734809935092926 0.9473294615745544
0.8029791712760925 0.05920756980776787 0.8445019721984863
0.8259313702583313 0.05857912078499794 0.7619045972824097
0.7693935632705688 0.021742161363363266 1.0088505744934082
0.7516888380050659 -0.030083995312452316 0.9906433820724487
0.7957140803337097 -0.03487859293818474 0.939384400844574
0.7572875022888184 -0.05203847587108612 1.0009479522705078
0.7915560007095337 -0.06906457245349884 0.9342287182807922
0.7421846389770508 -0.027806859463453293 1.0641200542449951
0.7961329817771912 -0.02066626213490963 1.0159318447113037
0.8472023010253906 -0.015153016895055771 0.7911055088043213
0.8517372012138367 -0.043365463614463806 0.7271450757980347
0.8646728992462158 0.032050617039203644 0.7386242151260376
0.7683841586112976 0.018822181969881058 1.090148687362671
0.8196507692337036 0.023272039368748665 0.8817524909973145
0.8394930958747864 -0.052463825792074203 0.852733314037323
0.8530912399291992 -0.03295157849788666 0.8434033393859863
0.8792519569396973 -0.002970147877931595 0.7668992280960083
0.8385596871376038 0.020356832072138786 1.0295689105987549
0.8606844544410706 0.02838938683271408 1.0072554349899292
0.8970035910606384 0.007770338095724583 0.8361728191375732
0.8896147608757019 0.0046491604298353195 0.8535065054893494
0.7531783580780029 0.02056274190545082 1.1902424097061157
0.8447414636611938 0.053614772856235504 1.1530029773712158
0.8153985738754272 0.03021358698606491 1.1487549543380737
0.7724382281303406 0.040885891765356064 1.3335872888565063
0.7791107892990112 0.03516210988163948 1.2912702560424805
0.7759303450584412 0.04055305942893028 1.2832521200180054
0.7853283882141113 0.021754154935479164 1.2667672634124756
0.8229260444641113 0.04240797832608223 1.209695816040039
0.815321683883667 0.02797538787126541 1.227811574935913
-0.7370956540107727 0.16332794725894928 1.0068004131317139
-0.7372378706932068 0.14040744304656982 1.0119962692260742
-0.7331247925758362 0.1245557963848114 0.9799861311912537
-0.6306643486022949 0.10916641354560852 0.6813309788703918
-0.645173192024231 0.07259571552276611 0.6386101841926575
-0.6208946704864502 0.07744210958480835 0.8556442856788635
-0.6451883316040039 0.0734357237815857 0.8098950386047363
-0.6382405161857605 0.03315045312047005 0.8359694480895996
-0.6594319343566895 0.05864439159631729 0.7426187992095947
-0.6224323511123657 0.08367153257131577 0.7491573095321655
-0.6219788789749146 0.05085448548197746 0.7073690891265869
-0.6237133741378784 0.07132714241743088 0.9860327243804932
-0.6162497401237488 0.05355573445558548 0.937523365020752
-0.6335619688034058 0.07552419602870941 0.9461277723312378
-0.6228275299072266 0.04556441307067871 0.7759906053543091
-0.6158812642097473 0.07463325560092926 0.7804080843925476
-0.620674729347229 0.04259776324033737 0.8666709661483765
-0.6181772947311401 0.07127833366394043 0.8263537883758545
-0.602841854095459 0.13142907619476318 1.1290247440338135
-0.5626676082611084 0.13768339157104492 0.9738180637359619
-0.5219663381576538 0.1157732754945755 0.9919075965881348
-0.5140106678009033 0.13626937568187714 0.9969156384468079
-0.5409654378890991 0.08460624516010284 1.1361589431762695
-0.49949365854263306 0.11222955584526062 1.0712833404541016
-0.505200207233429 0.13472704589366913 1.0259381532669067
-0.5060673952102661 0.11912073194980621 1.0125758647918701
-0.41098788380622864 0.06394831091165543 1.366838812828064
-0.44114750623703003 0.12600596249103546 1.0949938297271729
-0.4042336642742157 0.08348672837018967 1.127832055091858
-0.39908188581466675 0.12427257001399994 1.0892558097839355
-0.3136950731277466 0.09261271357536316 1.126268744468689
-0.3444026708602905 0.1122613474726677 1.1001849174499512
-0.2535334527492523 0.08273659646511078 1.1910357475280762
0.5886041522026062 0.040451593697071075 1.113707184791565
0.5331106185913086 -0.007825687527656555 1.6209135055541992
0.6780570149421692 0.03608931228518486 1.094336748123169
0.6201658844947815 0.05287621542811394 1.0658059120178223
0.6537676453590393 0.018461577594280243 1.0671651363372803
0.6615321636199951 0.03998951613903046 1.057002067565918
0.612999677658081 0.026912301778793335 1.2611093521118164
0.6791899800300598 -0.014145548455417156 1.0981676578521729
0.7087822556495667 -0.017881818115711212 1.045377254486084
0.7006109952926636 -0.04616088420152664 1.0634369850158691
0.706491231918335 -0.04466358199715614 1.0350598096847534
0.724774956703186 -0.022174213081598282 0.9843505620956421
0.7854442000389099 0.002326617483049631 0.7901201248168945
0.8058276772499084 0.011688226833939552 0.7440685033798218
0.8282690644264221 0.025005774572491646 0.7369728088378906
0.7214792966842651 0.012879358604550362 1.0807299613952637
0.7407857179641724 0.018277090042829514 1.0416558980941772
0.7488632202148438 -0.04293501004576683 1.0217984914779663
0.747734785079956 -0.03799416124820709 0.9800043106079102
0.7540959715843201 -0.07372241467237473 0.95036381483078
0.6454493999481201 -0.007263518869876862 1.3793740272521973
0.799419105052948 0.0029847449623048306 1.0234007835388184
0.834734320640564 0.012346851639449596 0.9812639951705933
0.7747167348861694 -0.009198577143251896 1.1482985019683838
0.9115918278694153 -0.0195903480052948 0.8214033842086792
0.895140528678894 0.025598272681236267 0.7831835746765137
0.8365991711616516 -0.006916320417076349 1.0105509757995605
0.849897027015686 -0.014352203346788883 0.9620069265365601
0.8847033381462097 0.027743324637413025 1.1525269746780396
0.858600914478302 -0.008018054999411106 1.1095088720321655
0.873604953289032 0.01767849363386631 1.1032497882843018
0.9176672697067261 -0.0032831234857439995 0.9766249656677246
0.8992960453033447 0.01866140030324459 0.9804192781448364
-0.7166197896003723 0.15338635444641113 1.1545041799545288
-0.6740782260894775 0.13416153192520142 0.6412296891212463
-0.6560059785842896 0.08640468120574951 0.938509464263916
-0.6480355858802795 0.0704980418086052 0.9070736169815063
-0.6647558808326721 0.10591976344585419 0.9869191646575928
-0.6094533801078796 0.0946379229426384 1.42018723487854
-0.6350640058517456 0.13652768731117249 1.0160915851593018
-0.6251795291900635 0.12563778460025787 0.9793473482131958
-0.603949785232544 0.11737649142742157 0.6519932150840759
-0.5801975131034851 0.1485055536031723 0.6568530797958374
-0.6020881533622742 0.07909739762544632 0.9377099275588989
-0.6087288856506348 0.07037390768527985 0.89272540807724
-0.6007513403892517 0.06164609640836716 0.9298033714294434
-0.5979946255683899 0.08342362940311432 1.3711133003234863
-0.5899397134780884 0.12253309041261673 1.2574840784072876
-0.31614047288894653 0.10865132510662079 1.2083641290664673
0.18481361865997314 0.030249612405896187 1.2629132270812988
0.1760680079460144 0.007345447316765785 1.2703124284744263
0.3121652901172638 0.010856598615646362 1.2118192911148071
0.3090052902698517 0.041478998959064484 1.1390422582626343
0.39173704385757446 0.0326395109295845 1.2634769678115845
0.47972220182418823 0.03664457052946091 1.1500115394592285
0.48010963201522827 0.02344374917447567 1.1330841779708862
0.5612853765487671 0.002608606591820717 1.3020975589752197
0.5850571393966675 -0.019779063761234283 1.3853145837783813
0.6278049945831299 0.0030366238206624985 1.2069917917251587
0.7460651993751526 -0.06026701629161835 0.950169026851654
0.772964596748352 -0.030008094385266304 0.905040442943573
0.7874469757080078 -0.06402905285358429 0.8666903972625732
0.7979515790939331 -0.027658328413963318 0.8140249848365784
0.7311132550239563 -0.010751205496490002 1.1444344520568848
0.863182008266449 -0.05285674333572388 0.7524082064628601
-0.719906747341156 0.12962588667869568 0.9987809658050537
-0.5741417407989502 0.11899115145206451 0.7979005575180054
-0.5728655457496643 0.12289699167013168 0.7399977445602417
-0.5926967859268188 0.08444683253765106 1.5234638452529907
-0.43243637681007385 0.11782371252775192 1.079903483390808
-0.42440134286880493 0.12154920399188995 1.0488544702529907
-0.3969985842704773 0.10538405179977417 1.0790475606918335
-0.3176349401473999 0.10750964283943176 1.1082285642623901
-0.1843673288822174 0.058028243482112885 1.2676637172698975
-0.19066745042800903 0.0404755100607872 1.270831823348999
0.47956880927085876 -0.008046193048357964 1.4254382848739624
0.5076636672019958 -0.01503421925008297 1.4847800731658936
0.7158424258232117 0.020796608179807663 1.1083664894104004
0.7121831774711609 0.03458466753363609 1.0331240892410278
0.6652641296386719 -0.012743713334202766 1.2104759216308594
0.744483470916748 -0.015559639781713486 0.9249653220176697
0.7401687502861023 -0.005795410834252834 1.1924140453338623
0.714222252368927 0.002505059354007244 1.274743914604187
0.8245651125907898 0.004131633322685957 1.1268428564071655
0.8324034214019775 -0.004040924832224846 1.0626440048217773
0.8804917335510254 -0.016598714515566826 0.9065694808959961
0.8511735200881958 -0.031010976061224937 0.8075057864189148
0.892828643321991 0.0030675488524138927 0.8974485397338867
-0.6591697931289673 0.10401459038257599 0.6605069637298584
-0.6141246557235718 0.13816006481647491 0.6489408016204834
-0.6314122676849365 0.06933017075061798 0.8511309027671814
-0.6274555325508118 0.08849629014730453 0.70694500207901
-0.589085578918457 0.09517999738454819 0.6885107159614563
-0.5739921927452087 0.10779547691345215 0.9911960959434509
-0.3359442353248596 0.07656186819076538 1.2168301343917847
-0.34327390789985657 0.08558031916618347 1.1595611572265625
-0.35531216859817505 0.10383003950119019 1.134828805923462
-0.28854331374168396 0.06917481869459152 1.2057421207427979
-0.28709864616394043 0.07400283962488174 1.1368236541748047
-0.2876580059528351 0.0884115993976593 1.124158501625061
0.3104715943336487 0.053396183997392654 1.1494444608688354
0.6504636406898499 -0.006187105551362038 1.1314657926559448
0.6962097883224487 -0.024980679154396057 1.141113519668579
0.716197669506073 -0.02951045148074627 1.0963361263275146
0.8471584320068359 -0.027292044833302498 0.9440644383430481
-0.6947221755981445 0.12705561518669128 0.7390627861022949
-0.6976237297058105 0.10405947268009186 0.705045759677887
-0.6945168375968933 0.11845909059047699 0.703827440738678
-0.6423768997192383 0.136007159948349 0.913154125213623
-0.602236807346344 0.08360309898853302 0.8623298406600952
-0.5947351455688477 0.07251618802547455 0.9063447713851929
-0.23383788764476776 0.06143909692764282 1.2268636226654053
-0.14891111850738525 0.027490518987178802 1.3555214405059814
-0.1363995373249054 0.03905022144317627 1.3460144996643066
0.17875345051288605 -0.0034498758614063263 1.2836461067199707
0.27492403984069824 -0.02309251017868519 1.67902672290802
0.45807814598083496 0.012174218893051147 1.6352509260177612
0.4906434416770935 -0.005235698074102402 1.6554172039031982
0.5484948754310608 0.001007772982120514 1.590823769569397
0.7270164489746094 0.029790908098220825 1.3548880815505981
0.7517191767692566 0.026307683438062668 1.3930273056030273
0.7517463564872742 0.054172445088624954 1.3296525478363037
0.7662293910980225 0.03261841461062431 1.3160922527313232
0.7807319760322571 0.05132243409752846 1.3296171426773071
-0.7318723797798157 0.1563381403684616 1.096836805343628
-0.7320361733436584 0.17229974269866943 1.0730130672454834
-0.6929001808166504 0.15139144659042358 1.3124175071716309
-0.6728836297988892 0.15072444081306458 1.302114486694336
-0.6499392986297607 0.15886226296424866 0.6853423714637756
-0.6491556167602539 0.15438498556613922 0.639946699142456
-0.6478397250175476 0.08091269433498383 0.7454742193222046
-0.6343730688095093 0.13635054230690002 0.8625531792640686
-0.6205779314041138 0.13883532583713531 1.0637781620025635
-0.5685667395591736 0.0776078850030899 1.5708705186843872
0.3089272379875183 0.04353814572095871 1.2100332975387573
0.3451962471008301 0.02593183144927025 1.4449183940887451
0.5141940116882324 0.03109298273921013 1.168744683265686
0.4790659546852112 0.03871093690395355 1.2935746908187866
0.5791070461273193 0.031161069869995117 1.1124885082244873
0.6110643148422241 0.031640589237213135 1.0695712566375732
0.5980966091156006 -0.002942178398370743 1.1491512060165405
0.7443689107894897 0.01824328862130642 0.8859873414039612
0.7609871625900269 0.0018525924533605576 0.8753231763839722
0.7837353944778442 -0.04532779008150101 0.9484009742736816
0.8007874488830566 0.02044954150915146 1.1224983930587769
0.8598227500915527 0.03233584016561508 0.9114363789558411
-0.6749616861343384 0.11837434023618698 0.6732255816459656
-0.6468595266342163 0.13091054558753967 0.6271375417709351
-0.4154948592185974 0.12855346500873566 1.0507279634475708
-0.32908010482788086 0.11794187128543854 1.1297909021377563
-0.26725897192955017 0.07639534771442413 1.1764369010925293
0.8246867060661316 0.020897144451737404 0.9370468258857727
0.8870106935501099 0.017002083361148834 0.715140700340271
0.9010594487190247 0.012433919124305248 0.7332779169082642
-0.6370814442634583 0.06645200401544571 0.8856332898139954
-0.5901398658752441 0.10461032390594482 0.81756192445755
-0.5951380729675293 0.09174370765686035 0.7726266384124756
0.5945175886154175 0.0018590055406093597 1.5095208883285522
0.8990115523338318 0.03635236993432045 0.7253508567810059
0.8808392286300659 0.001779366284608841 1.0326393842697144
-0.31229662895202637 0.09396127611398697 1.2873737812042236
0.8339414596557617 0.016802119091153145 1.1194576025009155
-0.5809798240661621 0.11009879410266876 0.8858792781829834
0.8208116292953491 -0.046857886016368866 0.7628724575042725
0.8314685821533203 0.005971916019916534 1.1030484437942505
-0.6464915871620178 0.054643064737319946 0.8479208946228027
-0.3561745285987854 -0.09384183585643768 0.8878416419029236
-0.3618631660938263 -0.08896756172180176 0.9017751812934875
-0.3489556312561035 -0.1188536211848259 0.8991972804069519
-0.35208430886268616 -0.11820344626903534 0.9095866084098816
-0.33258748054504395 -0.07916499674320221 0.9689740538597107
-0.33523958921432495 -0.08937786519527435 0.9467595219612122
-0.3234327435493469 -0.06270825117826462 0.9203115105628967
-0.31692349910736084 -0.047624628990888596 0.9599545001983643
-0.3254913091659546 -0.10779750347137451 0.955746591091156
-0.3326365351676941 -0.14168187975883484 0.9414675831794739
-0.3108639717102051 -0.051660556346178055 1.0477558374404907
-0.308085560798645 -0.13827423751354218 0.9466655850410461
-0.3210546374320984 -0.09581442177295685 0.9437843561172485
-0.3086186647415161 -0.12688085436820984 0.9917044639587402
-0.3050065040588379 -0.09661103039979935 0.980796754360199
-0.29187431931495667 -0.029061580076813698 1.020674467086792
-0.29443854093551636 -0.08411654084920883 0.9852850437164307
-0.3040722906589508 -0.1039198487997055 1.0076351165771484
-0.311678022146225 -0.08395742624998093 1.0396753549575806
-0.3267163038253784 -0.0358847975730896 1.078866958618164
-0.3227249085903168 -0.09611307084560394 1.0695608854293823
-0.28337106108665466 0.006813111249357462 1.1203887462615967
-0.2890791893005371 0.015006949193775654 1.0708856582641602
-0.3211846649646759 -0.049096524715423584 1.1139973402023315
-0.24806565046310425 0.013406826183199883 1.0686372518539429
-0.2686125934123993 -0.050967711955308914 1.1857483386993408
-0.2886742651462555 -0.10805127024650574 1.1285804510116577
-0.2507041096687317 0.02423643320798874 1.1145961284637451
-0.21235831081867218 0.010762309655547142 1.1376988887786865
-0.22696778178215027 0.004300348460674286 1.196164846420288
-0.19856488704681396 0.0037949644029140472 1.2054486274719238
-0.20476306974887848 -0.0770639032125473 1.2754297256469727
-0.24670861661434174 -0.0916270837187767 1.1924399137496948
-0.19700190424919128 -0.0014154985547065735 1.2540204524993896
-0.2259470671415329 -0.03396953269839287 1.2520203590393066
-0.18887749314308167 -0.009692467749118805 1.295988917350769
-0.17858923971652985 -0.021746259182691574 1.3362159729003906
-0.16957633197307587 -0.07335227727890015 1.342421531677246
-0.1897716373205185 -0.11161133646965027 1.229358434677124
-0.18821384012699127 0.028006471693515778 1.761230707168579
-0.1522482931613922 0.09290823340415955 1.4193570613861084
-0.13821546733379364 0.06400369107723236 0.8563183546066284
-0.1826135516166687 0.015114011242985725 0.8542739748954773
-0.1555144190788269 -0.0749247670173645 0.8668138980865479
-0.19799061119556427 -0.10667206346988678 0.8557577133178711
-0.17274220287799835 0.03678147867321968 1.6627126932144165
-0.19096773862838745 0.005096156150102615 1.784034252166748
-0.1611115038394928 0.019511893391609192 1.7291561365127563
-0.14206986129283905 0.053652435541152954 1.6760756969451904
-0.15459901094436646 0.03685472533106804 1.628604769706726
-0.11981521546840668 0.0010106917470693588 1.0458004474639893
-0.15836577117443085 -0.05329478532075882 1.0054163932800293
-0.16026455163955688 -0.12308510392904282 0.9956339001655579
-0.14440880715847015 0.013499066233634949 1.5559496879577637
-0.20039699971675873 -0.16174504160881042 0.03493828326463699
-0.20790265500545502 -0.2340238094329834 0.016369659453630447
-0.2046264261007309 -0.25808918476104736 0.03819938749074936
-0.1365491896867752 -0.06160484999418259 1.397312879562378
-0.13018830120563507 -0.01199418306350708 1.3490512371063232
-0.11985498666763306 -0.035581156611442566 1.3284392356872559
-0.1455363929271698 -0.07354824990034103 1.381910800933838
-0.1239955872297287 -0.11165125668048859 1.3381662368774414
-0.1697927862405777 -0.10750298202037811 0.4646051526069641
-0.16436466574668884 -0.14218316972255707 0.3855479955673218
-0.17184090614318848 -0.10061082988977432 0.31464236974716187
-0.17530763149261475 -0.12060342729091644 0.34957265853881836
-0.1561504751443863 0.029071565717458725 1.698426604270935
-0.1203315481543541 -0.0751461461186409 1.2943520545959473
-0.1231544017791748 -0.07845097035169601 1.250694990158081
-0.12227200716733932 -0.11539510637521744 1.276651382446289
-0.1468258947134018 -0.13321736454963684 1.273116111755371
-0.1628180295228958 -0.09349354356527328 0.2493712157011032
-0.13627579808235168 -0.05966659635305405 1.5540666580200195
-0.1367422640323639 0.018074776977300644 1.55586838722229
-0.1383483111858368 -0.012912619858980179 1.5514369010925293
-0.14291703701019287 -0.13102112710475922 0.5659088492393494
-0.10030269622802734 0.016638487577438354 1.7962299585342407
-0.10834459960460663 -0.12555113434791565 1.2173680067062378
-0.10955585539340973 -0.04015194624662399 1.1720752716064453
-0.11304636299610138 -0.14538557827472687 0.750636100769043
-0.11350233107805252 0.07008787989616394 1.737936019897461
-0.11081680655479431 -0.09658897668123245 1.4108071327209473
-0.10008455812931061 -0.11802412569522858 0.8477612733840942
-0.14165917038917542 -0.13164028525352478 0.8704582452774048
-0.12432786822319031 -0.20496982336044312 0.9153177738189697
-0.1063755601644516 -0.21999487280845642 0.8523728847503662
-0.1778128743171692 -0.28603583574295044 0.07302659004926682
-0.07138527929782867 0.0987730622291565 1.7367784976959229
-0.09480177611112595 0.02779483050107956 1.7821838855743408
-0.14058680832386017 -0.03764563053846359 1.4582366943359375
-0.11612473428249359 -0.06408718973398209 1.5126534700393677
-0.13097532093524933 -0.07428144663572311 0.31551843881607056
-0.15419574081897736 -0.09863269329071045 0.20636416971683502
-0.17219984531402588 -0.2737603187561035 0.11094269156455994
-0.1568576693534851 -0.07936497032642365 0.041116729378700256
-0.0955500602722168 -0.03163529932498932 1.3309584856033325
-0.12125322967767715 -0.16057418286800385 0.5425513386726379
-0.1335769146680832 -0.25327834486961365 0.009582404978573322
-0.1750039905309677 -0.26266658306121826 -0.0006917561986483634
-0.095462366938591 0.01766953244805336 1.5728181600570679
-0.09213193506002426 -0.019279560074210167 1.5287755727767944
-0.02717914618551731 -0.2204740047454834 0.9110020399093628
-0.08847810328006744 0.0875164121389389 0.8578347563743591
-0.15535539388656616 -0.20483234524726868 0.2627834379673004
-0.12758444249629974 -0.19861212372779846 0.1826401650905609
-0.13738839328289032 -0.08745245635509491 0.09463194757699966
-0.0817514955997467 -0.023000994697213173 1.2998549938201904
-0.09075354039669037 -0.03888819366693497 1.256748914718628
-0.052638940513134 -0.150123730301857 1.3201104402542114
-0.10902167111635208 -0.07278720289468765 0.6535753011703491
-0.09300370514392853 -0.14916247129440308 0.7417647242546082
-0.06449676305055618 -0.1198853850364685 0.814193844795227
-0.11840736865997314 -0.20061929523944855 0.15046626329421997
-0.125529482960701 -0.27059081196784973 0.08461349457502365
-0.10540743172168732 -0.11563356965780258 1.5079580545425415
-0.0779813826084137 -0.019684482365846634 1.368025541305542
-0.051330432295799255 -0.01706058159470558 1.3021262884140015
-0.09135312587022781 -0.16208752989768982 0.5673242807388306
-0.0660126805305481 -0.14108073711395264 0.5693848729133606
-0.1074601262807846 -0.05418325215578079 0.4980202615261078
-0.07510771602392197 -0.10465177148580551 1.4754317998886108
-0.05517934635281563 -0.05475869029760361 1.4499986171722412
-0.0886201411485672 -0.009832970798015594 1.4121429920196533
-0.0752137154340744 -0.08754194527864456 0.5090740323066711
-0.05256180092692375 0.049748197197914124 1.7827776670455933
-0.09570900350809097 -0.15195584297180176 1.651310920715332
-0.024556448683142662 -0.19054505228996277 0.9988256692886353
-0.05509902909398079 -0.06757981330156326 1.4669437408447266
-0.033722274005413055 -0.09681864082813263 1.450541615486145
-0.053835075348615646 -0.0809224471449852 1.4417462348937988
-0.038424015045166016 -0.14445699751377106 1.5789978504180908
-0.08137749135494232 -0.14925050735473633 1.5224592685699463
-0.03250450640916824 -0.035010408610105515 1.4782716035842896
-0.06277621537446976 -0.09514807909727097 0.6339929103851318
0.0010976605117321014 0.005796805024147034 1.8077592849731445
-0.02973872423171997 0.11305034905672073 1.7050890922546387
-0.023878782987594604 -0.16451570391654968 1.5309109687805176
-0.03989267721772194 -0.1483040153980255 1.4779099225997925
-0.01706855557858944 -0.03978918492794037 1.4518074989318848
-0.012297114357352257 -0.14464689791202545 1.4762828350067139
0.014401765540242195 -0.014427859336137772 1.4264907836914062
-0.01264265552163124 -0.02309233695268631 1.2967240810394287
0.00043762847781181335 0.06208835542201996 1.7784987688064575
0.009984004311263561 -0.045574259012937546 1.4851144552230835
0.005546661093831062 -0.09421741217374802 1.4676730632781982
0.028181346133351326 0.0859135165810585 1.7331044673919678
0.01656520739197731 0.018002904951572418 1.7867404222488403
0.007446255534887314 -0.08791020512580872 1.44622802734375
0.04350781813263893 -0.1098429411649704 1.4971904754638672
0.013682066462934017 -0.06270786374807358 1.4577534198760986
0.05540752038359642 -0.07143719494342804 0.5848931074142456
0.039123594760894775 -0.005089949816465378 1.5115200281143188
0.08613446354866028 -0.0778668150305748 0.5030256509780884
0.028587009757757187 -0.18452003598213196 1.269313097000122
0.07146640121936798 -0.04280368611216545 1.2742120027542114
0.07094419002532959 -0.05803307145833969 1.154170274734497
0.1135493591427803 -0.01055193692445755 0.10263842344284058
0.14050130546092987 -0.003392726182937622 0.09013386070728302
0.1075395941734314 0.1056419089436531 0.10635143518447876
0.04464226961135864 -0.16097459197044373 1.2573275566101074
0.033628396689891815 -0.19205468893051147 1.181667685508728
0.059804972261190414 -0.1337963491678238 0.7246750593185425
0.10019173473119736 0.056510522961616516 0.07174230366945267
0.07068625092506409 0.01611688733100891 1.7434921264648438
0.04058061167597771 -0.14757531881332397 1.65804922580719
0.028207458555698395 -0.13561922311782837 1.5689250230789185
0.03426493704319 -0.1419949233531952 1.520775318145752
0.09374219179153442 -0.15792986750602722 0.8647325038909912
0.11990579962730408 0.0126909539103508 1.7688286304473877
0.04702189192175865 -0.007101088762283325 1.5685044527053833
0.04629454016685486 -0.024103514850139618 1.5392736196517944
0.10825326293706894 0.03881273418664932 0.3445282578468323
0.10184158384799957 0.06308826059103012 0.28956788778305054
0.12049905210733414 0.11560527235269547 0.08847282826900482
0.06571323424577713 -0.0022318176925182343 1.8324992656707764
0.0868108868598938 -0.03205142542719841 1.4331419467926025
0.09844288229942322 -0.21608734130859375 0.8565595149993896
0.08136852830648422 -0.12982207536697388 0.8517754077911377
0.12559941411018372 -0.1915578544139862 0.8498764038085938
0.08678564429283142 -0.038381803780794144 0.7470594644546509
0.16425944864749908 -0.003515973687171936 0.10066544264554977
0.0750419944524765 0.0022824257612228394 1.753945231437683
0.06341179460287094 -0.15438878536224365 1.1513386964797974
0.07222063094377518 -0.154624342918396 1.2760124206542969
0.07589201629161835 -0.1733894795179367 1.2691056728363037
0.13384169340133667 -0.18455012142658234 0.921805202960968
0.07317020744085312 -0.08134795725345612 1.587385892868042
0.07495817542076111 -0.0026166923344135284 1.5749897956848145
0.07410359382629395 -0.029677746817469597 1.5681185722351074
0.0819634348154068 -0.04491853713989258 1.562422513961792
0.09726954996585846 -0.058202214539051056 1.5381252765655518
0.12181225419044495 -0.0544840544462204 0.644044041633606
0.11975321173667908 -0.12040886282920837 0.6589682698249817
0.10734103620052338 -0.08802852034568787 1.4005146026611328
0.11041200160980225 -0.023737400770187378 1.3508083820343018
0.07036718726158142 -0.025647573173046112 1.3627188205718994
0.08043961226940155 -0.04533065855503082 1.3381240367889404
0.11552402377128601 -0.11732716858386993 0.8201544880867004
0.16514073312282562 0.09158947318792343 0.08874930441379547
0.18316909670829773 0.0635094940662384 0.07962483167648315
0.09308527410030365 -0.007674310356378555 1.7078558206558228
0.11646319925785065 -0.04466906189918518 1.4049861431121826
0.17049479484558105 -0.001741848886013031 0.3229343295097351
0.11355268210172653 0.015596102923154831 1.6792010068893433
0.08628085255622864 0.04132073000073433 1.6804004907608032
0.09849339723587036 0.012128446251153946 1.6475534439086914
0.18314357101917267 0.044680915772914886 0.15088091790676117
0.19127219915390015 0.015104115009307861 0.09647401422262192
0.16560183465480804 -0.012115225195884705 0.12015825510025024
0.16268432140350342 -0.01042978186160326 0.9591805934906006
0.14705045521259308 -0.013849804177880287 0.859544575214386
0.1220892146229744 -0.01219923421740532 1.7698639631271362
0.16614505648612976 0.041245054453611374 0.8677411079406738
0.18616804480552673 0.0043937209993600845 0.9270642995834351
0.14348697662353516 -0.03210969269275665 1.3400084972381592
0.15969927608966827 -0.05492961034178734 1.3177629709243774
0.11792626976966858 -0.08948012441396713 1.3629229068756104
0.15728765726089478 -0.027723092585802078 1.282783031463623
0.1419936716556549 -0.03008744865655899 1.2633358240127563
0.18107305467128754 -0.11600974947214127 1.2192211151123047
0.18457108736038208 -0.0657883957028389 1.2717227935791016
0.1948958933353424 -0.014465350657701492 1.2125489711761475
0.21077679097652435 0.0008203685283660889 1.1343348026275635
0.23947519063949585 -0.006698817014694214 1.1505228281021118
0.23200316727161407 -0.04019619897007942 1.1909589767456055
0.22450004518032074 -0.09662408381700516 1.2027610540390015
0.2506209909915924 -0.0010382384061813354 1.0950093269348145
0.291244238615036 -0.0830385759472847 1.1250178813934326
0.2942889928817749 -0.04721122235059738 1.1128865480422974
0.2801758050918579 -0.020377174019813538 1.0916659832000732
0.2742860019207001 -0.13033804297447205 1.0979905128479004
0.28111138939857483 -0.08150718361139297 1.0720746517181396
0.27619826793670654 -0.05549866706132889 1.068010926246643
0.33939823508262634 -0.09087646752595901 0.9402633905410767
0.27095845341682434 -0.10672148317098618 1.0670826435089111
0.27083659172058105 -0.11395823210477829 1.0382370948791504
0.30281302332878113 -0.06678232550621033 0.9895195960998535
0.27227553725242615 -0.09754826873540878 1.0158668756484985
0.27969884872436523 -0.12460602819919586 1.0118796825408936
0.3007669150829315 -0.1029534712433815 0.9786339998245239
0.32497480511665344 -0.10347490757703781 0.9686636924743652
0.28866276144981384 -0.14806139469146729 0.97299724817276
0.3110574185848236 -0.12004406750202179 0.9644225835800171
0.3008929491043091 -0.13279438018798828 0.9744267463684082
0.3355712592601776 -0.09507150948047638 0.9210307598114014
0.3107436001300812 -0.14434781670570374 0.9586697816848755
0.3140328526496887 -0.09247259795665741 0.9395273923873901
0.32749229669570923 -0.12422242015600204 0.9284785389900208
0.34472450613975525 -0.1137414276599884 0.933468222618103
-0.30232110619544983 -0.024051601067185402 1.0456514358520508
-0.2903871238231659 -0.09380901604890823 1.0301463603973389
-0.27809542417526245 -0.07357316464185715 1.0298247337341309
-0.30576714873313904 -0.12262724339962006 1.0628561973571777
-0.2323177456855774 -0.02312653139233589 1.0526424646377563
-0.27082082629203796 -0.11763124912977219 1.0575244426727295
-0.1767064779996872 -0.025902021676301956 1.2327115535736084
-0.1765766441822052 -0.08709815889596939 1.2021832466125488
-0.17980138957500458 -0.10084304213523865 0.9607968330383301
-0.18622279167175293 -0.01886170171201229 0.9270217418670654
-0.13564366102218628 0.04902828484773636 0.9222080707550049
-0.14812009036540985 0.1533249169588089 1.257480263710022
-0.14409878849983215 0.15502996742725372 1.1939759254455566
-0.1505241096019745 0.18338550627231598 1.1558781862258911
-0.1622900366783142 -0.013651617802679539 0.9600553512573242
-0.20376121997833252 0.0005127377808094025 1.7535574436187744
-0.13873080909252167 -0.023298542946577072 1.3666208982467651
-0.1562694013118744 -0.015373490750789642 1.2941378355026245
-0.07584430277347565 0.1957901120185852 1.0505130290985107
-0.11215007305145264 0.20370447635650635 0.9644795656204224
-0.2066737860441208 -0.16519160568714142 0.09895098954439163
-0.20947711169719696 -0.23297294974327087 0.0668986514210701
-0.17323076725006104 0.0007097795605659485 1.7328155040740967
-0.15838511288166046 0.005471821874380112 1.6779911518096924
-0.1292063593864441 -0.15204577147960663 1.250295877456665
-0.12632925808429718 -0.16949090361595154 1.2199333906173706
-0.13033972680568695 -0.18922407925128937 1.2146252393722534
-0.13149003684520721 0.10589373856782913 1.3899943828582764
-0.12301203608512878 0.09798552095890045 1.3815139532089233
-0.10898348689079285 -0.15022112429141998 1.2684895992279053
-0.1358669400215149 -0.06888971477746964 1.216799020767212
-0.18355834484100342 -0.18634171783924103 0.17123430967330933
-0.18502919375896454 -0.1438019573688507 0.17903997004032135
-0.08972571790218353 0.13745777308940887 1.2509198188781738
-0.14274092018604279 -0.048835478723049164 1.4705753326416016
-0.1424441933631897 -0.04206874221563339 1.447624921798706
-0.1299218088388443 -0.046122461557388306 1.4275507926940918
-0.142172709107399 -0.040224589407444 1.423656702041626
-0.14141406118869781 -0.06108253821730614 1.4133893251419067
