0.19618839025497437 -0.011561430990695953 0.09243366122245789
0.1722792237997055 -0.039272889494895935 0.11792286485433578
0.1613198071718216 -0.010674881748855114 0.9655208587646484
0.14876201748847961 -0.013898679055273533 0.8657413721084595
0.11855098605155945 -0.007347386330366135 1.7702019214630127
0.16758893430233002 0.04084280505776405 0.873986542224884
0.18590256571769714 0.004319584928452969 0.9341203570365906
0.13671886920928955 -0.024402525275945663 1.3411976099014282
0.15335869789123535 -0.04663136601448059 1.3206371068954468
0.11281020939350128 -0.0798557847738266 1.366232991218567
0.15044453740119934 -0.0218660905957222 1.2844096422195435
0.1359216272830963 -0.025294296443462372 1.2648392915725708
0.17304034531116486 -0.10932600498199463 1.2254681587219238
0.17796656489372253 -0.05915150046348572 1.2756482362747192
0.19006559252738953 -0.012200742959976196 1.2147331237792969
0.2068675309419632 -0.0014367476105690002 1.1362615823745728
0.23525306582450867 -0.010306581854820251 1.1531789302825928
0.22568045556545258 -0.04076068848371506 1.1948282718658447
0.21525348722934723 -0.09431972354650497 1.208978533744812
0.2454616129398346 -0.008346736431121826 1.098052740097046
0.2811018228530884 -0.08931563049554825 1.1322596073150635
0.28619495034217834 -0.05504763498902321 1.1184980869293213
0.2733612060546875 -0.028459500521421432 1.0956213474273682
0.26083630323410034 -0.13481926918029785 1.1071703433990479
0.2703293561935425 -0.08919946849346161 1.079289197921753
0.26710543036460876 -0.06371733546257019 1.0738627910614014
0.3262718617916107 -0.10760324448347092 0.9499962329864502
0.2584631145000458 -0.1131775826215744 1.075318694114685
0.2577431797981262 -0.12178313732147217 1.0470119714736938
0.2918239235877991 -0.08025682717561722 0.9968927502632141
0.2604474425315857 -0.10689805448055267 1.0240356922149658
0.2656058967113495 -0.13415803015232086 1.0214492082595825
0.28753915429115295 -0.11528672277927399 0.9878305196762085
0.31185394525527954 -0.11741867661476135 0.9781914949417114
0.2728326916694641 -0.15890567004680634 0.9840462803840637
0.29641178250312805 -0.13321499526500702 0.9749060273170471
0.2852596342563629 -0.14475184679031372 0.9848934412002563
0.32157883048057556 -0.11271913349628448 0.9306188225746155
0.2950083613395691 -0.15703581273555756 0.9700218439102173
0.3010910153388977 -0.10767146944999695 0.9484508633613586
0.31194648146629333 -0.14006353914737701 0.939386785030365
0.32974836230278015 -0.13022029399871826 0.9440270662307739
-0.30578726530075073 -0.03237547352910042 1.05820894241333
-0.29241934418678284 -0.10062232613563538 1.0443873405456543
-0.2809845805168152 -0.08076151460409164 1.0429093837738037
-0.3058418035507202 -0.12745408713817596 1.0776652097702026
-0.2378363162279129 -0.03028305433690548 1.062468409538269
-0.2721054255962372 -0.12239944934844971 1.0708595514297485
-0.1824599802494049 -0.02321656420826912 1.2355180978775024
-0.18085414171218872 -0.08367057144641876 1.2070680856704712
-0.17853513360023499 -0.1009836494922638 0.9647388458251953
-0.18439310789108276 -0.018841614946722984 0.9341099262237549
-0.1338806450366974 0.04946540296077728 0.927092432975769
-0.14173635840415955 0.15342605113983154 1.259516716003418
-0.13705521821975708 0.1536737084388733 1.1972280740737915
-0.14352762699127197 0.18084946274757385 1.1596404314041138
-0.16033601760864258 -0.013563546352088451 0.9649691581726074
-0.20392769575119019 0.009378470480442047 1.7529205083847046
-0.14220499992370605 -0.016423199325799942 1.3674969673156738
-0.16039642691612244 -0.010675247758626938 1.2955577373504639
-0.06981666386127472 0.188603013753891 1.0552961826324463
-0.10535910725593567 0.19585178792476654 0.970291256904602
-0.22391660511493683 -0.1422702521085739 0.10499174147844315
-0.2289254516363144 -0.20679597556591034 0.07024123519659042
-0.17403730750083923 0.00915602594614029 1.7321374416351318
-0.15918099880218506 0.013925481587648392 1.6773347854614258
-0.13406547904014587 -0.1470186561346054 1.2546807527542114
-0.13159635663032532 -0.16485656797885895 1.2246882915496826
-0.13556939363479614 -0.18464022874832153 1.2202630043029785
-0.1279526948928833 0.1084587350487709 1.3898499011993408
-0.11962732672691345 0.10014176368713379 1.381550908088684
-0.11381971836090088 -0.14532142877578735 1.27220618724823
-0.13904425501823425 -0.06611717492341995 1.217904806137085
-0.20009450614452362 -0.1628914177417755 0.1763359159231186
-0.20165897905826569 -0.12003028392791748 0.18338772654533386
-0.08441660553216934 0.13561320304870605 1.2531071901321411
-0.14593087136745453 -0.03983291983604431 1.4711507558822632
-0.1459612399339676 -0.033392321318387985 1.4484012126922607
-0.13324858248233795 -0.03800002858042717 1.428769588470459
-0.14548073709011078 -0.03171122819185257 1.424679160118103
-0.14459127187728882 -0.05288124829530716 1.4152717590332031
-0.13841858506202698 -0.11677566170692444 0.7895491123199463
-0.1499004065990448 -0.08116857707500458 0.7797356843948364
-0.07277725636959076 0.25031721591949463 1.0604071617126465
-0.07301294058561325 0.24681279063224792 1.114794135093689
-0.10658225417137146 -0.13754802942276 1.2720245122909546
-0.12879645824432373 -0.10805756598711014 0.8623000383377075
-0.19850823283195496 -0.07415841519832611 0.10366742312908173
-0.20369179546833038 -0.07679211348295212 0.06028580293059349
-0.13989725708961487 -0.19084738194942474 0.8549982905387878
-0.09173716604709625 0.19874466955661774 1.2315750122070312
-0.14263860881328583 -0.11471825838088989 1.646813154220581
-0.12132763862609863 0.005157850682735443 1.5547301769256592
-0.10207583010196686 0.09968432784080505 1.5197036266326904
-0.09813310205936432 0.05781728774309158 1.5785186290740967
-0.11642870306968689 0.055196307599544525 1.5516722202301025
-0.10748724639415741 0.07873266935348511 1.4650753736495972
-0.055054474622011185 0.12870627641677856 1.5593287944793701
-0.10745862126350403 -0.03725952282547951 1.5043977499008179
-0.0932159572839737 0.04379912093281746 0.9771490693092346
-0.12983714044094086 0.01310659945011139 1.8353774547576904
-0.1456189751625061 0.00451119989156723 1.8314182758331299
-0.14035969972610474 -0.006799113005399704 1.8173294067382812
-0.02062138356268406 0.07228115200996399 1.4512605667114258
-0.09296034276485443 0.12282631546258926 1.4325854778289795
-0.13862955570220947 -0.14760160446166992 0.031313732266426086
-0.05078154057264328 0.16833029687404633 1.3689525127410889
-0.10185543447732925 -0.11480911076068878 1.557288646697998
-0.12771132588386536 -0.12500736117362976 0.39474916458129883
-0.05719185248017311 0.061615001410245895 1.5184422731399536
-0.07476724684238434 0.013239793479442596 1.5026077032089233
-0.04003513604402542 0.13395828008651733 1.4760627746582031
-0.0370318666100502 0.05347071588039398 0.8590238094329834
-0.13210849463939667 -0.06447503715753555 0.3407037854194641
-0.02593066357076168 0.22371327877044678 0.9620276689529419
-0.03453192487359047 0.03975994139909744 1.039962887763977
-0.08629443496465683 -0.16806769371032715 1.2674649953842163
-0.0850166603922844 -0.1605818271636963 1.1657533645629883
-0.12000813335180283 -0.09273558109998703 0.3222452700138092
-0.10082261264324188 -0.11269764602184296 0.2627185583114624
-0.13070490956306458 -0.0626726895570755 0.25449010729789734
-0.05913612246513367 0.041723523288965225 1.539130449295044
-0.06291379034519196 -0.1287779062986374 0.6934155225753784
-0.08555497229099274 -0.06089137867093086 0.6549695730209351
-0.013199535198509693 0.2612427771091461 1.1027629375457764
-0.0106649836525321 0.2542625665664673 1.0098650455474854
-0.03336549550294876 -0.19150273501873016 1.1916139125823975
-0.12237685918807983 -0.1208539679646492 0.12406475096940994
-0.015960872173309326 0.20131945610046387 1.0093226432800293
-0.019275164231657982 0.17940889298915863 1.0487388372421265
0.01138150691986084 0.0487532913684845 1.527619481086731
-0.06590136140584946 -0.1072705090045929 1.405617356300354
0.006526073440909386 0.1856757402420044 1.3425503969192505
0.02685452066361904 0.06661391258239746 1.4397151470184326
0.004250004887580872 0.03381212428212166 1.5294791460037231
0.044492196291685104 0.20361630618572235 1.0147664546966553
0.05874820053577423 0.19059351086616516 0.9703096747398376
-0.0022631939500570297 -0.12449976056814194 1.4001684188842773
0.014770040288567543 0.04055236279964447 1.0371108055114746
-0.009390241466462612 -0.20105180144309998 1.1216264963150024
0.08193834871053696 0.16074258089065552 1.363082766532898
0.02475464716553688 -0.01895759627223015 1.3130091428756714
0.06542650610208511 0.12360677123069763 1.4813076257705688
0.03376330807805061 0.06698539108037949 1.484755277633667
0.03984655439853668 -0.025815242901444435 1.2225100994110107
0.04169953987002373 0.09812989830970764 0.9229264259338379
0.01664600893855095 -0.026297230273485184 1.7706048488616943
0.09936705231666565 -0.016872145235538483 0.1077425479888916
0.09746315330266953 -0.020511962473392487 0.08487003296613693
0.09260360896587372 0.03425908088684082 0.11679992079734802
-0.014762695878744125 -0.15536007285118103 1.6500141620635986
0.056274790316820145 -0.05768238753080368 0.7165803909301758
0.09625731408596039 0.06561863422393799 1.4497510194778442
0.052068307995796204 -0.06567730009555817 1.5073623657226562
0.0913541316986084 -0.0563620999455452 1.4443093538284302
0.04466572403907776 -0.01760498434305191 1.4225512742996216
0.09417729079723358 0.001547839492559433 0.40811634063720703
0.11216098070144653 -0.0542072057723999 0.24821263551712036
0.11542586982250214 0.039164476096630096 0.22743618488311768
0.11714951694011688 0.1976853907108307 1.0230531692504883
0.10510943830013275 0.22893249988555908 0.9865007400512695
0.09587205946445465 -0.14220386743545532 0.7406914234161377
0.09675412625074387 -0.04546152055263519 0.658040463924408
0.020441684871912003 -0.07795791327953339 1.7603521347045898
0.05883391946554184 -0.0836036205291748 1.7131602764129639
0.10806197673082352 -0.11284671723842621 0.5484755039215088
0.03210537135601044 -0.019307129085063934 1.7837283611297607
0.057919926941394806 -0.03567059338092804 1.7343330383300781
0.07809334993362427 -0.08989893645048141 1.1512796878814697
0.08297187089920044 -0.0770479291677475 1.122077465057373
0.0756836086511612 -0.15236303210258484 1.1053690910339355
0.050188515335321426 -0.12821120023727417 1.6486436128616333
0.06585245579481125 -0.05820847302675247 1.534471869468689
0.05304907262325287 -0.09734252840280533 1.5386465787887573
0.15496614575386047 0.18052630126476288 0.977872908115387
0.09098193794488907 -0.10555852949619293 1.3046399354934692
0.10263501852750778 -0.17266961932182312 1.2582428455352783
0.09505268931388855 -0.10449589788913727 1.2558493614196777
0.1631980687379837 0.050082363188266754 0.17457710206508636
0.1577170044183731 -0.02907685935497284 0.18210400640964508
0.1750754863023758 -0.02205682545900345 0.16648799180984497
0.07907059788703918 -0.006196673959493637 1.7540514469146729
0.10074153542518616 -0.11889122426509857 1.302151083946228
0.16704493761062622 -0.01082504540681839 0.4434260129928589
0.14754748344421387 -0.06978456676006317 0.48867902159690857
0.17547476291656494 -0.015468351542949677 0.38879966735839844
0.10600806027650833 -0.07292994111776352 1.4374651908874512
0.0939888134598732 -0.06404932588338852 1.4343774318695068
0.11361120641231537 -0.04687435179948807 1.3936227560043335
0.12148692458868027 0.06841821223497391 0.9247191548347473
0.12582466006278992 -0.11529961228370667 0.8559636473655701
0.19100533425807953 0.0184306800365448 0.26785820722579956
0.19893789291381836 -0.01347903162240982 0.27128341794013977
0.12280233204364777 -0.030414022505283356 1.390479326248169
0.1604788452386856 0.11614270508289337 1.2755664587020874
0.16546081006526947 0.14464668929576874 1.2465726137161255
0.11220862716436386 -0.23872745037078857 1.1506351232528687
0.15872767567634583 -0.0610351525247097 0.9938164949417114
0.1623128205537796 -0.1195487305521965 0.9869195222854614
0.14840435981750488 -0.005909346044063568 1.207442045211792
0.20013724267482758 -0.08985314518213272 1.084054946899414
0.20724834501743317 -0.04780476167798042 1.074308156967163
0.21442089974880219 -0.13596771657466888 1.138058066368103
-0.2837768495082855 -0.04685889184474945 1.0354540348052979
-0.29598575830459595 -0.10832707583904266 1.0080735683441162
-0.22307230532169342 -0.11186259984970093 1.1254851818084717
-0.24245944619178772 -0.11941453814506531 1.171219825744629
-0.1938183605670929 -0.07278002053499222 1.1410243511199951
-0.19097477197647095 -0.029072478413581848 1.1682977676391602
-0.19448168575763702 -0.15650883316993713 0.8733367323875427
-0.13782550394535065 0.19306610524654388 1.0105434656143188
-0.13878962397575378 0.1759566217660904 1.1179680824279785
-0.1338643580675125 -0.24415352940559387 1.119511604309082
-0.1397753357887268 -0.16360893845558167 0.9639755487442017
-0.21856698393821716 -0.11111877858638763 0.27008166909217834
-0.19497165083885193 -0.160615473985672 0.2885313630104065
-0.15657663345336914 -0.04633324593305588 0.4918012320995331
-0.15173813700675964 -0.19747032225131989 0.8599315881729126
-0.14434340596199036 -0.0910932645201683 0.6338406801223755
-0.13779984414577484 -0.12220094352960587 0.6929886341094971
-0.12764081358909607 -0.05949879437685013 0.6920250654220581
-0.10215716809034348 -0.015860529616475105 1.1091053485870361
-0.10544389486312866 -0.07919847965240479 1.1363129615783691
-0.05641471594572067 0.23189620673656464 1.19398832321167
-0.11421491205692291 -0.017935018986463547 0.851870596408844
-0.15130619704723358 -0.1740003079175949 0.30390965938568115
-0.11059156060218811 -0.02443355694413185 1.2185213565826416
-0.090519979596138 -0.04003233090043068 1.14291512966156
-0.14347991347312927 -0.1426880955696106 0.4428060054779053
-0.1329156458377838 -0.009099878370761871 1.7501561641693115
-0.13709791004657745 -0.04582603648304939 1.7442364692687988
-0.09342950582504272 -0.08422812074422836 1.7543857097625732
-0.10786925256252289 -0.12591034173965454 1.7114543914794922
-0.12198333442211151 -0.11487932503223419 1.6098897457122803
-0.12660515308380127 -0.12604989111423492 0.3389256000518799
-0.06485968828201294 -0.1326368749141693 0.7467401623725891
-0.10321012139320374 -0.13977976143360138 0.27153638005256653
-0.12010835111141205 -0.1668386310338974 0.27522462606430054
-0.13607564568519592 -0.0874752551317215 0.20719675719738007
-0.053666990250349045 0.06542143225669861 0.9701490998268127
-0.08546905964612961 0.003942210227251053 1.7992833852767944
-0.0983303040266037 -0.011528026312589645 1.7857062816619873
0.037204936146736145 0.15942110121250153 1.171741008758545
-0.06043354421854019 0.1620711088180542 1.1804096698760986
0.017099862918257713 0.13777998089790344 1.2355599403381348
0.009459881111979485 -0.0357075035572052 1.2629355192184448
0.02227703668177128 0.22771939635276794 1.2268832921981812
0.02558959648013115 0.18336963653564453 1.0538644790649414
0.0884309634566307 0.24596832692623138 1.138782262802124
0.02174847573041916 0.10968297719955444 1.6731607913970947
0.06241191551089287 0.17678189277648926 1.0596790313720703
0.04678764194250107 -0.21845345199108124 0.9104894399642944
0.07791026681661606 -0.02490958198904991 0.2713736891746521
0.10118415206670761 -0.02168857678771019 0.21673087775707245
0.05498417466878891 -0.12204930931329727 0.6969676613807678
0.03790191560983658 0.016683172434568405 1.0722544193267822
0.07587158679962158 -0.03581434488296509 0.5714541673660278
0.08977586030960083 0.11663655191659927 1.3108336925506592
0.07371677458286285 -0.08852402865886688 1.4221090078353882
0.05443233996629715 0.0968833938241005 1.6364868879318237
0.05158521234989166 0.023824326694011688 1.60935640335083
0.05657351389527321 0.041993170976638794 1.5791339874267578
0.030656198039650917 -0.011621151119470596 1.832578182220459
0.07803420722484589 -0.10341889411211014 1.351767897605896
0.13825884461402893 0.0007231626659631729 0.5093396306037903
0.10413900017738342 0.012207746505737305 0.5077593326568604
0.13086943328380585 0.029248539358377457 0.3643636107444763
0.15217208862304688 0.03118167445063591 0.3376622796058655
0.0876760184764862 -0.04921921342611313 1.5279664993286133
0.07261249423027039 -0.05947472155094147 1.537465214729309
0.09134514629840851 -0.060198910534381866 1.5186026096343994
0.12608620524406433 -0.050652265548706055 0.7627089023590088
0.1354912966489792 -0.08662568032741547 0.6309566497802734
0.12331563979387283 0.029085639864206314 0.9653067588806152
0.11382035911083221 -0.06944525986909866 1.093260407447815
0.10908874869346619 -0.12427426129579544 1.0863611698150635
0.11631438881158829 -0.14933402836322784 1.0316696166992188
0.09244894981384277 -0.00940166786313057 1.6497890949249268
0.10239222645759583 -0.01648002117872238 1.5627042055130005
0.0951027050614357 -0.15941864252090454 1.2433416843414307
0.11727163195610046 0.0616154819726944 1.5487419366836548
0.10894795507192612 0.03359163552522659 1.5901519060134888
0.18395443260669708 0.05412580817937851 0.10173843801021576
0.1954551637172699 0.014007553458213806 0.09689564257860184
0.1269064098596573 0.044069502502679825 1.5142085552215576
0.1335192322731018 0.060052540153265 1.479218602180481
0.13866081833839417 0.052556801587343216 1.438734531402588
0.14113490283489227 0.07131679356098175 1.4233354330062866
0.10292535275220871 -0.24269551038742065 1.1698366403579712
0.1747899055480957 -0.15344785153865814 0.8690832853317261
0.1248278021812439 -0.21624574065208435 1.184156894683838
0.1220778152346611 -0.24038323760032654 1.1665126085281372
0.2052283138036728 -0.10990262031555176 0.8866526484489441
0.2060544490814209 -0.0881512314081192 0.8680532574653625
0.21423646807670593 -0.05302252992987633 0.8766779899597168
-0.20628002285957336 -0.11189249157905579 1.1862895488739014
-0.16229651868343353 -0.11802900582551956 1.2687160968780518
-0.16706834733486176 -0.11279241740703583 1.2492026090621948
-0.15855395793914795 -0.10850930213928223 1.2584000825881958
-0.1574667990207672 -0.10379190742969513 1.275407075881958
-0.20275241136550903 0.0007810778915882111 0.8683156371116638
-0.1335076242685318 -0.06683073192834854 1.3017714023590088
-0.14309751987457275 -0.06565217673778534 1.0836405754089355
-0.13823488354682922 0.08541146665811539 1.5589425563812256
-0.13585834205150604 -0.09261249005794525 1.2057833671569824
-0.13501247763633728 -0.0838288739323616 1.1555947065353394
-0.11293119937181473 0.09299971908330917 1.4519902467727661
-0.10586065798997879 0.09507738798856735 1.4090688228607178
-0.12788523733615875 -0.14247190952301025 1.052779197692871
-0.0940609946846962 -0.16928169131278992 1.0105851888656616
-0.1276780366897583 -0.03766776993870735 0.775977611541748
-0.05697709321975708 0.20252157747745514 1.2699379920959473
-0.08203323185443878 0.11927922070026398 1.6502145528793335
-0.12928958237171173 -0.08552412688732147 0.06252430379390717
-0.14100322127342224 -0.0765649676322937 0.05151110887527466
-0.0875118300318718 0.026315147057175636 0.8671122789382935
-0.0059284307062625885 0.09791958332061768 0.8551400899887085
-0.06484492868185043 -0.018035806715488434 0.8450442552566528
0.015145852230489254 0.10271009057760239 1.336574673652649
-0.036614760756492615 -0.08741046488285065 0.7697316408157349
-0.05086595565080643 -0.14033707976341248 1.6288390159606934
-0.012433644384145737 0.017537027597427368 0.875298261642456
-0.007048998959362507 -0.02317587286233902 0.8538529276847839
0.012841983698308468 -0.11670926958322525 0.8575098514556885
-0.07991960644721985 -0.16795946657657623 0.8603898882865906
-0.0038190167397260666 -0.2269277721643448 0.8533650040626526
0.027943389490246773 -0.10816027224063873 0.8337138891220093
-0.0053694043308496475 -0.16268056631088257 0.8654186725616455
0.001231679692864418 0.016008596867322922 1.502068042755127
0.02457880601286888 -0.034790851175785065 0.8483943343162537
0.025072896853089333 -0.0490356907248497 0.8305222392082214
0.010773643851280212 0.028818979859352112 1.580588459968567
0.016265567392110825 0.029942438006401062 1.5529958009719849
0.03714625537395477 -0.1222277283668518 0.8493776321411133
0.12750110030174255 0.06109955161809921 0.8556238412857056
0.08112842589616776 0.004268396645784378 0.27457886934280396
0.049448411911726 -0.03564775362610817 0.8165345191955566
0.08055417239665985 0.15595419704914093 1.2078492641448975
0.11465263366699219 -0.04806918650865555 0.3913966119289398
0.10621462762355804 -0.01437695324420929 0.3321762681007385
0.12378739565610886 -0.03934542462229729 0.34304559230804443
0.12035635858774185 -0.06980836391448975 0.2877509593963623
0.09836187958717346 0.07283984124660492 1.5172178745269775
0.07604141533374786 -0.015505282208323479 0.8513297438621521
0.10504314303398132 -0.03630851209163666 0.8311046361923218
0.0915624350309372 -0.07534123212099075 1.2559654712677002
0.1413756161928177 -0.06581462919712067 0.43598443269729614
0.0892336368560791 0.04461489990353584 1.6250922679901123
0.07815524935722351 -0.03491034358739853 1.3127272129058838
0.1518196165561676 -0.03999435529112816 0.3466874361038208
0.10572125762701035 0.217172309756279 1.1998682022094727
0.09461309015750885 -0.0500347837805748 1.2314213514328003
0.1544736921787262 0.037525247782468796 0.2308429479598999
0.14746226370334625 0.22368688881397247 1.1170156002044678
0.14478559792041779 0.04595718905329704 0.27066004276275635
0.16178391873836517 -0.06953273713588715 0.2584015429019928
0.13816195726394653 0.10227914899587631 1.3250056505203247
0.1043662577867508 -0.055295299738645554 1.4804011583328247
0.11454249918460846 -0.04924086481332779 1.4420254230499268
0.10343629121780396 -0.056952547281980515 1.475165605545044
0.13109077513217926 -0.03564304858446121 1.4214497804641724
0.11481590569019318 -0.18595579266548157 1.228614330291748
0.10174216330051422 -0.1957181692123413 1.2218252420425415
0.16095511615276337 0.13402456045150757 1.229853630065918
0.1763019561767578 0.17226742208003998 1.1626131534576416
0.17372754216194153 0.16433532536029816 1.1287840604782104
0.12921974062919617 -0.04329594224691391 1.2603739500045776
0.12296551465988159 -0.08194387704133987 1.2684142589569092
0.16006499528884888 -0.17739611864089966 0.8794841170310974
0.12954485416412354 -0.0974513590335846 1.2731690406799316
0.14473968744277954 -0.1079300120472908 1.1644691228866577
0.1506795585155487 -0.02827213704586029 1.1605640649795532
0.14653001725673676 -0.08152201771736145 1.1398193836212158
0.22120918333530426 -0.1221250370144844 1.1741881370544434
0.23567038774490356 -0.06898417323827744 1.0543359518051147
0.2280321568250656 -0.13101354241371155 1.0919138193130493
-0.14057734608650208 -0.23485973477363586 1.1602814197540283
-0.14584045112133026 -0.16480614244937897 1.213714361190796
-0.15168966352939606 -0.1532883197069168 1.2317018508911133
-0.13029365241527557 -0.21776816248893738 1.161606788635254
-0.1313716471195221 0.09455831348896027 1.4808964729309082
-0.13819369673728943 0.08672089874744415 1.463425636291504
-0.14093001186847687 0.1045181080698967 1.4200103282928467
-0.15583840012550354 -0.011773239821195602 1.7129063606262207
-0.1581408679485321 -0.051281578838825226 1.627638339996338
-0.18385347723960876 -0.12682265043258667 0.33375951647758484
-0.1319035291671753 -0.0676691010594368 0.8533189296722412
-0.13227006793022156 -0.09294374287128448 0.8348596096038818
-0.12183341383934021 0.21240296959877014 0.9865357875823975
-0.09807896614074707 -0.13418160378932953 1.2619718313217163
-0.11752635985612869 -0.03075890615582466 0.8238193988800049
-0.10816218703985214 -0.02438090741634369 1.766641616821289
-0.09405943006277084 -0.12390852719545364 1.1406447887420654
-0.05950980260968208 -0.18668729066848755 1.1372984647750854
-0.060176730155944824 0.184390589594841 1.101023554801941
0.01793135143816471 0.17999476194381714 1.0971295833587646
-0.0676310658454895 -0.02161211520433426 1.1602771282196045
-0.05324156582355499 -0.11295361816883087 0.8504863381385803
-0.05101097375154495 -0.18878844380378723 1.0711251497268677
-0.05223040282726288 0.018091008067131042 1.0614253282546997
-0.04579651355743408 -0.1295679360628128 1.72663152217865
0.024434296414256096 -0.10002167522907257 0.7689851522445679
-0.04174592345952988 0.11675699055194855 1.3087631464004517
0.09193526953458786 0.013127557933330536 0.06675907969474792
0.13246716558933258 0.24272140860557556 1.0466830730438232
0.0932445079088211 0.17816755175590515 1.1193747520446777
0.06890188157558441 0.2604288160800934 1.058042287826538
0.09668194502592087 0.09043054282665253 0.8630796074867249
0.1579739898443222 0.08509471267461777 0.09774033725261688
0.11859309673309326 -0.037634219974279404 0.8546823859214783
0.14637145400047302 -0.051119036972522736 0.3933424651622772
0.10880883783102036 -0.0815158486366272 1.3992235660552979
0.10878127068281174 -0.09360118210315704 1.3157062530517578
0.19837531447410583 0.001316090114414692 0.8703557848930359
0.2032073438167572 -0.0483684279024601 0.9337360858917236
0.23561421036720276 -0.10589654743671417 1.0625572204589844
-0.2505555748939514 -0.12778903543949127 1.1349698305130005
-0.20253615081310272 -0.08769196271896362 0.9321918487548828
-0.2190159261226654 -0.07472369074821472 0.8755474090576172
-0.14356039464473724 0.08520485460758209 1.4164018630981445
-0.13891883194446564 0.1289117932319641 1.2639036178588867
-0.1410270631313324 -0.0005936548113822937 1.5435080528259277
-0.13694149255752563 -0.059706561267375946 1.0504413843154907
-0.1409831941127777 -0.08688127994537354 1.0922709703445435
-0.14065927267074585 0.004309181123971939 1.544548749923706
-0.14059045910835266 -0.009301286190748215 1.5294556617736816
-0.1390235424041748 -0.0047400593757629395 1.5373095273971558
-0.14019934833049774 -0.003447268158197403 1.5426472425460815
-0.14486783742904663 -0.017035163938999176 1.5308938026428223
-0.17081686854362488 -0.1829720437526703 0.18071234226226807
-0.15263217687606812 -0.08891832828521729 1.682394027709961
-0.03732042387127876 -0.01787887141108513 1.215887188911438
-0.1274113953113556 -0.20155297219753265 0.0666973814368248
-0.05064607784152031 -0.02840159274637699 1.2574191093444824
-0.008859892375767231 -0.02394230104982853 1.1710683107376099
-0.04187279939651489 0.09441818296909332 0.9321596622467041
-0.0418267548084259 -0.03145989403128624 1.784125804901123
-0.04934991896152496 -0.09189280867576599 0.7069931030273438
-0.014915019273757935 0.12382466346025467 1.268721103668213
0.007496938109397888 -0.19219079613685608 1.019844889640808
-0.032055579125881195 -0.19181102514266968 1.2347211837768555
0.027703892439603806 0.16230127215385437 1.142014980316162
0.10129353404045105 0.013837747275829315 0.21065934002399445
0.06878234446048737 -0.17743626236915588 0.9986127614974976
0.1171269416809082 -0.17070825397968292 0.9775781631469727
0.07178840041160583 0.045315250754356384 1.5482373237609863
0.06706160306930542 -0.1646300107240677 1.1829495429992676
0.036253441125154495 -0.031636450439691544 1.1677887439727783
0.0917956605553627 -0.022609686478972435 1.0862481594085693
0.07975196093320847 0.06151876971125603 0.9596781134605408
0.15064853429794312 -0.009679704904556274 0.04987652599811554
0.12518765032291412 -0.0012614578008651733 0.047088321298360825
0.1829998940229416 0.00770135223865509 0.055002953857183456
0.1835949569940567 -0.04593371972441673 0.2454228699207306
0.100707046687603 -0.05535285919904709 1.475541353225708
0.10021842271089554 -0.053068388253450394 1.4730795621871948
0.09309764951467514 -0.06440092623233795 1.331109881401062
0.10843649506568909 -0.08559086173772812 1.306917667388916
0.1892652064561844 0.1916782706975937 1.0561833381652832
0.18527735769748688 0.17486950755119324 1.0061790943145752
0.1955832690000534 0.18159419298171997 1.0033843517303467
0.2505945563316345 -0.05955648794770241 1.0531336069107056
0.24718023836612701 -0.12157513946294785 1.036839246749878
0.2599082291126251 -0.14411816000938416 1.0276618003845215
-0.23480752110481262 -0.07115691900253296 1.0623341798782349
-0.1528954654932022 -0.19580289721488953 1.1982346773147583
-0.15656490623950958 -0.13092166185379028 0.36142614483833313
-0.08197984844446182 0.20030245184898376 0.9599981904029846
-0.10282649099826813 -0.1435161828994751 1.0899763107299805
-0.03504594787955284 -0.04044143110513687 0.8453665971755981
-0.05636516585946083 -0.031273819506168365 0.8101473450660706
-0.04847273603081703 -0.08376078307628632 0.8150681853294373
-0.004838705528527498 0.015554087236523628 1.1067299842834473
0.02692459523677826 -0.2088295817375183 0.8421269655227661
0.0941920131444931 0.01696278154850006 0.8679447174072266
0.11259204894304276 0.1794237196445465 1.080633282661438
0.09634268283843994 0.00834374874830246 1.5655299425125122
0.10710141062736511 0.03275275230407715 1.5405473709106445
0.19080358743667603 -0.11668414622545242 0.9342994689941406
-0.1554960161447525 -0.20623651146888733 1.1652450561523438
-0.14383184909820557 0.05335358530282974 1.575574517250061
-0.055370256304740906 0.20858582854270935 1.008242130279541
-0.124669648706913 0.0832516998052597 1.6067256927490234
-0.0971158891916275 0.04290054365992546 1.5968834161758423
-0.06184688210487366 0.03467065095901489 1.5746289491653442
0.035618796944618225 -0.19322600960731506 1.0748317241668701
0.05691789835691452 -0.1488952338695526 1.2705107927322388
0.12856079638004303 -0.03640138730406761 0.1751295030117035
0.0952703058719635 -0.12761016190052032 1.2284209728240967
0.10291680693626404 -0.1145496666431427 1.1756166219711304
0.12279874086380005 0.07496923208236694 1.4404783248901367
0.10745552182197571 0.10295439511537552 1.4453649520874023
0.10613928735256195 -0.06676708906888962 1.1846215724945068
0.121956966817379 -0.07492436468601227 0.839794397354126
0.08339338004589081 -0.17611420154571533 1.2447552680969238
0.14087803661823273 0.11694499850273132 1.3493977785110474
-0.12157940864562988 0.11937909573316574 1.35321843624115
-0.14937715232372284 -0.05435802415013313 0.3660951554775238
0.04093592241406441 -0.09722048789262772 0.7272698879241943
0.014075957238674164 -0.13038519024848938 1.7053759098052979
-0.13705609738826752 0.2011326253414154 1.06117582321167
-0.15079647302627563 -0.1072736531496048 1.279301404953003
-0.11072000116109848 -0.0920133888721466 0.4063106179237366
0.014697704464197159 0.13745112717151642 1.4790000915527344
0.10513999313116074 -0.011374309659004211 0.05136089026927948
0.08976468443870544 -0.05659004673361778 1.5243682861328125
0.09170699119567871 -0.05908321589231491 1.5197856426239014
0.09790880233049393 -0.05405303090810776 1.429149866104126
0.17550693452358246 -0.02724122628569603 0.21943482756614685
0.17746932804584503 0.0076917558908462524 0.21319058537483215
0.15010125935077667 -0.11524917185306549 1.2126597166061401
-0.17866693437099457 -0.16082775592803955 0.935314416885376
-0.13309113681316376 0.1024371087551117 1.385802984237671
-0.13060253858566284 0.10061607509851456 1.3862229585647583
-0.13666857779026031 0.09780089557170868 1.3864538669586182
-0.11572597175836563 -0.1241481602191925 0.20631170272827148
-0.03469657152891159 -0.0954059436917305 0.8476555347442627
0.10391896963119507 -0.009978927671909332 0.16793487966060638
0.1819319725036621 -0.1345413327217102 1.166014313697815
0.07418359071016312 -0.07956605404615402 1.6619617938995361
0.14001402258872986 -0.0980745181441307 0.7888568639755249
0.13781613111495972 0.07115309685468674 1.402137279510498
0.14367642998695374 0.0946185439825058 1.3632960319519043
0.09860274195671082 0.05973228067159653 0.0783226415514946
0.14383424818515778 -0.49039074778556824 1.0245295763015747
0.14433935284614563 -0.4522886872291565 1.0085058212280273
0.14252972602844238 -0.4673769474029541 1.010285496711731
0.13639798760414124 -0.4683268666267395 1.0151411294937134
0.13706769049167633 -0.48993971943855286 1.0172911882400513
0.1473466455936432 -0.47775617241859436 1.0320746898651123
0.18986371159553528 -0.3337145745754242 1.0221247673034668
0.17242738604545593 -0.3364288806915283 1.011581301689148
0.17946353554725647 -0.3561079204082489 1.0195072889328003
0.17533621191978455 -0.3650064766407013 1.0202045440673828
0.21655291318893433 -0.17031218111515045 0.9656473398208618
0.2110421061515808 -0.1899741291999817 0.9807355403900146
0.20521119236946106 -0.181505486369133 0.9544003009796143
0.16933803260326385 -0.3493541479110718 0.9787282347679138
0.16804690659046173 -0.3628891110420227 0.9886167049407959
0.17520084977149963 -0.3940064013004303 1.0419611930847168
0.17671602964401245 -0.3780035972595215 1.0267351865768433
0.19224786758422852 -0.21950802206993103 0.9336842894554138
0.19842369854450226 -0.22604599595069885 0.9602729082107544
0.21259810030460358 -0.26974421739578247 1.0187435150146484
0.20450595021247864 -0.25892725586891174 1.0146065950393677
0.1619286686182022 -0.46284401416778564 1.0410186052322388
0.15084698796272278 -0.4454232156276703 0.996448278427124
0.21464885771274567 -0.18354739248752594 0.947697103023529
0.20782385766506195 -0.18748050928115845 0.9463052153587341
0.2955058217048645 0.00010579824447631836 1.0420196056365967
0.2851167917251587 -0.012939739972352982 1.0387206077575684
0.28670594096183777 0.0009798184037208557 1.0220544338226318
0.17119409143924713 -0.41626429557800293 1.0312175750732422
0.16446402668952942 -0.4406522214412689 1.0371321439743042
0.2109791785478592 -0.18682926893234253 0.9400653839111328
0.211515873670578 -0.1813695877790451 0.9293332099914551
0.13039538264274597 -0.5038866400718689 0.9778937101364136
0.12467966973781586 -0.5207908153533936 0.9826938509941101
0.29607802629470825 0.0074229612946510315 1.0363119840621948
0.29517418146133423 -0.004432506859302521 1.0467708110809326
0.29113203287124634 0.009164951741695404 1.0318511724472046
0.29298803210258484 -0.0003345906734466553 1.0202163457870483
0.1317054033279419 -0.5530111789703369 1.0295270681381226
0.1338813453912735 -0.5738162398338318 1.0375040769577026
0.12136544287204742 -0.5743897557258606 1.0206959247589111
0.18835392594337463 -0.2898012399673462 0.9578778147697449
0.18647077679634094 -0.3105562627315521 0.9540926218032837
0.17444577813148499 -0.3272252082824707 0.9549897909164429
0.17524392902851105 -0.32969996333122253 0.942859947681427
0.2984156310558319 -0.006103508174419403 1.0533769130706787
0.29498690366744995 0.012743748724460602 1.0300068855285645
0.18198730051517487 -0.41612136363983154 1.0459970235824585
0.18620342016220093 -0.417569100856781 1.0433456897735596
0.17544761300086975 -0.43027281761169434 1.044382095336914
0.17967161536216736 -0.4486258924007416 1.048555612564087
0.1990680694580078 -0.2492009848356247 0.9475950002670288
0.1930702179670334 -0.264787495136261 0.9434486031532288
0.1922183334827423 -0.2696966826915741 0.9456023573875427
0.2986808717250824 0.009022854268550873 1.0343669652938843
0.3026465177536011 -0.010611176490783691 1.0501091480255127
0.29260385036468506 -0.001614883542060852 1.0214314460754395
0.21369345486164093 -0.15275482833385468 0.9030600786209106
0.21094390749931335 -0.1615104079246521 0.8949815034866333
0.20995986461639404 -0.1762111932039261 0.9175956845283508
0.21318267285823822 -0.16607920825481415 0.9081045389175415
0.20863816142082214 -0.16004453599452972 0.9074928760528564
0.16886359453201294 -0.3494946360588074 0.9401490092277527
0.1739422231912613 -0.33101460337638855 0.9389002323150635
0.16927851736545563 -0.33735033869743347 0.9276677370071411
0.1698901653289795 -0.3472942113876343 0.9235251545906067
0.299622118473053 -0.00995628535747528 1.0273756980895996
0.13431990146636963 -0.5841214656829834 1.0446717739105225
0.1346742808818817 -0.5801264047622681 1.0246994495391846
0.1353364884853363 -0.5880652666091919 1.0393774509429932
0.13260914385318756 -0.5948016047477722 1.0403162240982056
0.13014139235019684 -0.573326826095581 1.0153722763061523
0.23801535367965698 -0.17712774872779846 0.955938994884491
0.2225014716386795 -0.18546441197395325 0.9413667917251587
0.14060290157794952 -0.4849703311920166 0.9666203260421753
0.1382388323545456 -0.5105684995651245 0.9727988839149475
0.13444927334785461 -0.5345026850700378 0.9856090545654297
0.22850728034973145 -0.257416307926178 1.0190784931182861
0.21811331808567047 -0.2747510075569153 1.0167590379714966
0.22363200783729553 -0.28715771436691284 1.0122973918914795
0.196044921875 -0.4098443388938904 1.048270583152771
0.1862223744392395 -0.41826483607292175 1.0403567552566528
0.17230573296546936 -0.46867936849594116 1.0452039241790771
0.19349858164787292 -0.3808976411819458 1.0364017486572266
0.1568499654531479 -0.4646221101284027 0.9870656132698059
0.14708398282527924 -0.49838507175445557 0.9843883514404297
0.2312258780002594 -0.25893300771713257 1.011778712272644
0.19806239008903503 -0.3915487229824066 1.018729567527771
0.19821065664291382 -0.376425564289093 1.0083296298980713
0.1920681595802307 -0.4090711176395416 1.0193865299224854
0.14594697952270508 -0.546149492263794 1.016437292098999
0.14950184524059296 -0.5369095802307129 1.0065957307815552
0.1761200875043869 -0.3778309226036072 0.9647675156593323
0.19070984423160553 -0.38269999623298645 0.9825439453125
0.179103285074234 -0.39547625184059143 0.9820998907089233
0.18470881879329681 -0.3968070149421692 0.9925776720046997
0.21185950934886932 -0.3287715017795563 1.0135778188705444
0.20367497205734253 -0.3606263995170593 1.0103228092193604
0.17439159750938416 -0.4679955244064331 1.0197864770889282
0.16903957724571228 -0.48503491282463074 1.0178130865097046
0.16146913170814514 -0.49472466111183167 1.0238213539123535
0.17235635221004486 -0.45561668276786804 0.9955326914787292
0.16975903511047363 -0.4634352922439575 0.9918298721313477
0.19448545575141907 -0.3397555947303772 0.9731708765029907
0.19372189044952393 -0.3547908663749695 0.9707121849060059
0.19382813572883606 -0.3300703167915344 0.959456205368042
0.1909615695476532 -0.3467588424682617 0.9637207388877869
0.19014695286750793 -0.36618876457214355 0.9737268686294556
0.20502744615077972 -0.3243730664253235 0.9814038872718811
0.21516503393650055 -0.3079946041107178 0.9886249899864197
0.20225508511066437 -0.2960566282272339 0.964469850063324
0.2070094794034958 -0.310128390789032 0.9791064262390137
0.17056722939014435 -0.4720368981361389 0.9995552897453308
0.16741803288459778 -0.4925764799118042 1.002732276916504
0.16254034638404846 -0.4832368791103363 0.9974275231361389
0.1748737245798111 -0.48542964458465576 0.9986978769302368
0.24278070032596588 -0.1946752369403839 0.9683433175086975
0.1416294276714325 -0.4378173053264618 1.0254530906677246
0.13273708522319794 -0.4480702877044678 1.0154696702957153
0.16251274943351746 -0.3766626715660095 1.015367865562439
0.16387517750263214 -0.37309008836746216 1.0105572938919067
0.15665370225906372 -0.38876238465309143 1.023271083831787
0.15977607667446136 -0.3775922358036041 1.0068167448043823
0.15331485867500305 -0.3922871947288513 1.013131022453308
0.1694253832101822 -0.34131476283073425 0.9974777698516846
0.16773191094398499 -0.3565504848957062 0.9941143989562988
0.17874427139759064 -0.32113492488861084 0.9964621067047119
0.16894379258155823 -0.3878193497657776 1.025384545326233
0.1433895379304886 -0.46624311804771423 0.9834597110748291
0.13720063865184784 -0.47909829020500183 1.0134793519973755
0.16369310021400452 -0.3736588656902313 0.9880748987197876
0.1358453333377838 -0.5077770948410034 1.0147150754928589
0.12638412415981293 -0.5261293053627014 1.0132580995559692
0.129387766122818 -0.5111336708068848 1.0087850093841553
0.13020329177379608 -0.5436971187591553 1.0227298736572266
0.22490590810775757 -0.1656138002872467 0.9843741059303284
0.23571449518203735 -0.21852076053619385 1.0482245683670044
0.22663484513759613 -0.22727318108081818 1.0374739170074463
0.23312407732009888 -0.23293858766555786 1.0419760942459106
0.19505783915519714 -0.25093957781791687 0.9607522487640381
0.28190627694129944 -0.0026825740933418274 1.010791540145874
0.2907703220844269 -0.027201678603887558 1.0510505437850952
0.2854820787906647 -0.03806820884346962 1.0447227954864502
0.2817354202270508 -0.03345093876123428 1.038809061050415
0.19795727729797363 -0.34176015853881836 1.0247728824615479
0.1637435108423233 -0.48024511337280273 1.056278944015503
0.12714897096157074 -0.5493826866149902 1.000901699066162
0.26279550790786743 -0.06774316728115082 1.0021889209747314
0.2552550733089447 -0.09673794358968735 0.9855091571807861
0.21021351218223572 -0.3190174102783203 1.0321540832519531
0.202626034617424 -0.3241956830024719 1.0245625972747803
0.18979232013225555 -0.36645978689193726 1.0248600244522095
0.12783779203891754 -0.5564934611320496 1.0054243803024292
0.13390475511550903 -0.5879536867141724 1.048343539237976
0.12885834276676178 -0.5913736820220947 1.0517078638076782
0.12946994602680206 -0.5888668894767761 1.0333093404769897
0.2390085607767105 -0.13943496346473694 0.9832481741905212
0.23938333988189697 -0.1663142889738083 0.9809909462928772
0.1968669444322586 -0.36896318197250366 1.0241808891296387
0.2184547483921051 -0.16994567215442657 0.9593924880027771
0.12846863269805908 -0.5274257659912109 0.9827245473861694
0.25694799423217773 -0.18375416100025177 1.064484715461731
0.2591671347618103 -0.18450288474559784 1.0651464462280273
0.2526001036167145 -0.19162535667419434 1.04867684841156
0.2569722533226013 -0.20231765508651733 1.0555299520492554
0.2552345097064972 -0.2146187722682953 1.0621662139892578
0.24056003987789154 -0.18264973163604736 1.0327999591827393
0.24916787445545197 -0.19226840138435364 1.0337085723876953
0.1356445699930191 -0.5949804782867432 1.0543726682662964
0.17459650337696075 -0.3910457491874695 0.9684730768203735
0.1722051054239273 -0.399186909198761 0.9767842888832092
0.16507282853126526 -0.4024912118911743 0.9755715727806091
0.1689295768737793 -0.3679087162017822 0.9605927467346191
0.2558164596557617 -0.20087432861328125 1.0572586059570312
0.2579919397830963 -0.2095266580581665 1.0569356679916382
0.2215685248374939 -0.19104540348052979 0.9318675398826599
0.2639301121234894 -0.19199346005916595 1.0558736324310303
0.25845691561698914 -0.20032066106796265 1.048298716545105
0.1998119056224823 -0.403323769569397 1.0424668788909912
0.21079085767269135 -0.1872517317533493 0.9037748575210571
0.206480011343956 -0.1859472393989563 0.9017629027366638
0.20408041775226593 -0.1964488923549652 0.8860999345779419
0.20144571363925934 -0.2079421728849411 0.8908350467681885
0.24375438690185547 -0.17133808135986328 0.9769061207771301
0.2531195878982544 -0.21924525499343872 1.0395207405090332
0.18634453415870667 -0.41978681087493896 1.0277326107025146
0.18409545719623566 -0.4374874532222748 1.0273101329803467
0.21894988417625427 -0.19983938336372375 0.9263757467269897
0.213347390294075 -0.2119569480419159 0.9241952300071716
0.21062524616718292 -0.20363838970661163 0.9127749800682068
0.18405112624168396 -0.43878477811813354 1.0171929597854614
0.19106493890285492 -0.42208462953567505 1.0127947330474854
0.17702612280845642 -0.4278714954853058 1.0022389888763428
0.1871522068977356 -0.40667247772216797 1.00307297706604
0.15114638209342957 -0.5112463235855103 0.989213228225708
0.15097352862358093 -0.5177768468856812 1.0002832412719727
0.22887861728668213 -0.20567840337753296 0.9449807405471802
0.24747252464294434 -0.210267573595047 0.9899324178695679
0.23206940293312073 -0.23382113873958588 0.9858031868934631
0.23880065977573395 -0.2260528802871704 0.9752935171127319
0.23391973972320557 -0.2502311170101166 0.9816964864730835
0.22450806200504303 -0.2594851851463318 0.9709083437919617
0.18654924631118774 -0.446745365858078 1.0018410682678223
0.18488647043704987 -0.4382268786430359 0.997525691986084
0.18262794613838196 -0.4723449945449829 1.0119725465774536
0.20760782063007355 -0.37439286708831787 0.9997212290763855
0.1962970644235611 -0.40102192759513855 1.0049642324447632
0.19799450039863586 -0.381028950214386 1.0001368522644043
0.2029360830783844 -0.39102867245674133 0.9939578771591187
0.20290552079677582 -0.3975573778152466 1.0018707513809204
0.20461243391036987 -0.3847086429595947 1.0004241466522217
0.19775497913360596 -0.4029178023338318 0.9958846569061279
0.17672337591648102 -0.4836195111274719 1.0060234069824219
0.18040388822555542 -0.47376370429992676 0.9977502226829529
0.134857639670372 -0.4567227363586426 1.0314900875091553
0.13907718658447266 -0.4706941843032837 1.0243605375289917
0.1376701295375824 -0.4548306465148926 1.011266827583313
0.12866312265396118 -0.47684550285339355 1.0186480283737183
0.2210913598537445 -0.21119658648967743 1.031599998474121
0.2098202109336853 -0.19374997913837433 0.9664055109024048
0.20309928059577942 -0.20691163837909698 0.9586578607559204
0.22187526524066925 -0.1771988570690155 1.0081660747528076
0.15394601225852966 -0.4486197233200073 1.0311365127563477
0.15748299658298492 -0.42085540294647217 1.004876971244812
0.1955067217350006 -0.24374991655349731 0.9821559190750122
0.19486820697784424 -0.25490158796310425 0.9708456993103027
0.21459071338176727 -0.2246658056974411 1.0218242406845093
0.2095116376876831 -0.24754007160663605 1.0158698558807373
0.1568734496831894 -0.41276562213897705 1.005458950996399
0.1543348729610443 -0.4632369875907898 1.0355087518692017
0.1879059225320816 -0.2778586447238922 0.975913941860199
0.18331095576286316 -0.3141782879829407 0.9871701002120972
0.18338313698768616 -0.2949477434158325 0.9719541668891907
0.1633302867412567 -0.39546626806259155 0.9997124075889587
0.13607430458068848 -0.529909074306488 1.0319092273712158
0.12521125376224518 -0.5666462779045105 1.0297479629516602
0.12051638215780258 -0.5558820962905884 1.0090727806091309
0.24124351143836975 -0.21279820799827576 1.055212378501892
0.23131665587425232 -0.24407318234443665 1.0471258163452148
0.21027374267578125 -0.28670239448547363 1.0194380283355713
0.20385341346263885 -0.31113946437835693 1.0249501466751099
0.18000073730945587 -0.308468222618103 0.9626337885856628
0.23288387060165405 -0.2590276002883911 1.0523312091827393
0.22823943197727203 -0.24220365285873413 1.0237979888916016
0.22211489081382751 -0.25445449352264404 1.0219111442565918
0.1577356457710266 -0.5008751153945923 1.0462783575057983
0.14913423359394073 -0.5185559988021851 1.0387353897094727
0.16251429915428162 -0.4029507040977478 0.985365629196167
0.25517821311950684 -0.11614538729190826 1.0126543045043945
0.25875717401504517 -0.10274838656187057 1.017171025276184
0.17311881482601166 -0.3349390923976898 0.9401055574417114
0.21461248397827148 -0.30137068033218384 1.0197616815567017
0.21473775804042816 -0.3178064525127411 1.0357192754745483
0.1627049446105957 -0.49486374855041504 1.0514562129974365
0.16299954056739807 -0.49435269832611084 1.0464447736740112
0.1572393923997879 -0.5094015598297119 1.0412594079971313
0.20821405947208405 -0.21331927180290222 0.9211883544921875
0.200195774435997 -0.2283356487751007 0.9202111959457397
0.19626384973526 -0.2277916669845581 0.9221188426017761
0.20273223519325256 -0.20785170793533325 0.916170060634613
0.20665743947029114 -0.2081608772277832 0.9160592555999756
0.19715261459350586 -0.2081928849220276 0.8975829482078552
0.20142510533332825 -0.24001410603523254 0.9423422813415527
0.18939973413944244 -0.20712187886238098 0.8977330923080444
0.18873871862888336 -0.22097158432006836 0.8864614963531494
0.24375900626182556 -0.17524942755699158 1.0063341856002808
0.24332988262176514 -0.18331190943717957 1.0114411115646362
0.2356647551059723 -0.1673964411020279 0.9779143333435059
0.24876223504543304 -0.22012439370155334 1.0524179935455322
0.239206925034523 -0.22868788242340088 1.0397180318832397
0.1950538456439972 -0.4116213917732239 1.0589537620544434
0.19627517461776733 -0.40758344531059265 1.059350848197937
0.18792825937271118 -0.4037836194038391 1.0485529899597168
0.19211073219776154 -0.2099132239818573 0.8825960159301758
0.19853541254997253 -0.1954156756401062 0.8868793249130249
0.20266081392765045 -0.24374175071716309 0.9377931356430054
0.1581602692604065 -0.45121434330940247 0.9847418665885925
0.14575277268886566 -0.4700804650783539 0.9768829941749573
0.2484302967786789 -0.20135027170181274 1.032824158668518
0.25282520055770874 -0.16059423983097076 1.0072004795074463
0.1658301204442978 -0.4807688295841217 1.0302220582962036
