0.02211892418563366 0.14684376120567322 1.1105659008026123
-0.03176749870181084 0.022263985127210617 1.0499131679534912
-0.08427280187606812 -0.2233838438987732 1.2138577699661255
-0.0955805554986 -0.19497844576835632 1.1268261671066284
-0.05368480831384659 -0.06438612192869186 0.2749025523662567
-0.03229571878910065 -0.07792600989341736 0.21409086883068085
-0.06356866657733917 -0.029707998037338257 0.20980051159858704
-0.00649874284863472 -0.08643273264169693 1.5140310525894165
-0.024455703794956207 -0.13231699168682098 0.66748046875
-0.04978632181882858 -0.06063224747776985 0.6248334646224976
0.038323774933815 0.15525898337364197 1.2289667129516602
0.03584302216768265 0.16651108860969543 1.1569050550460815
-0.04779437929391861 -0.23142164945602417 1.1382784843444824
-0.0440894179046154 -0.06575187295675278 0.06944368034601212
0.024321384727954865 0.12365958839654922 1.1388112306594849
0.0184318907558918 0.09580935537815094 1.1646652221679688
0.055708181113004684 -0.07799960672855377 1.509229302406311
-0.047699980437755585 -0.20193040370941162 1.3547207117080688
0.06266387552022934 0.06349550932645798 1.3991055488586426
0.06997780501842499 -0.04303969070315361 1.4504225254058838
0.047794558107852936 -0.09129490703344345 1.5012139081954956
0.07361675053834915 0.1221415176987648 1.1420423984527588
0.08551721274852753 0.12151330709457397 1.1004189252853394
0.0041000451892614365 -0.22006168961524963 1.3472199440002441
0.020039880648255348 0.02150590531527996 1.046830415725708
-0.027621500194072723 -0.22816379368305206 1.077476143836975
0.12641440331935883 0.04303369298577309 1.4075756072998047
0.037155281752347946 -0.10384733974933624 1.2939430475234985
0.10802613198757172 -0.006925912573933601 1.4915891885757446
0.0745101347565651 -0.051564548164606094 1.4843751192092896
0.03937188908457756 -0.0911024808883667 1.2113040685653687
0.04635607823729515 0.09405765682458878 0.9203091859817505
0.070636086165905 -0.1761564314365387 1.6899170875549316
0.038365885615348816 -0.22126638889312744 0.03780340030789375
0.04537954553961754 -0.25793009996414185 0.007093522697687149
0.035591889172792435 -0.1283104121685028 0.02130376361310482
0.023258313536643982 -0.2716425955295563 1.5619076490402222
0.028635501861572266 -0.06307445466518402 0.6799851059913635
0.12648501992225647 -0.05037803202867508 1.4510045051574707
0.07539039850234985 -0.178030326962471 1.4515342712402344
0.1032063364982605 -0.17926472425460815 1.3884941339492798
0.06305292993783951 -0.1473417729139328 1.3861770629882812
0.051294662058353424 -0.06449384242296219 0.3411480188369751
0.05264357104897499 -0.169308602809906 0.19402512907981873
0.07435165345668793 -0.07483864575624466 0.14021006226539612
0.13409706950187683 0.11788378655910492 1.1410810947418213
0.12730009853839874 0.14592470228672028 1.1217743158340454
0.06565547734498978 -0.14859378337860107 0.7037531733512878
0.0659380778670311 -0.053826503455638885 0.6179283857345581
0.06721240282058716 -0.21996325254440308 1.667974829673767
0.10204220563173294 -0.22065839171409607 1.624692440032959
0.06809338927268982 -0.1381293684244156 0.5124232769012451
0.09113499522209167 -0.17074277997016907 1.7018420696258545
0.11089997738599777 -0.17679473757743835 1.6531791687011719
0.06350167095661163 -0.13461364805698395 1.1291347742080688
0.0723327174782753 -0.11634956300258636 1.1089205741882324
0.0618719756603241 -0.18382945656776428 1.0774763822555542
0.08104917407035828 -0.24944531917572021 1.5593245029449463
0.09285350888967514 -0.17461489140987396 1.478747844696045
0.08126617968082428 -0.21418634057044983 1.4702630043029785
0.1666335165500641 0.11227376759052277 1.1020612716674805
0.06477922946214676 -0.23159295320510864 1.263521432876587
0.05710924416780472 -0.28427308797836304 1.2127856016159058
0.07549765706062317 -0.18835797905921936 1.2099632024765015
0.11870342493057251 -0.09247704595327377 0.07713393867015839
0.09538589417934418 -0.19097670912742615 0.11741795390844345
0.11389946937561035 -0.19108283519744873 0.0970577672123909
0.12844491004943848 -0.15903834998607635 1.6773537397384644
0.0684257298707962 -0.2553194463253021 1.2638438940048218
0.1281726360321045 -0.06827665865421295 0.3771708905696869
0.10670490562915802 -0.11250293999910355 0.4393617808818817
0.13129690289497375 -0.09160536527633667 0.3209270238876343
0.11197671294212341 -0.19797173142433167 1.3747106790542603
0.09889261424541473 -0.19353705644607544 1.3762811422348022
0.11302739381790161 -0.17138361930847168 1.3397216796875
0.12536370754241943 0.06274837255477905 0.8978037238121033
0.10582847893238068 -0.11767438054084778 0.8177666068077087
0.14359797537326813 -0.09305977076292038 0.18632866442203522
0.1492474526166916 -0.1250026971101761 0.1989825963973999
0.12258119881153107 -0.17551669478416443 1.3367241621017456
0.18144969642162323 0.013897588476538658 1.317887306213379
0.1878121793270111 0.04334882274270058 1.3039566278457642
0.03917691856622696 -0.3286745548248291 1.0994998216629028
0.16721880435943604 -0.07173973321914673 0.9639743566513062
0.16976970434188843 -0.1283407211303711 0.94685959815979
0.09782145172357559 -0.21289071440696716 1.1551504135131836
0.0954892635345459 -0.3134796917438507 1.0410470962524414
0.09804079681634903 -0.27611494064331055 1.0180284976959229
0.12700240314006805 -0.3421671390533447 1.1010448932647705
-0.2418118119239807 -0.021247731521725655 1.0202189683914185
-0.27461087703704834 -0.07333890348672867 0.9787672758102417
-0.2104957550764084 -0.12371182441711426 1.0881567001342773
-0.23264408111572266 -0.14504465460777283 1.1258822679519653
-0.1687566339969635 -0.0961170643568039 1.1184706687927246
-0.1486595720052719 -0.05848464369773865 1.1548656225204468
-0.18847399950027466 -0.1569080948829651 0.8472787141799927
-0.07924817502498627 0.11724895983934402 1.1455990076065063
-0.08106990158557892 0.08632877469062805 1.2279223203659058
-0.1453782320022583 -0.25940564274787903 1.0606226921081543
-0.14686459302902222 -0.16148784756660461 0.9404114484786987
-0.1493542641401291 -0.08377818018198013 0.22038789093494415
-0.12720218300819397 -0.13302968442440033 0.23577377200126648
-0.10171345621347427 -0.030952710658311844 0.4497309923171997
-0.14549320936203003 -0.19614267349243164 0.8432972431182861
-0.10255870968103409 -0.08772750198841095 0.5907454490661621
-0.10445459187030792 -0.12503238022327423 0.6516003608703613
-0.09533455967903137 -0.0633937418460846 0.658474326133728
-0.10096176713705063 -0.047280676662921906 1.1100612878799438
-0.11055970937013626 -0.11413884907960892 1.1231343746185303
0.006001679226756096 0.12003067135810852 1.2933928966522217
-0.10912593454122543 -0.02374613657593727 0.8331347107887268
-0.0836651399731636 -0.14360585808753967 0.2530535161495209
-0.09958875179290771 -0.08658397942781448 1.2144397497177124
-0.08788681030273438 -0.07956442981958389 1.1427991390228271
-0.08342567086219788 -0.1235118880867958 0.3964664041996002
-0.05875155329704285 -0.1573030948638916 1.688309907913208
-0.06693283468484879 -0.18799731135368347 1.6697221994400024
-0.030949007719755173 -0.2217460423707962 1.6697618961334229
-0.052444133907556534 -0.25056329369544983 1.6263079643249512
-0.07427288591861725 -0.23342877626419067 1.5379610061645508
-0.06510793417692184 -0.10070455819368362 0.28976500034332275
-0.033489491790533066 -0.13756395876407623 0.7244459390640259
-0.0353514589369297 -0.1080707460641861 0.21936991810798645
-0.05306698754429817 -0.13798996806144714 0.22249814867973328
-0.06433798372745514 -0.04377755522727966 0.16147136688232422
-0.05459102243185043 0.06507347524166107 0.9720109701156616
-0.011083226650953293 -0.15159015357494354 1.7275660037994385
-0.027472101151943207 -0.1615464836359024 1.714095115661621
0.07063281536102295 0.06684830784797668 1.2580866813659668
-0.009359299205243587 0.06766907125711441 1.2652524709701538
0.054882537573575974 0.044253043830394745 1.3033037185668945
0.014217806048691273 -0.10579313337802887 1.2466845512390137
0.07312334328889847 0.11249574273824692 1.314842939376831
0.06018148735165596 0.10075941681861877 1.1672066450119019
0.12469220906496048 0.1407369077205658 1.2481223344802856
0.08424586057662964 -0.04630619287490845 1.6474778652191162
0.09107310324907303 0.09153756499290466 1.1684987545013428
0.04162989556789398 -0.21848013997077942 0.899608314037323
0.02410365827381611 -0.1252937614917755 0.21096736192703247
0.04029754921793938 -0.1454530656337738 0.1521298587322235
0.022303704172372818 -0.13095428049564362 0.6626153588294983
0.042532823979854584 -0.014894934371113777 1.0808227062225342
0.04002059996128082 -0.04976925253868103 0.5236017107963562
0.12505698204040527 0.01314899418503046 1.3478786945343018
0.0702381283044815 -0.22524979710578918 1.3758304119110107
0.11054769158363342 -0.0540611669421196 1.6091865301132202
0.09618048369884491 -0.11315502971410751 1.560786485671997
0.0988236740231514 -0.09267795085906982 1.5446686744689941
0.09112216532230377 -0.17181545495986938 1.7458419799804688
0.05345409736037254 -0.24538671970367432 1.3162755966186523
0.10255458205938339 -0.03326188772916794 0.4438892602920532
0.07074623554944992 -0.020167840644717216 0.4399296045303345
0.09097421169281006 -0.047444358468055725 0.28631049394607544
0.11240141093730927 -0.055659595876932144 0.2563161849975586
0.11339542269706726 -0.16964146494865417 1.4707858562469482
0.10258330404758453 -0.17883992195129395 1.4770472049713135
0.11387811601161957 -0.17189902067184448 1.4622732400894165
0.09833880513906479 -0.05538855493068695 0.7251993417739868
0.10133887827396393 -0.0994575247168541 0.5914397239685059
0.13415668904781342 0.021579928696155548 0.9381964206695557
0.10842080414295197 -0.10302769392728806 1.0877693891525269
0.09951388835906982 -0.15314140915870667 1.0683577060699463
0.11408962309360504 -0.16644242405891418 1.0084407329559326
0.12987366318702698 -0.14788275957107544 1.5859365463256836
0.13237930834293365 -0.1401844322681427 1.509893536567688
0.050676655024290085 -0.2693382799625397 1.1982640027999878
0.1529688835144043 -0.07107681781053543 1.5147610902786255
0.14381222426891327 -0.10443733632564545 1.5439459085464478
0.13939712941646576 -0.13028568029403687 -0.008209558203816414
0.1468663215637207 -0.2028656303882599 2.2878870368003845e-05
0.15591660141944885 -0.08053645491600037 1.480241298675537
0.15862087905406952 -0.06173188239336014 1.4585113525390625
0.16278861463069916 -0.05744873359799385 1.4293948411941528
0.16438302397727966 -0.04111592471599579 1.421952486038208
0.03762895613908768 -0.33423754572868347 1.1175111532211304
0.16123735904693604 -0.15781711041927338 0.8219865560531616
0.056744568049907684 -0.3167223632335663 1.1320120096206665
0.04892003536224365 -0.33678483963012695 1.1159095764160156
0.1926669031381607 -0.11507213860750198 0.8320704698562622
0.18971648812294006 -0.09222603589296341 0.8123283386230469
0.20217233896255493 -0.05759251117706299 0.8199427723884583
-0.19462791085243225 -0.14817117154598236 1.1462068557739258
-0.14636720716953278 -0.17795918881893158 1.22563898563385
-0.1531863510608673 -0.17124155163764954 1.2086327075958252
-0.1436009556055069 -0.1660214066505432 1.21996009349823
-0.13946756720542908 -0.17012441158294678 1.237685203552246
-0.19946342706680298 -0.0019733551889657974 0.8371566534042358
-0.11109673231840134 -0.14277449250221252 1.2733453512191772
-0.14699459075927734 -0.08746439218521118 1.0727190971374512
-0.0706598237156868 -0.051807746291160583 1.5462645292282104
-0.13045430183410645 -0.14269626140594482 1.1845324039459229
-0.13963833451271057 -0.12149804830551147 1.1394532918930054
-0.05387979745864868 -0.024799933657050133 1.461527943611145
-0.045765701681375504 -0.01963062211871147 1.4302338361740112
-0.13804158568382263 -0.15362325310707092 1.0209416151046753
-0.10340236872434616 -0.17250436544418335 0.981300950050354
-0.1109277531504631 -0.0457291454076767 0.7492490410804749
0.006732722744345665 0.08654327690601349 1.3473005294799805
-0.005939148366451263 -0.036715757101774216 1.63507878780365
-0.04758680239319801 -0.028444115072488785 -0.0017067287117242813
-0.0613243393599987 -0.014839250594377518 -0.017442336305975914
-0.08301006257534027 0.024215299636125565 0.8545587658882141
-0.006143637932837009 0.09537732601165771 0.8578866720199585
-0.05643735080957413 -0.025439687073230743 0.8301675319671631
0.059581052511930466 -0.0009184209629893303 1.3735982179641724
-0.013548716902732849 -0.09579704701900482 0.7562451362609863
-0.010691020637750626 -0.258212685585022 1.542988896369934
-0.010862607508897781 0.016208410263061523 0.8741382360458374
-0.006194964982569218 -0.025206703692674637 0.8492571115493774
0.0017424530815333128 -0.11625871062278748 0.8501328825950623
-0.07864408195018768 -0.16617682576179504 0.8568755984306335
-0.005545200780034065 -0.22607861459255219 0.8498691916465759
0.006744781509041786 -0.10876597464084625 0.8119571805000305
-0.008231732994318008 -0.16098710894584656 0.8615679740905762
0.036363426595926285 -0.10707537829875946 1.4675097465515137
0.008865091018378735 -0.0356147401034832 0.8362225294113159
0.007111889310181141 -0.048448823392391205 0.8076831102371216
0.057869940996170044 -0.10650483518838882 1.5405693054199219
0.0592614971101284 -0.09693659842014313 1.5197854042053223
0.01851646788418293 -0.12331172078847885 0.8301998376846313
0.1175248846411705 0.05716966092586517 0.8257009387016296
0.02935773879289627 -0.095396488904953 0.20550227165222168
0.025605903938412666 -0.03440273925662041 0.7882824540138245
0.11128286272287369 0.05988520383834839 1.2789784669876099
0.06462313234806061 -0.11875166743993759 0.3329681158065796
0.058972787111997604 -0.10626234859228134 0.2685677111148834
0.07498224824666977 -0.12699654698371887 0.2855961322784424
0.06454775482416153 -0.17232778668403625 0.23559173941612244
0.13563373684883118 -0.05364853888750076 1.4941498041152954
0.06150887906551361 -0.01640174724161625 0.8239906430244446
0.08235014975070953 -0.0363253578543663 0.7939876317977905
0.07890994846820831 -0.15925779938697815 1.2209211587905884
0.09567844122648239 -0.12758755683898926 0.3827858567237854
0.13288052380084991 -0.09394185990095139 1.5801069736480713
0.07596400380134583 -0.14729124307632446 1.2761008739471436
0.10542375594377518 -0.1298161745071411 0.285225510597229
0.1381874829530716 0.11195053160190582 1.2902626991271973
0.08612822741270065 -0.12391875684261322 1.2041075229644775
0.1153765320777893 -0.07692135870456696 0.14184725284576416
0.1714138388633728 0.12400338053703308 1.2191307544708252
0.10010033845901489 -0.059354718774557114 0.1846221387386322
0.10506414622068405 -0.18211615085601807 0.20638670027256012
0.16493260860443115 -0.0018682472873479128 1.3580713272094727
0.12074641138315201 -0.18298068642616272 1.410974144935608
0.12256666272878647 -0.17858856916427612 1.3823621273040771
0.1211044192314148 -0.18106278777122498 1.4111592769622803
0.13384687900543213 -0.14863285422325134 1.358651041984558
0.06264513731002808 -0.29203712940216064 1.1774370670318604
0.045101799070835114 -0.30093303322792053 1.1724984645843506
0.17899447679519653 0.03677252680063248 1.2851656675338745
0.19632670283317566 0.0764099657535553 1.2420343160629272
0.18810749053955078 0.07826118916273117 1.2133456468582153
0.09017182141542435 -0.22490188479423523 1.2162144184112549
0.07442858815193176 -0.2583823800086975 1.2324328422546387
0.14860770106315613 -0.1819089949131012 0.8380959630012512
0.08355223387479782 -0.27544525265693665 1.2396657466888428
0.07392004132270813 -0.3098585605621338 1.1380045413970947
0.07463660836219788 -0.2502479553222656 1.1140122413635254
0.06893641501665115 -0.29201850295066833 1.106029987335205
0.14240743219852448 -0.31848734617233276 1.1307082176208496
0.13133060932159424 -0.29793310165405273 0.9989993572235107
0.12625613808631897 -0.34517621994018555 1.053925633430481
-0.14781531691551208 -0.25873449444770813 1.0990595817565918
-0.1360047310590744 -0.20918384194374084 1.1655582189559937
-0.14276345074176788 -0.20347438752651215 1.1863081455230713
-0.13535059988498688 -0.24680809676647186 1.107177972793579
-0.0675089955329895 -0.028970522806048393 1.488021731376648
-0.07454735040664673 -0.03654240071773529 1.4710607528686523
-0.07733257114887238 -0.01135825552046299 1.4398877620697021
-0.0830819383263588 -0.1526583582162857 1.655887484550476
-0.09548167139291763 -0.17488043010234833 1.5721540451049805
-0.1231713593006134 -0.09984342008829117 0.28089556097984314
-0.1229548528790474 -0.07644116133451462 0.8259528875350952
-0.11872218549251556 -0.1040114313364029 0.8072522282600403
-0.06501348316669464 0.13486312329769135 1.1282620429992676
-0.09106507897377014 -0.1914714276790619 1.2197520732879639
-0.10619060695171356 -0.04008263349533081 0.8014613389968872
-0.03597467392683029 -0.1726786345243454 1.6934473514556885
-0.10399148613214493 -0.157120019197464 1.114501953125
-0.07282037287950516 -0.21360401809215546 1.092975378036499
-0.01111147366464138 0.09627753496170044 1.2095001935958862
0.05669819191098213 0.0924094170331955 1.2003223896026611
-0.06366534531116486 -0.06955178081989288 1.1618866920471191
-0.04443814605474472 -0.11714352667331696 0.845921516418457
-0.0631585568189621 -0.20616191625595093 1.0344266891479492
-0.05120379105210304 -0.0038840454071760178 1.0693339109420776
0.005722155794501305 -0.25812506675720215 1.632336139678955
-0.0026378172915428877 -0.10183364897966385 0.7395839691162109
0.007630515843629837 0.014685631729662418 1.3542762994766235
0.044710103422403336 -0.2019558697938919 -0.03522082418203354
0.15426349639892578 0.14941713213920593 1.1721882820129395
0.12002268433570862 0.0909673348069191 1.2120885848999023
0.10797840356826782 0.16107062995433807 1.1902124881744385
0.08953575044870377 0.08656412363052368 0.84503173828125
0.11523403972387314 -0.0849628821015358 -0.02830199897289276
0.10133321583271027 -0.03856734186410904 0.8130361437797546
0.09946087747812271 -0.12375261634588242 0.33784329891204834
0.1037345826625824 -0.22589033842086792 1.3532969951629639
0.07701671123504639 -0.25233274698257446 1.282094955444336
0.18720486760139465 -0.0029533524066209793 0.8161922693252563
0.2021304965019226 -0.055196914821863174 0.8822036981582642
0.12993758916854858 -0.32693275809288025 1.0151066780090332
-0.24334345757961273 -0.14191727340221405 1.089473009109497
-0.2057676762342453 -0.08472252637147903 0.8974826335906982
-0.21408018469810486 -0.07809966802597046 0.839562177658081
-0.08023306727409363 -0.024267274886369705 1.431715726852417
-0.07613535225391388 0.0292856115847826 1.3271763324737549
-0.08524376153945923 -0.12116800993680954 1.509178638458252
-0.14323723316192627 -0.07126998901367188 1.0384633541107178
-0.1476796567440033 -0.10868625342845917 1.0748729705810547
-0.08392263203859329 -0.11846886575222015 1.5102412700653076
-0.08596125990152359 -0.12962645292282104 1.495166540145874
-0.08660086244344711 -0.12360401451587677 1.5050123929977417
-0.08681100606918335 -0.12726202607154846 1.5066075325012207
-0.09243685007095337 -0.1382373571395874 1.493260145187378
-0.09858480840921402 -0.1365586370229721 0.11905974894762039
-0.09125404059886932 -0.21419264376163483 1.6123236417770386
-0.03001929260790348 -0.07866792380809784 1.215247631072998
-0.0454791784286499 -0.15138979256153107 0.029190793633461
-0.039897989481687546 -0.09563787281513214 1.2504483461380005
-0.007980721071362495 -0.07634588330984116 1.170191764831543
-0.04271324723958969 0.09405932575464249 0.9295854568481445
0.020145472139120102 -0.18350259959697723 1.7012531757354736
-0.016851365566253662 -0.09159079194068909 0.6859797835350037
0.028472010046243668 0.025286845862865448 1.3255199193954468
0.0016324184834957123 -0.19889187812805176 0.990612268447876
-0.044616930186748505 -0.2426125407218933 1.1812094449996948
0.06405218690633774 0.07319609820842743 1.2316503524780273
0.04709550365805626 -0.10206513106822968 0.13417722284793854
0.06353750824928284 -0.1845603585243225 0.9776884317398071
0.1221272349357605 -0.1776612102985382 0.9462079405784607
0.11292774975299835 -0.08362575620412827 1.5164868831634521
0.04451696574687958 -0.21337971091270447 1.1344683170318604
0.029802734032273293 -0.08396344631910324 1.164358377456665
0.09284499287605286 -0.0573103092610836 1.0886948108673096
0.0896994024515152 0.05622807517647743 0.9492008686065674
0.11186826974153519 -0.287497878074646 -0.038323722779750824
0.0875043272972107 -0.27056270837783813 -0.05326982960104942
0.14078876376152039 -0.25742489099502563 -0.04596314579248428
0.1252562403678894 -0.17293044924736023 0.18405945599079132
0.1177988201379776 -0.18077577650547028 1.4090769290924072
0.12056893855333328 -0.1811261624097824 1.4094370603561401
0.07532992959022522 -0.20771290361881256 1.2898322343826294
0.07504192739725113 -0.24166995286941528 1.2719855308532715
0.19843575358390808 0.11112050712108612 1.1624826192855835
0.1909232884645462 0.1019650250673294 1.1199907064437866
0.2005171775817871 0.10669678449630737 1.1186145544052124
0.13997799158096313 -0.28821611404418945 1.0011481046676636
0.13585007190704346 -0.3431900143623352 0.9949811697006226
0.14596036076545715 -0.3631148338317871 0.9874649047851562
-0.20755037665367126 -0.060986246913671494 1.0424423217773438
-0.15178899466991425 -0.23353253304958344 1.1445451974868774
-0.09417399019002914 -0.1052396148443222 0.31479886174201965
-0.032948389649391174 0.12683425843715668 1.1028947830200195
-0.11518800258636475 -0.16298379004001617 1.0607032775878906
-0.02862776443362236 -0.045479971915483475 0.8386655449867249
-0.04105673357844353 -0.03994785621762276 0.7950537204742432
-0.032943129539489746 -0.09276273101568222 0.8035328388214111
-0.0037160958163440228 -0.024186987429857254 1.1159003973007202
0.022773507982492447 -0.20865221321582794 0.835119903087616
0.08559001982212067 0.014669575728476048 0.8420547246932983
0.13191992044448853 0.09644674509763718 1.1833782196044922
0.13123923540115356 -0.12177897989749908 1.5177242755889893
0.1401338428258896 -0.09680917114019394 1.5033602714538574
0.18842242658138275 -0.12397193163633347 0.8848448395729065
-0.15597623586654663 -0.23512807488441467 1.1119630336761475
-0.07780688256025314 -0.08037395775318146 1.552328109741211
-0.005354870576411486 0.1272379457950592 1.1430915594100952
-0.05446065962314606 -0.062090009450912476 1.585738182067871
-0.03537926450371742 -0.09140528738498688 1.5646227598190308
-0.008466638624668121 -0.09750092029571533 1.5411217212677002
0.02233017235994339 -0.21322667598724365 1.0409355163574219
0.03619151934981346 -0.22903838753700256 1.2220109701156616
0.059318169951438904 -0.18794462084770203 0.11238521337509155
0.07314297556877136 -0.20063699781894684 1.1829862594604492
0.08374060690402985 -0.16626739501953125 1.1390835046768188
0.14978890120983124 -0.04277058318257332 1.4345877170562744
0.14185687899589539 -0.01639011688530445 1.4554822444915771
0.09143727272748947 -0.12647806107997894 1.1581226587295532
0.10180550813674927 -0.0760614350438118 0.8016316890716553
0.03745295852422714 -0.2829433083534241 1.2017494440078735
0.16958755254745483 0.005541651509702206 1.3793245553970337
-0.062144726514816284 0.009837742894887924 1.3940978050231934
-0.09002380818128586 -0.029234370216727257 0.3243556022644043
0.010082951746881008 -0.10241509974002838 0.6951210498809814
0.0543975867331028 -0.25910553336143494 1.6126716136932373
-0.07444075495004654 0.11855319142341614 1.1853176355361938
-0.13355831801891327 -0.17219600081443787 1.2422674894332886
-0.04989577829837799 -0.06741508841514587 0.3601895272731781
0.0665285661816597 0.00572690274566412 1.4975110292434692
0.0635770857334137 -0.27027273178100586 -0.03693005070090294
0.11612826585769653 -0.17212457954883575 1.462218999862671
0.11441627144813538 -0.1714172661304474 1.4610376358032227
0.10454905778169632 -0.18192604184150696 1.3737895488739014
0.11898890882730484 -0.16719698905944824 0.14787982404232025
0.13377121090888977 -0.13312843441963196 0.12569810450077057
0.08569958060979843 -0.3059258759021759 1.1835527420043945
-0.17724129557609558 -0.1575828492641449 0.9072944521903992
-0.06932787597179413 -0.0077117737382650375 1.4148344993591309
-0.06781573593616486 -0.009920071810483932 1.4164471626281738
-0.07309207320213318 -0.012101259082555771 1.415345549583435
-0.04564369469881058 -0.08604788035154343 0.15460947155952454
-0.027756748721003532 -0.0992099940776825 0.8435959815979004
0.036496106535196304 -0.15246546268463135 0.10089480131864548
0.10175029933452606 -0.3275572657585144 1.1388581991195679
0.11194916069507599 -0.2112467885017395 1.578709363937378
0.1126352846622467 -0.10121837258338928 0.7518701553344727
0.1641870141029358 -0.036645546555519104 1.406412959098816
0.16681337356567383 -0.013178500346839428 1.3837226629257202
0.04673846811056137 -0.11709265410900116 -0.03764226660132408
0.045448340475559235 -0.6423953771591187 1.0312970876693726
0.04543106630444527 -0.6170811653137207 1.0085619688034058
0.04297100380063057 -0.6263485550880432 1.0111703872680664
0.038076672703027725 -0.6219831705093384 1.0186747312545776
0.03871126472949982 -0.6414534449577332 1.0207383632659912
0.044052548706531525 -0.6358131170272827 1.0330249071121216
0.08402304351329803 -0.5151612758636475 1.0053257942199707
0.07050897926092148 -0.5188159942626953 1.001258134841919
0.07655350118875504 -0.5365003347396851 1.0093282461166382
0.07410670071840286 -0.5440433025360107 1.0128298997879028
0.10249428451061249 -0.386378675699234 0.9364786148071289
0.10053010284900665 -0.39612358808517456 0.9526717066764832
0.1006012111902237 -0.39682430028915405 0.9308228492736816
0.06533036381006241 -0.5307450890541077 0.9715369939804077
0.06569407880306244 -0.5431114435195923 0.9849801063537598
0.07724843174219131 -0.5638838410377502 1.032366394996643
0.07543230056762695 -0.5542920827865601 1.0217106342315674
0.08999570459127426 -0.4251963198184967 0.9178600311279297
0.08897722512483597 -0.4324408769607544 0.9382433891296387
0.10485967248678207 -0.4614569842815399 0.9987180233001709
0.10081915557384491 -0.4553854465484619 0.9927740097045898
0.06078004464507103 -0.6221070885658264 1.0415065288543701
0.05120473355054855 -0.6077039837837219 1.0013585090637207
0.10485878586769104 -0.3953050673007965 0.9208725094795227
0.09811295568943024 -0.4010061025619507 0.9180891513824463
0.17336875200271606 -0.24257250130176544 0.9832435846328735
0.16953863203525543 -0.25140780210494995 0.9824621677398682
0.16885167360305786 -0.24131490290164948 0.9637282490730286
0.06683750450611115 -0.5841364860534668 1.0274851322174072
0.06426749378442764 -0.6035649180412292 1.0326136350631714
0.10387293994426727 -0.3986302316188812 0.9158182144165039
0.10121721029281616 -0.39831119775772095 0.9065510034561157
0.033069908618927 -0.6600304841995239 0.9869200587272644
0.03254237771034241 -0.6701124906539917 0.9944202303886414
0.18155941367149353 -0.229813814163208 0.9759352207183838
0.17819221317768097 -0.2411365807056427 0.9874515533447266
0.17585933208465576 -0.2308734804391861 0.970626175403595
0.1731182038784027 -0.23785768449306488 0.9617841839790344
0.03333451971411705 -0.6967258453369141 1.0433707237243652
0.03381934016942978 -0.712478756904602 1.0545530319213867
0.0280265212059021 -0.7132319808006287 1.0366744995117188
0.07978281378746033 -0.4855709373950958 0.9458470344543457
0.08104050159454346 -0.5006933212280273 0.9478451609611511
0.06899029016494751 -0.515684962272644 0.9429956674575806
0.07569434493780136 -0.5132081508636475 0.9406754970550537
0.18008528649806976 -0.2458697408437729 0.9915920495986938
0.17820414900779724 -0.22963741421699524 0.965987503528595
0.07801830023527145 -0.5813356041908264 1.041644811630249
0.0857154130935669 -0.5813401937484741 1.0427340269088745
0.0727761909365654 -0.5941381454467773 1.0435879230499268
0.07279528677463531 -0.6095253229141235 1.0479795932769775
0.08990142494440079 -0.4534044861793518 0.9327226281166077
0.08716217428445816 -0.46575337648391724 0.9301888942718506
0.08437751978635788 -0.4679413437843323 0.9358344078063965
0.1825966238975525 -0.2327980399131775 0.9705340266227722
0.18212497234344482 -0.24707162380218506 0.9892809391021729
0.17587649822235107 -0.24384906888008118 0.9645341038703918
0.1024734228849411 -0.3759117126464844 0.8773713707923889
0.1008625477552414 -0.38067519664764404 0.8718149662017822
0.10284385085105896 -0.3896918296813965 0.8940122723579407
0.1039782240986824 -0.38742345571517944 0.8845822215080261
0.09904295206069946 -0.3821042776107788 0.881340503692627
0.07021571695804596 -0.5356909036636353 0.9368800520896912
0.0696122795343399 -0.522261381149292 0.9334713220596313
0.06713967025279999 -0.527121901512146 0.9228376150131226
0.06305303424596786 -0.5306171178817749 0.9233927130699158
0.17903511226177216 -0.2462857961654663 0.9732651114463806
0.03991963341832161 -0.7193485498428345 1.0594743490219116
0.03476247936487198 -0.7163264155387878 1.0426437854766846
0.03803897649049759 -0.7264756560325623 1.0559654235839844
0.03466774523258209 -0.727952778339386 1.060039758682251
0.031474776566028595 -0.7103471159934998 1.030190348625183
0.12439259886741638 -0.39003613591194153 0.9305962920188904
0.11048796772956848 -0.39905568957328796 0.9190537929534912
0.041231296956539154 -0.6465262174606323 0.9787551164627075
0.035330988466739655 -0.6680407524108887 0.9878206849098206
0.034614160656929016 -0.6829167008399963 1.0018447637557983
0.11851851642131805 -0.45581215620040894 0.9950908422470093
0.11232870817184448 -0.4709067940711975 0.9976537227630615
0.1129968985915184 -0.4800029993057251 0.9942756295204163
0.08943808823823929 -0.5770766139030457 1.0436915159225464
0.08335499465465546 -0.584954023361206 1.0368027687072754
0.07183563709259033 -0.6256141662597656 1.046986699104309
0.0843714252114296 -0.5558848977088928 1.0280427932739258
0.060788314789533615 -0.6264541149139404 0.9922778606414795
0.04777685925364494 -0.6529992818832397 0.9945756196975708
0.11994185298681259 -0.45521554350852966 0.9907960891723633
0.08911009877920151 -0.5652688145637512 1.013270378112793
0.09507923573255539 -0.5510927438735962 1.0056344270706177
0.0872570127248764 -0.5773751735687256 1.0181217193603516
0.045111604034900665 -0.6924354434013367 1.0315747261047363
0.04610329493880272 -0.6829555630683899 1.0217536687850952
0.0736822858452797 -0.5533370971679688 0.9662505984306335
0.08194559812545776 -0.5562771558761597 0.9781201481819153
0.07420343160629272 -0.571188747882843 0.9839158058166504
0.08075758814811707 -0.5731942653656006 0.9918350577354431
0.10270240902900696 -0.5108463168144226 0.9969788789749146
0.090505450963974 -0.5386089086532593 1.0045082569122314
0.07249011099338531 -0.6233761310577393 1.0281918048858643
0.06636231392621994 -0.6423953771591187 1.0250601768493652
0.061787646263837814 -0.6456232070922852 1.0321044921875
0.06999409198760986 -0.616653323173523 1.0041584968566895
0.06834074854850769 -0.6238395571708679 1.000617504119873
0.09119385480880737 -0.525916576385498 0.9662758708000183
0.08516349643468857 -0.5395087003707886 0.9681221842765808
0.08760185539722443 -0.5161792635917664 0.9522320032119751
0.08431493490934372 -0.5345776677131653 0.9601235389709473
0.08009926974773407 -0.5457534193992615 0.9698363542556763
0.09660932421684265 -0.509172797203064 0.9737365245819092
0.10477148741483688 -0.49818482995033264 0.9757646322250366
0.09616746753454208 -0.4889041483402252 0.9513635039329529
0.10075169801712036 -0.49807536602020264 0.9654315710067749
0.06269079446792603 -0.6311938762664795 1.0064101219177246
0.062116459012031555 -0.6474266052246094 1.012603998184204
0.05945631116628647 -0.6394137144088745 1.007943034172058
0.06887008249759674 -0.6418468356132507 1.0093861818313599
0.13180209696292877 -0.40465885400772095 0.9432175755500793
0.04672485962510109 -0.6014114618301392 1.0246946811676025
0.04001549631357193 -0.6118613481521606 1.0176761150360107
0.06367530673742294 -0.5505167245864868 1.0079461336135864
0.062068287283182144 -0.549178421497345 1.0030906200408936
0.05700966715812683 -0.5614542365074158 1.0135022401809692
0.05828157067298889 -0.553451418876648 1.0019809007644653
0.05790122225880623 -0.5643355846405029 1.010593056678772
0.07313352078199387 -0.5245391130447388 0.985893189907074
0.06677588075399399 -0.5313166379928589 0.9867788553237915
0.07552789151668549 -0.5067365765571594 0.9816272258758545
0.06366535276174545 -0.5629345178604126 1.0159032344818115
0.042727742344141006 -0.6275323629379272 0.9905459880828857
0.03767258673906326 -0.6392124891281128 1.0156437158584595
0.06261923909187317 -0.552083432674408 0.9826327562332153
0.0351046659052372 -0.6569585800170898 1.0261051654815674
0.03191162273287773 -0.6750136613845825 1.0254408121109009
0.03361587971448898 -0.6622647643089294 1.0175410509109497
0.02979036048054695 -0.6879913210868835 1.0364388227462769
0.11569931358098984 -0.3808310031890869 0.952255368232727
0.12382814288139343 -0.4209866523742676 1.0164183378219604
0.11928436905145645 -0.4260881245136261 1.0109425783157349
0.12431195378303528 -0.42929863929748535 1.0156846046447754
0.0910712406039238 -0.4485335052013397 0.939382791519165
0.16385716199874878 -0.24592573940753937 0.9554621577262878
0.17466691136360168 -0.26081404089927673 0.9948393106460571
0.16902054846286774 -0.27019765973091125 0.9901173114776611
0.1642940640449524 -0.2675658166408539 0.9823113679885864
0.09236164391040802 -0.5219984650611877 1.01138174533844
0.06054171174764633 -0.6349920034408569 1.055189609527588
0.02850605547428131 -0.6926380395889282 1.0167744159698486
0.14613011479377747 -0.2980673909187317 0.9544234871864319
0.1424776166677475 -0.323231965303421 0.9471949338912964
0.09999453276395798 -0.5030003786087036 1.015549659729004
0.09240541607141495 -0.5083999037742615 1.0102736949920654
0.08387398719787598 -0.5412859320640564 1.0162609815597534
0.031280990689992905 -0.6989554166793823 1.0182065963745117
0.034950073808431625 -0.7219205498695374 1.0636502504348755
0.03308473899960518 -0.7279943227767944 1.0671058893203735
0.028268512338399887 -0.7235398292541504 1.0501123666763306
0.1268409639596939 -0.36147597432136536 0.9496315121650696
0.126060351729393 -0.37839335203170776 0.9515683054924011
0.09020362794399261 -0.54294353723526 1.0144509077072144
0.11029242724180222 -0.38397106528282166 0.9341996312141418
0.03252480551600456 -0.6787458658218384 0.995586633682251
0.14606545865535736 -0.389223575592041 1.0281383991241455
0.1470329463481903 -0.3890154957771301 1.0253397226333618
0.14015841484069824 -0.3970291316509247 1.0155671834945679
0.14271411299705505 -0.40342065691947937 1.0249189138412476
0.14001935720443726 -0.414228618144989 1.0286390781402588
0.12829194962978363 -0.3967316150665283 0.9956361651420593
0.1374938189983368 -0.39834922552108765 0.9996939301490784
0.033674515783786774 -0.7300474047660828 1.069320559501648
0.06626785546541214 -0.5632429122924805 0.9699328541755676
0.0661863386631012 -0.5740414261817932 0.9767603278160095
0.06237781047821045 -0.5756118893623352 0.9780226349830627
0.06758765131235123 -0.5479251146316528 0.9567857980728149
0.14583581686019897 -0.4024313688278198 1.0226202011108398
0.14393284916877747 -0.4140774607658386 1.0256075859069824
0.10691525787115097 -0.4026084542274475 0.907823383808136
0.14781801402568817 -0.3960733115673065 1.0226526260375977
0.14372789859771729 -0.40034762024879456 1.0151737928390503
0.08668146282434464 -0.5678585171699524 1.0340683460235596
0.10111964493989944 -0.4056539535522461 0.8841179013252258
0.09841668605804443 -0.4035091996192932 0.8776878714561462
0.09096822142601013 -0.41195714473724365 0.8702572584152222
0.09147296845912933 -0.42097795009613037 0.8762340545654297
0.13427725434303284 -0.38793572783470154 0.9496013522148132
0.13736890256404877 -0.42225316166877747 1.01185142993927
0.07915996015071869 -0.5875071287155151 1.0241105556488037
0.0756862685084343 -0.6042603254318237 1.0299289226531982
0.1066051572561264 -0.41384726762771606 0.907010018825531
0.10580422729253769 -0.4222814738750458 0.906487226486206
0.10139787942171097 -0.41654688119888306 0.8943608999252319
0.07741039991378784 -0.6039807200431824 1.022174596786499
0.07966870814561844 -0.5885928869247437 1.0130223035812378
0.07579770684242249 -0.5939818620681763 1.0005017518997192
0.08152665942907333 -0.5798482894897461 0.9980286955833435
0.046770982444286346 -0.6655687093734741 1.0057604312896729
0.05010475590825081 -0.6681527495384216 1.01084566116333
0.1176137775182724 -0.4147261381149292 0.9220635294914246
0.13007861375808716 -0.4194257855415344 0.9653424024581909
0.12359024584293365 -0.4394044876098633 0.9632344841957092
0.12523870170116425 -0.4305316209793091 0.9544582962989807
0.11771632730960846 -0.45105594396591187 0.9659801125526428
0.11165735870599747 -0.45764675736427307 0.9590528607368469
0.07800261676311493 -0.6100245714187622 1.0070792436599731
0.07970180362462997 -0.6006985902786255 1.0047475099563599
0.07347060739994049 -0.632543683052063 1.0190367698669434
0.1006859540939331 -0.5512798428535461 0.9949427843093872
0.09157253801822662 -0.5744197964668274 1.0049943923950195
0.09314858168363571 -0.5555216073989868 0.9970221519470215
0.0889916643500328 -0.5639125108718872 0.9929173588752747
0.09200860559940338 -0.5715985298156738 0.9992557764053345
0.0901467576622963 -0.5596101880073547 0.9997660517692566
0.08907966315746307 -0.5755758881568909 0.9986181855201721
0.07335559278726578 -0.64306640625 1.017552137374878
0.07261410355567932 -0.6359007358551025 1.008205533027649
0.043890565633773804 -0.6163169741630554 1.028915524482727
0.03777913376688957 -0.6310649514198303 1.0300201177597046
0.040669962763786316 -0.6148648262023926 1.0133565664291382
0.03987397253513336 -0.6313886642456055 1.0216214656829834
0.1127624362707138 -0.415313184261322 1.0006405115127563
0.09886979311704636 -0.40327882766723633 0.9415348768234253
0.09400233626365662 -0.41395267844200134 0.9371818900108337
0.1130862608551979 -0.39083606004714966 0.9762064814567566
0.05797410011291504 -0.6088837385177612 1.0292221307754517
0.055068157613277435 -0.5921967029571533 1.0055638551712036
0.09108172357082367 -0.4454880952835083 0.9625071287155151
0.0881740152835846 -0.4513893127441406 0.951713502407074
0.10735129565000534 -0.4285748600959778 0.9949186444282532
0.105485700070858 -0.4436260461807251 0.9947872161865234
0.058292269706726074 -0.5841048955917358 1.0039291381835938
0.05676671862602234 -0.6197489500045776 1.0339837074279785
0.08807448297739029 -0.4719257354736328 0.9618335366249084
0.07841885089874268 -0.4983826279640198 0.9742105007171631
0.07819230854511261 -0.4897116422653198 0.9569945931434631
0.06036011129617691 -0.566968560218811 0.9951071739196777
0.0406637005507946 -0.6778802275657654 1.039003849029541
0.03274548426270485 -0.7037119269371033 1.0435491800308228
0.03107130527496338 -0.7017666101455688 1.028076410293579
0.13043823838233948 -0.4120585322380066 1.0255675315856934
0.12039178609848022 -0.4401587247848511 1.0198098421096802
0.10166601091623306 -0.47620871663093567 1.0020571947097778
0.09825778752565384 -0.4959390163421631 1.009080171585083
0.07575112581253052 -0.5007953643798828 0.9527686238288879
0.12136053293943405 -0.4518726170063019 1.0284394025802612
0.11452223360538483 -0.43719375133514404 0.9989557862281799
0.11332063376903534 -0.4510733485221863 0.9976847171783447
0.057115182280540466 -0.6500583291053772 1.0529299974441528
0.047408122569322586 -0.6691266894340515 1.0458295345306396
0.05851057916879654 -0.5768232345581055 0.9821465611457825
0.14202621579170227 -0.337030291557312 0.9729984998703003
0.14430946111679077 -0.32409489154815674 0.9731115698814392
0.06457525491714478 -0.5217239856719971 0.934981107711792
0.10422984510660172 -0.49092841148376465 1.0043697357177734
0.10568563640117645 -0.5037683844566345 1.0173439979553223
0.061243876814842224 -0.6454252004623413 1.0547113418579102
0.06140100210905075 -0.6496361494064331 1.0517559051513672
0.05449942126870155 -0.6607776284217834 1.0499000549316406
0.09614575654268265 -0.4258618950843811 0.9050512313842773
0.093067966401577 -0.4377005100250244 0.9034271240234375
0.08866757154464722 -0.43773898482322693 0.9046667218208313
0.09126325696706772 -0.4201115071773529 0.898604154586792
0.0954226404428482 -0.4200771450996399 0.8946560025215149
0.09021888673305511 -0.4204908013343811 0.8808287978172302
0.08983281254768372 -0.4454595446586609 0.9243988394737244
0.08638393878936768 -0.419569194316864 0.8774739503860474
0.08352357149124146 -0.4278215169906616 0.8699201345443726
0.1317080408334732 -0.385966420173645 0.9742506146430969
0.13393698632717133 -0.39194256067276 0.9760280847549438
0.12066397070884705 -0.3835965692996979 0.9470202922821045
0.1325119584798813 -0.41999560594558716 1.0191525220870972
0.12857463955879211 -0.4273202419281006 1.0137749910354614
0.08765185624361038 -0.5790351033210754 1.0545800924301147
0.0872068852186203 -0.574670672416687 1.0546633005142212
0.08568881452083588 -0.5694320201873779 1.0426462888717651
0.09084583073854446 -0.42501723766326904 0.8678702116012573
0.08608780801296234 -0.41173702478408813 0.8684834241867065
0.09389117360115051 -0.44621944427490234 0.9212102890014648
0.053974028676748276 -0.6143499612808228 0.9871147274971008
0.04568015784025192 -0.6302785873413086 0.9840449690818787
0.14063283801078796 -0.4041774570941925 0.999791145324707
0.13693289458751678 -0.37382563948631287 0.9732139110565186
0.06532493233680725 -0.6398067474365234 1.0364983081817627
0.07156786322593689 -0.5222204923629761 0.9381576180458069
0.1688913106918335 -0.27541008591651917 0.9551395177841187
0.16461265087127686 -0.2870446443557739 0.9547067880630493
0.07659872621297836 -0.527845025062561 0.9436130523681641
0.1424117386341095 -0.3676407039165497 0.9612857103347778
0.1372276097536087 -0.3827396333217621 0.9653679132461548
0.13437291979789734 -0.38074129819869995 0.9544950127601624
0.07355286926031113 -0.6068916320800781 1.0046920776367188
0.12269657850265503 -0.39786139130592346 0.9268156290054321
0.08962821215391159 -0.5096427202224731 0.957328736782074
0.13916927576065063 -0.39746007323265076 0.9658433198928833
0.13397032022476196 -0.4107426106929779 0.9667209386825562
0.13773813843727112 -0.4112835228443146 0.9894740581512451
0.13145853579044342 -0.4219648838043213 0.9762561917304993
0.13715839385986328 -0.38926762342453003 0.9542229771614075
0.13059593737125397 -0.39036455750465393 0.9419718384742737
0.08110330998897552 -0.607965350151062 1.0122336149215698
0.06631260365247726 -0.5302148461341858 1.0044816732406616
0.063105009496212 -0.5302608609199524 1.0009714365005493
0.067377470433712 -0.5404287576675415 1.0088610649108887
0.06423035264015198 -0.5282745361328125 0.9947541356086731
0.05859508737921715 -0.5416966080665588 1.003403902053833
0.0550292506814003 -0.5883870720863342 1.0223890542984009
0.05513332039117813 -0.5962162613868713 1.027254581451416
0.06490492820739746 -0.5484174489974976 0.9990872740745544
0.06018586456775665 -0.5572357177734375 0.9922543168067932
0.057343095541000366 -0.5746021866798401 1.008420705795288
0.059411413967609406 -0.5779492855072021 1.0188990831375122
0.09429791569709778 -0.4327404797077179 0.9602400064468384
0.1192832738161087 -0.41470858454704285 1.0123391151428223
0.12459468841552734 -0.4004983603954315 1.0001964569091797
0.12522533535957336 -0.36330628395080566 0.9699857234954834
0.12310665845870972 -0.35776227712631226 0.9610214829444885
0.0654493197798729 -0.5482124090194702 0.9643791913986206
0.0715891569852829 -0.5123380422592163 0.9571341872215271
0.06295644491910934 -0.5314860343933105 0.9333038330078125
0.06699854135513306 -0.5255752205848694 0.959499180316925
0.16783401370048523 -0.2776033580303192 0.9894428253173828
0.16993595659732819 -0.2529517114162445 0.9699410200119019
0.16458435356616974 -0.2638794481754303 0.9747575521469116
0.16354550421237946 -0.265270471572876 0.9659401178359985
0.15445996820926666 -0.2732594907283783 0.9618786573410034
0.13847240805625916 -0.326187402009964 0.9501103162765503
0.13243025541305542 -0.3418101370334625 0.9501281380653381
0.1398254930973053 -0.39157819747924805 1.025322675704956
0.08263913542032242 -0.5787594318389893 1.0536768436431885
0.06565120816230774 -0.6115215420722961 1.0465013980865479
0.037045713514089584 -0.6441558599472046 0.9784362316131592
0.0389372780919075 -0.640637993812561 0.9816063642501831
0.09311484545469284 -0.40275198221206665 0.8779616355895996
0.08591451495885849 -0.4114091992378235 0.871922492980957
0.151938334107399 -0.3277885615825653 0.9711875915527344
0.14530305564403534 -0.34052929282188416 0.971269428730011
0.08392270654439926 -0.5751072764396667 1.0576614141464233
0.08798422664403915 -0.48925676941871643 0.9434126615524292
0.08685903996229172 -0.5011214017868042 0.9483331441879272
0.10494863241910934 -0.498466432094574 1.0069491863250732
0.09949900954961777 -0.5100152492523193 1.008252501487732
0.09530645608901978 -0.5263308882713318 1.0090203285217285
0.11006370186805725 -0.44054001569747925 0.930256187915802
0.16613927483558655 -0.29844945669174194 0.9660418033599854
0.15887737274169922 -0.30608081817626953 0.9557793140411377
0.050158556550741196 -0.6747998595237732 1.0179228782653809
0.12096899747848511 -0.4560700058937073 0.9826526641845703
0.11593744158744812 -0.47002339363098145 0.9737172722816467
0.11419625580310822 -0.44002842903137207 0.9442225694656372
0.10835891216993332 -0.4344575107097626 0.9198469519615173
0.10088352859020233 -0.45315974950790405 0.9364703893661499
0.12669017910957336 -0.43037158250808716 0.9715542793273926
0.13239602744579315 -0.4298267960548401 0.9877076745033264
0.1272861212491989 -0.43915411829948425 0.9854565262794495
0.12523850798606873 -0.4427754282951355 0.971638560295105
0.10578565299510956 -0.41221094131469727 0.9778178334236145
0.10820848494768143 -0.3891056180000305 0.9608764052391052
0.10431262105703354 -0.4014812707901001 0.9697914719581604
0.10086827725172043 -0.4075744152069092 0.959507405757904
0.04806014522910118 -0.6085816621780396 1.0101858377456665
0.09453034400939941 -0.4078948199748993 0.930432140827179
0.04984975978732109 -0.6428698301315308 1.0376272201538086
0.08409702032804489 -0.4614054560661316 0.9506262540817261
0.15274132788181305 -0.2909243702888489 0.9728103876113892
0.14612147212028503 -0.2989085912704468 0.9658215045928955
0.14684544503688812 -0.2950490117073059 0.9584506750106812
0.11791624128818512 -0.4339725077152252 1.000978708267212
0.11951521784067154 -0.4488016366958618 1.0207961797714233
0.11961635202169418 -0.43839409947395325 1.007282018661499
0.0917871817946434 -0.4222891330718994 0.9058791995048523
0.0799756720662117 -0.4236223101615906 0.8693073391914368
0.057000331580638885 -0.5920983552932739 0.9850560426712036
0.054806653410196304 -0.6022652387619019 0.9855620265007019
0.049022845923900604 -0.6112523674964905 0.9896968007087708
0.12614166736602783 -0.38980579376220703 0.9791902899742126
0.12459030002355576 -0.4497504234313965 1.0240362882614136
0.11834199726581573 -0.45272254943847656 1.0221455097198486
0.1206161379814148 -0.4474082589149475 1.0104619264602661
0.11695043742656708 -0.4441802203655243 0.9958829879760742
0.031234972178936005 -0.6654648780822754 0.9857182502746582
0.030978228896856308 -0.6928664445877075 1.01118803024292
0.1678602248430252 -0.26471883058547974 0.9631748199462891
0.16875921189785004 -0.24985328316688538 0.9464722871780396
0.1689547449350357 -0.2535102069377899 0.9588480591773987
0.16799339652061462 -0.26205751299858093 0.9585268497467041
0.16583961248397827 -0.2648828625679016 0.951093316078186
0.16142404079437256 -0.254239559173584 0.9433469772338867
0.16100843250751495 -0.267031729221344 0.9471173286437988
0.09615903347730637 -0.4528113007545471 0.9317458271980286
0.1575440764427185 -0.2814190685749054 0.9419876337051392
0.15137913823127747 -0.32398197054862976 0.951511800289154
0.14306095242500305 -0.33697882294654846 0.9490557909011841
0.14661729335784912 -0.34843340516090393 0.9616112112998962
0.1362173855304718 -0.3947932720184326 0.9706937074661255
0.13773849606513977 -0.39938750863075256 0.9854698181152344
0.10193813592195511 -0.4355175793170929 0.9119581580162048
0.10896537452936172 -0.5005830526351929 0.9845269322395325
0.10625763982534409 -0.4819226861000061 0.9664002060890198
