-0.6009384393692017 -0.002860274165868759 1.182423710823059
-0.3901904821395874 -0.13312041759490967 1.6446623802185059
-0.26398006081581116 -0.09579966962337494 1.50316321849823
-0.33396753668785095 -0.07189016044139862 1.5132369995117188
-0.29390233755111694 -0.07024707645177841 1.4173099994659424
-0.2915022671222687 -0.030921868979930878 1.4256229400634766
-0.3367699086666107 0.002375144511461258 1.314681053161621
-0.3321172893047333 0.0166200939565897 1.2632510662078857
0.35323482751846313 -0.017589647322893143 1.291151762008667
0.31952226161956787 -0.04132300242781639 1.2869794368743896
0.398611456155777 -0.029964886605739594 1.2571172714233398
0.3162060081958771 -0.0608237199485302 1.4421550035476685
0.31183961033821106 -0.07020910084247589 1.3450716733932495
0.31916123628616333 -0.04318208619952202 1.3664066791534424
0.4232516288757324 -0.040801674127578735 1.3403233289718628
0.45353612303733826 -0.07662910223007202 1.3311587572097778
0.5011926889419556 -0.021474171429872513 1.2598206996917725
0.5389175415039062 -0.015107857063412666 1.2408685684204102
0.4994690418243408 -0.037576571106910706 1.2558600902557373
0.5375663638114929 -0.03536424785852432 1.2449800968170166
0.5699514746665955 -0.022234808653593063 1.2722731828689575
0.3225798010826111 -0.11816328018903732 1.6266764402389526
0.346120148897171 -0.143207848072052 1.5735652446746826
0.6400365829467773 -0.027413079515099525 1.279279351234436
0.6179345846176147 -0.059552088379859924 1.272537350654602
0.5670099258422852 -0.03754907101392746 1.273012638092041
0.6308805346488953 -0.033821217715740204 1.266340970993042
0.6911370158195496 -0.028748610988259315 1.2583262920379639
0.42985761165618896 -0.12359394133090973 1.495362401008606
0.6675013303756714 -0.06879471242427826 1.4009217023849487
0.634817361831665 -0.08335503190755844 1.3009074926376343
0.621174156665802 -0.05503150075674057 1.3191195726394653
0.5567575097084045 -0.09088893979787827 1.51213538646698
0.6634894609451294 -0.0962955430150032 1.3778725862503052
0.7667839527130127 -0.062166616320610046 1.3552935123443604
0.7058057188987732 -0.0579230934381485 1.3763679265975952
0.7382195591926575 -0.07276196032762527 1.3536524772644043
0.739245593547821 -0.11622247099876404 1.3783293962478638
0.5537428259849548 -0.11064377427101135 1.5696096420288086
0.647840142250061 -0.09349510073661804 1.4683194160461426
0.6281229853630066 -0.13163849711418152 1.4740397930145264
0.49667811393737793 -0.18529298901557922 1.7001001834869385
0.7645779252052307 -0.08332248032093048 1.4022496938705444
0.527687668800354 -0.14317505061626434 1.6999942064285278
0.5734339356422424 -0.13573339581489563 1.6475163698196411
0.5652438402175903 -0.17605292797088623 1.693664789199829
0.994666576385498 -0.0830724686384201 1.3146007061004639
0.6333746910095215 -0.16493433713912964 1.6449105739593506
0.6888335943222046 -0.15590062737464905 1.6292030811309814
0.7009511590003967 -0.11180467158555984 1.5790581703186035
0.7903229594230652 -0.13929729163646698 1.507249355316162
0.7831612825393677 -0.09591304510831833 1.512753963470459
0.7143330574035645 -0.11093702912330627 1.6048474311828613
0.7719123959541321 -0.10636785626411438 1.5671231746673584
0.8444006443023682 -0.10456521809101105 1.5369619131088257
0.7293271422386169 -0.10744808614253998 1.6548113822937012
0.7605922222137451 -0.13004492223262787 1.6385952234268188
1.1752467155456543 -0.17288708686828613 1.2320425510406494
1.2965359687805176 -0.15496158599853516 1.140259861946106
1.3132669925689697 -0.07658624649047852 1.1621307134628296
1.2656583786010742 -0.10125961154699326 1.1612458229064941
1.0299043655395508 -0.1176859587430954 1.4179322719573975
1.062870740890503 -0.10765200108289719 1.3859556913375854
0.8845834732055664 -0.09133544564247131 1.567441701889038
1.2937965393066406 -0.016307279467582703 1.2151139974594116
1.2340362071990967 -0.03780248761177063 1.259002685546875
1.135819911956787 -0.08754362910985947 1.445909857749939
1.2239283323287964 -0.08104176819324493 1.38385808467865
1.1780266761779785 -0.094309963285923 1.3514158725738525
1.2081096172332764 -0.11887826025485992 1.387166976928711
-1.201087236404419 -0.18753182888031006 1.2495765686035156
-1.1807518005371094 -0.20514515042304993 1.2397065162658691
-0.9234234690666199 -0.16958996653556824 1.5050468444824219
-0.9231539964675903 -0.15160107612609863 1.5142390727996826
-0.943850040435791 -0.1553536355495453 1.4661139249801636
-0.9993391036987305 -0.15789413452148438 1.3682281970977783
-0.9403727054595947 -0.15500657260417938 1.368523359298706
-1.0250667333602905 -0.18838529288768768 1.330074429512024
-0.9957848191261292 -0.14674708247184753 1.3019150495529175
-0.8933627009391785 -0.18770858645439148 1.3851497173309326
-0.777465283870697 -0.18600332736968994 1.5136221647262573
-0.807435154914856 -0.1738778054714203 1.4896240234375
-1.0918389558792114 -0.09832695126533508 1.1075193881988525
-1.1796482801437378 -0.11439141631126404 1.1362011432647705
-1.201061725616455 -0.08695685863494873 1.0557355880737305
-0.7632716298103333 -0.14979198575019836 1.4984874725341797
-0.7442629337310791 -0.19224534928798676 1.5448063611984253
-1.0435270071029663 -0.18351086974143982 1.1662338972091675
-1.0511397123336792 -0.1865491271018982 1.139955759048462
-1.1676857471466064 -0.16441315412521362 1.029254674911499
-1.1991260051727295 -0.1720084249973297 0.9847701191902161
-0.9606412649154663 -0.12503588199615479 1.258101463317871
-0.6894608736038208 -0.20125024020671844 1.6371170282363892
-0.9286813735961914 -0.13259992003440857 1.2855250835418701
-0.9732058048248291 -0.10458645224571228 1.2280514240264893
-0.9029466509819031 -0.17526201903820038 1.3003395795822144
-0.9193528890609741 -0.18014204502105713 1.2810499668121338
-0.8907162547111511 -0.1095750704407692 1.2688281536102295
-0.8359590768814087 -0.1696508228778839 1.3548240661621094
-0.990180253982544 -0.10481539368629456 1.176025390625
-1.0349949598312378 -0.10169913619756699 1.121769905090332
-0.7997773885726929 -0.13952283561229706 1.429260492324829
-0.7997559309005737 -0.1191185712814331 1.342138409614563
-0.8358021974563599 -0.1511988341808319 1.3201504945755005
-0.5971587896347046 -0.19273564219474792 1.6419577598571777
-0.7146064639091492 -0.1894029974937439 1.4660992622375488
-0.7275404930114746 -0.13827428221702576 1.334407925605774
-0.5331048965454102 -0.2028336226940155 1.6702332496643066
-0.5532882213592529 -0.12507131695747375 1.5593483448028564
-0.6358137726783752 -0.16112037003040314 1.457324743270874
-0.7347040176391602 -0.07295133918523788 1.2585532665252686
-0.7408242225646973 -0.11220751702785492 1.274576187133789
-0.6228934526443481 -0.1155943050980568 1.4563764333724976
-0.642837643623352 -0.08925383538007736 1.373482346534729
-0.42382895946502686 -0.10899151861667633 1.5677746534347534
-0.5484792590141296 -0.11152298748493195 1.398699402809143
-0.5674953460693359 -0.07851748168468475 1.291792869567871
-0.5495953559875488 -0.040788304060697556 1.287630558013916
-0.5989558100700378 -0.03196640685200691 1.2314763069152832
-0.47205978631973267 -0.0600866936147213 1.2946922779083252
-0.5575808882713318 -0.010588770732283592 1.2228460311889648
-0.44840532541275024 -0.0821654200553894 1.4751814603805542
-0.4149795174598694 -0.08727189898490906 1.4130685329437256
-0.49880340695381165 0.009562905877828598 1.1910442113876343
-0.44783082604408264 0.019465573132038116 1.202721118927002
-0.23233550786972046 -0.05400887504220009 1.5025893449783325
-0.3313993811607361 -0.03489521145820618 1.3145854473114014
0.453102707862854 -0.04143300652503967 1.2522114515304565
0.21722283959388733 -0.07608962059020996 1.5242313146591187
0.5053751468658447 -0.030991140753030777 1.3259375095367432
0.512008011341095 -0.05974595248699188 1.3090980052947998
0.5359562039375305 -0.013886801898479462 1.261381983757019
0.4952946901321411 -0.07772545516490936 1.4422297477722168
0.564741313457489 -0.09793755412101746 1.3694218397140503
0.6970380544662476 -0.019804485142230988 1.2731682062149048
0.4857316315174103 -0.12514834105968475 1.6231262683868408
0.70866858959198 -0.11592204868793488 1.3970037698745728
0.6265946626663208 -0.1270449012517929 1.6260168552398682
1.0722935199737549 -0.07102170586585999 1.2568280696868896
1.097819209098816 -0.05366767942905426 1.2532663345336914
1.1798292398452759 -0.04318302497267723 1.1654144525527954
1.239060401916504 -0.028168585151433945 1.1100965738296509
1.2272756099700928 -0.0514119528234005 1.1185686588287354
0.8717533946037292 -0.09173107892274857 1.474076747894287
1.186767816543579 -0.021227732300758362 1.1812512874603271
1.2402888536453247 -0.013459211215376854 1.1266323328018188
1.0478966236114502 -0.13886502385139465 1.3010497093200684
1.0195083618164062 -0.16474539041519165 1.3383266925811768
1.0329498052597046 -0.1809680163860321 1.3041965961456299
1.096207618713379 -0.13829044997692108 1.270782470703125
1.1983140707015991 -0.02480192855000496 1.2287911176681519
1.2616642713546753 -0.020799458026885986 1.1676427125930786
1.0746409893035889 -0.07875693589448929 1.3528459072113037
1.0714701414108276 -0.13476036489009857 1.312198519706726
1.1406404972076416 -0.13777613639831543 1.2914317846298218
1.0702875852584839 -0.1608298271894455 1.3154100179672241
1.1417797803878784 -0.17459534108638763 1.2698454856872559
1.0207605361938477 -0.1342727243900299 1.373399019241333
1.0961333513259888 -0.12768323719501495 1.367451548576355
1.2750561237335205 -0.10551457107067108 1.1851505041122437
1.312160849571228 -0.1311914473772049 1.125988483428955
1.316821575164795 -0.04147820919752121 1.1591249704360962
1.0302420854568481 -0.08642476797103882 1.4202282428741455
1.1938369274139404 -0.0670715719461441 1.2611690759658813
1.2248249053955078 -0.15249080955982208 1.231803059577942
1.247678279876709 -0.12815073132514954 1.2374184131622314
1.3194230794906616 -0.09073898941278458 1.1902964115142822
1.125049114227295 -0.0784485787153244 1.410319447517395
1.1645193099975586 -0.06820198148488998 1.397567868232727
1.301265001296997 -0.07142876088619232 1.26274836063385
1.2848455905914307 -0.08690856397151947 1.2740286588668823
0.9521002769470215 -0.09176313132047653 1.5027238130569458
1.0632386207580566 -0.0543772429227829 1.5310795307159424
1.041722297668457 -0.08371080458164215 1.500009536743164
0.8998109698295593 -0.09312722086906433 1.6502891778945923
0.927538275718689 -0.08669468760490417 1.61335027217865
0.9232253432273865 -0.08040975779294968 1.6065387725830078
0.9448957443237305 -0.09957744926214218 1.5974549055099487
1.012668251991272 -0.07306119799613953 1.5703108310699463
0.9957319498062134 -0.0850050076842308 1.5787259340286255
-1.0781564712524414 -0.16265475749969482 1.3764210939407349
-1.0561171770095825 -0.18541374802589417 1.3689429759979248
-1.0755436420440674 -0.20210330188274384 1.341066837310791
-1.2076339721679688 -0.14291705191135406 1.0354703664779663
-1.223887324333191 -0.18195711076259613 0.9962273240089417
-1.0551581382751465 -0.17964719235897064 1.1440306901931763
-1.1094632148742676 -0.1921662986278534 1.123982310295105
-1.060858964920044 -0.22452709078788757 1.1263759136199951
-1.1589038372039795 -0.20940187573432922 1.0762770175933838
-1.1353787183761597 -0.17052945494651794 1.0621263980865479
-1.150451421737671 -0.1905663162469864 1.024098515510559
-0.9548765420913696 -0.1866668164730072 1.244121789932251
-0.9779819846153259 -0.19904258847236633 1.1931835412979126
-0.9920679330825806 -0.1908339411020279 1.2178001403808594
-1.0988337993621826 -0.20336192846298218 1.0704009532928467
-1.103490948677063 -0.17377731204032898 1.0788077116012573
-1.0236084461212158 -0.20776787400245667 1.1341272592544556
-1.073488712310791 -0.17664635181427002 1.1186518669128418
-0.8619301319122314 -0.13283830881118774 1.3599328994750977
-0.9397386312484741 -0.09616401791572571 1.209562063217163
-0.875823974609375 -0.08833079040050507 1.190995454788208
-0.8845923542976379 -0.06607513874769211 1.1945416927337646
-0.7694674134254456 -0.13748832046985626 1.2963968515396118
-0.787278950214386 -0.08526159077882767 1.2314640283584595
-0.8493173718452454 -0.06443113833665848 1.2065974473953247
-0.8524721264839172 -0.07963603734970093 1.1949195861816406
-0.4811622202396393 -0.11175709962844849 1.436371088027954
-0.6869816780090332 -0.04182352498173714 1.2128403186798096
-0.6117814779281616 -0.059423815459012985 1.2141478061676025
-0.6459569334983826 -0.017009656876325607 1.192665457725525
-0.5064330101013184 -0.006823647767305374 1.182197093963623
-0.5569257140159607 0.0029773786664009094 1.1740317344665527
-0.3984454870223999 0.011040821671485901 1.2202656269073486
0.8348497748374939 -0.0653553232550621 1.341725468635559
0.5252745151519775 -0.18356573581695557 1.7720824480056763
0.9397620558738708 -0.07516979426145554 1.375836730003357
0.8999204635620117 -0.05359291657805443 1.3185306787490845
0.9356586933135986 -0.08965297043323517 1.3324799537658691
0.9426512122154236 -0.06937219202518463 1.335996150970459
0.775895893573761 -0.09935902059078217 1.4795713424682617
0.9409533143043518 -0.13251104950904846 1.3636304140090942
0.9967001080513 -0.13215450942516327 1.3340009450912476
0.9779337644577026 -0.16510210931301117 1.3386428356170654
1.0031908750534058 -0.15709085762500763 1.3182827234268188
1.0473380088806152 -0.1267935186624527 1.290924072265625
1.2143526077270508 -0.0843767449259758 1.1527400016784668
1.255236268043518 -0.06899511814117432 1.1206237077713013
1.2883602380752563 -0.055702488869428635 1.1336807012557983
0.9904536008834839 -0.0932168960571289 1.3833930492401123
1.0277657508850098 -0.0868522897362709 1.366407036781311
1.0527279376983643 -0.14704778790473938 1.3344135284423828
1.072768211364746 -0.14701339602470398 1.2948384284973145
1.0970789194107056 -0.17713667452335358 1.2612942457199097
0.7504370808601379 -0.15456540882587433 1.6003494262695312
1.0951409339904785 -0.09294665604829788 1.3788315057754517
1.152715802192688 -0.08686134964227676 1.3624929189682007
1.0058367252349854 -0.11815069615840912 1.4728200435638428
1.314861536026001 -0.10852082818746567 1.2487967014312744
1.322868824005127 -0.055277176201343536 1.2148646116256714
1.1369060277938843 -0.10990157723426819 1.3843954801559448
1.1837197542190552 -0.11409657448530197 1.347842812538147
1.1083030700683594 -0.07918590307235718 1.5507720708847046
1.1098765134811401 -0.1209423616528511 1.4856352806091309
1.1181578636169434 -0.08947590738534927 1.4932057857513428
1.23282790184021 -0.09546785801649094 1.402204155921936
1.2219107151031494 -0.07872923463582993 1.408653974533081
-0.9472060203552246 -0.16471239924430847 1.4725472927093506
-1.2806098461151123 -0.14151553809642792 1.0406016111373901
-1.0266079902648926 -0.1916532665491104 1.2362314462661743
-1.0318291187286377 -0.20002302527427673 1.1995012760162354
-1.0017547607421875 -0.17921969294548035 1.285353422164917
-0.6607077717781067 -0.19260886311531067 1.5992586612701416
-0.9692878723144531 -0.13303956389427185 1.299753189086914
-0.9833215475082397 -0.13914409279823303 1.266526460647583
-1.201387643814087 -0.12105152755975723 0.9966279864311218
-1.2017940282821655 -0.07823283970355988 0.9918919205665588
-0.9718196988105774 -0.17245447635650635 1.1935076713562012
-1.0102235078811646 -0.18026848137378693 1.1566859483718872
-0.9756703972816467 -0.18852949142456055 1.1768687963485718
-0.6707391738891602 -0.1950991451740265 1.5411672592163086
-0.7451708912849426 -0.14116115868091583 1.448460340499878
-0.4683237671852112 0.0005316026508808136 1.259890079498291
0.2684382498264313 -0.028578167781233788 1.308953046798706
0.2456902265548706 -0.04460010677576065 1.306240200996399
0.44084230065345764 -0.06429123133420944 1.2888647317886353
0.4769810140132904 -0.018508080393075943 1.229430079460144
0.514528751373291 -0.054909396916627884 1.3722811937332153
0.6707848310470581 -0.048161499202251434 1.3073651790618896
0.673217236995697 -0.05955711752176285 1.2880439758300781
0.7018246054649353 -0.1310962736606598 1.4774261713027954
0.6866821050643921 -0.15934133529663086 1.566777229309082
0.8254674673080444 -0.12744547426700592 1.4342384338378906
1.086013913154602 -0.1687483787536621 1.2635754346847534
1.1417007446289062 -0.13263124227523804 1.2459717988967896
1.1764156818389893 -0.16223861277103424 1.2092076539993286
1.2182766199111938 -0.12232587486505508 1.1768633127212524
0.9607352614402771 -0.12586164474487305 1.440881609916687
1.311049222946167 -0.14435620605945587 1.1531096696853638
-1.0482609272003174 -0.18422242999076843 1.345964789390564
-1.0706504583358765 -0.11314509809017181 1.0823020935058594
-1.108788251876831 -0.10713157802820206 1.0440856218338013
-0.5888230800628662 -0.20826439559459686 1.6743892431259155
-0.6904059648513794 -0.04270658269524574 1.198594331741333
-0.6932463645935059 -0.03141056001186371 1.1701496839523315
-0.6468304395675659 -0.028958715498447418 1.1682584285736084
-0.529393196105957 0.016098802909255028 1.1687004566192627
-0.27606260776519775 0.004017414525151253 1.2819924354553223
-0.26781076192855835 -0.020460648462176323 1.2808398008346558
0.5430492162704468 -0.1461566984653473 1.5570234060287476
0.5538305044174194 -0.167193204164505 1.627803921699524
0.9641273021697998 -0.09065185487270355 1.4059271812438965
1.006535530090332 -0.06678375601768494 1.342475414276123
0.864082396030426 -0.13899043202400208 1.4597961902618408
1.0958211421966553 -0.11486993730068207 1.25067937374115
0.9409703016281128 -0.12519079446792603 1.48766028881073
0.8696772456169128 -0.12717583775520325 1.5499835014343262
1.0648999214172363 -0.10728998482227325 1.4868113994598389
1.1123253107070923 -0.10924074798822403 1.4329051971435547
1.2452200651168823 -0.11464584618806839 1.308376669883728
1.268527865409851 -0.12159860134124756 1.205061912536621
1.253974437713623 -0.08642838150262833 1.312561273574829
-1.2434628009796143 -0.15874823927879333 1.031835913658142
-1.227533221244812 -0.10459190607070923 1.0100237131118774
-1.060276985168457 -0.18640905618667603 1.1443746089935303
-1.1736886501312256 -0.16128340363502502 1.041283369064331
-1.158237338066101 -0.13120177388191223 1.008658528327942
-0.9185357689857483 -0.1304544061422348 1.219050407409668
-0.47349101305007935 -0.040019892156124115 1.262687087059021
-0.5165231823921204 -0.022261228412389755 1.2164976596832275
-0.5560200214385986 -0.012865360826253891 1.2037286758422852
-0.42615848779678345 -0.023066377267241478 1.2399373054504395
-0.46338343620300293 -0.006453428417444229 1.1696205139160156
-0.4774909019470215 0.012498905882239342 1.1667683124542236
0.4736109972000122 -0.0034459279850125313 1.2401471138000488
0.8900741338729858 -0.12327203899621964 1.3871269226074219
0.9316273331642151 -0.14508414268493652 1.4122834205627441
0.9776098132133484 -0.1503468155860901 1.3846406936645508
1.186208963394165 -0.13063569366931915 1.3282864093780518
-1.2231327295303345 -0.1662854552268982 1.131306529045105
-1.2402122020721436 -0.17981675267219543 1.1004141569137573
-1.246193766593933 -0.16668781638145447 1.0984059572219849
-1.056667447090149 -0.13462957739830017 1.224741816520691
-1.0338164567947388 -0.1576339453458786 1.1390058994293213
-0.990837037563324 -0.16787481307983398 1.1594411134719849
-0.3526709973812103 -0.007478417828679085 1.243720531463623
-0.17277035117149353 -0.039125580340623856 1.3761181831359863
-0.16557756066322327 -0.021390877664089203 1.3666006326675415
0.24041932821273804 -0.0572076141834259 1.3177627325057983
0.22930908203125 -0.19070497155189514 1.7358205318450928
0.44035959243774414 -0.16346415877342224 1.7573908567428589
0.4646085500717163 -0.18853497505187988 1.7848082780838013
0.5534883737564087 -0.16998209059238434 1.7476251125335693
0.8407877683639526 -0.1048288494348526 1.6321274042129517
0.841779351234436 -0.1074887290596962 1.681449055671692
0.8728522062301636 -0.07238546758890152 1.6323634386062622
0.8974257707595825 -0.0956573486328125 1.6239759922027588
0.9050137996673584 -0.07682153582572937 1.655181646347046
-1.008457899093628 -0.16949917376041412 1.4404149055480957
-1.019031047821045 -0.15450526773929596 1.4305825233459473
-0.8069058656692505 -0.1746957004070282 1.5732477903366089
-0.8039630651473999 -0.1589685082435608 1.5498615503311157
-1.241473913192749 -0.10359001159667969 1.0697581768035889
-1.2700347900390625 -0.10633841156959534 1.0378094911575317
-1.1549357175827026 -0.18593457341194153 1.0833767652511597
-1.0899815559387207 -0.12827980518341064 1.1840993165969849
-0.9264616966247559 -0.13072434067726135 1.3259921073913574
-0.5483189821243286 -0.20569449663162231 1.703224778175354
0.43666648864746094 -0.03344104439020157 1.2986723184585571
0.36749666929244995 -0.09469830989837646 1.5347559452056885
0.7032182812690735 -0.06376963108778 1.3422999382019043
0.5996513366699219 -0.0733489841222763 1.4416929483413696
0.8252688646316528 -0.07540112733840942 1.3321059942245483
0.8901739120483398 -0.07628579437732697 1.314620018005371
0.8289507627487183 -0.11974155902862549 1.365821361541748
1.1232383251190186 -0.0748613104224205 1.2238682508468628
1.1431796550750732 -0.08562298119068146 1.2228108644485474
1.1256800889968872 -0.14979875087738037 1.2835341691970825
1.0407359600067139 -0.0907350480556488 1.4713382720947266
1.215907096862793 -0.05477491021156311 1.3139694929122925
-1.2527360916137695 -0.16115912795066833 1.0615687370300293
-1.2685209512710571 -0.1285240650177002 1.011478066444397
-0.6823565363883972 -0.009493700228631496 1.1670520305633545
-0.529474139213562 0.016221489757299423 1.1938378810882568
-0.4175691604614258 -0.00029169023036956787 1.2081174850463867
1.1689841747283936 -0.06459145992994308 1.3201887607574463
1.356929063796997 -0.05636555701494217 1.1512178182601929
1.357923984527588 -0.062406085431575775 1.173816442489624
-1.041452169418335 -0.19454020261764526 1.1782093048095703
-1.068454623222351 -0.13331849873065948 1.1011528968811035
-1.098175048828125 -0.14541812241077423 1.0668786764144897
0.6275081634521484 -0.15302486717700958 1.695491075515747
1.3573870658874512 -0.03314558044075966 1.1691901683807373
1.1679542064666748 -0.10299744457006454 1.4307475090026855
-0.4102046489715576 -0.021292777732014656 1.3363065719604492
1.0758395195007324 -0.0959596112370491 1.4859637022018433
-1.004255771636963 -0.12054324150085449 1.1449222564697266
1.2689483165740967 -0.13831602036952972 1.1403836011886597
1.0782251358032227 -0.09678582847118378 1.4700448513031006
-1.0644649267196655 -0.2126731276512146 1.1510045528411865
-0.49513232707977295 -0.04763425141572952 0.945152223110199
-0.49904656410217285 -0.04845742508769035 0.9589350819587708
-0.4823961555957794 -0.07762576639652252 0.9470451474189758
-0.4902149438858032 -0.08275771886110306 0.9558478593826294
-0.4441734552383423 -0.05349678546190262 1.0208232402801514
-0.4557287395000458 -0.059176649898290634 0.9935300946235657
-0.44972848892211914 -0.028670871630311012 0.9688347578048706
-0.4327090084552765 -0.015217234380543232 1.0111535787582397
-0.44414377212524414 -0.081670843064785 0.9919679760932922
-0.45607537031173706 -0.11096937209367752 0.970109224319458
-0.4010729193687439 -0.04624778777360916 1.0872955322265625
-0.43072372674942017 -0.11379387974739075 0.9731597304344177
-0.4438687562942505 -0.0680302157998085 0.9852144718170166
-0.4220229983329773 -0.11170627921819687 1.013516902923584
-0.41984814405441284 -0.07721061259508133 1.0168814659118652
-0.38731759786605835 -0.01785103604197502 1.0624208450317383
-0.41001421213150024 -0.06446665525436401 1.0170172452926636
-0.40707430243492126 -0.08984393626451492 1.039286494255066
-0.40061429142951965 -0.07496456056833267 1.076084017753601
-0.4050244092941284 -0.04347231239080429 1.126950979232788
-0.40978994965553284 -0.10714094340801239 1.103921890258789
-0.34553003311157227 0.0030384096316993237 1.1671462059020996
-0.36454707384109497 0.01246008463203907 1.1221684217453003
-0.3888535499572754 -0.06489293277263641 1.161169409751892
-0.32560619711875916 0.019011126831173897 1.1081897020339966
-0.3170402944087982 -0.07189427316188812 1.2117042541503906
-0.36021366715431213 -0.12914139032363892 1.1475932598114014
-0.3150293827056885 0.022304315119981766 1.158579707145691
-0.2760798931121826 0.007802629843354225 1.1640300750732422
-0.2674461603164673 -0.01631007343530655 1.226538062095642
-0.23757629096508026 -0.015329105779528618 1.224604606628418
-0.223735049366951 -0.11759959161281586 1.2808005809783936
-0.2978290617465973 -0.12503273785114288 1.201659083366394
-0.22035308182239532 -0.03471647948026657 1.272283911705017
-0.25386136770248413 -0.07063117623329163 1.2694963216781616
-0.20198623836040497 -0.05409826710820198 1.3098769187927246
-0.18064747750759125 -0.07506848871707916 1.344756841659546
-0.16955475509166718 -0.12932011485099792 1.3341755867004395
-0.2270009070634842 -0.1502789556980133 1.2227860689163208
-0.20700371265411377 -0.03478071838617325 1.765612244606018
-0.1717992126941681 0.02767716720700264 1.4120209217071533
-0.13907167315483093 0.06672214716672897 0.8452112674713135
-0.18333202600479126 0.020980264991521835 0.8424457311630249
-0.15530282258987427 -0.06657114624977112 0.8603748083114624
-0.19959811866283417 -0.09875822067260742 0.8524125814437866
-0.19015660881996155 -0.02227337658405304 1.663407802581787
-0.21033857762813568 -0.04949221387505531 1.7937729358673096
-0.17518889904022217 -0.038916878402233124 1.7356352806091309
-0.16092073917388916 -0.001504700630903244 1.6778216361999512
-0.17159529030323029 -0.02994055114686489 1.6251802444458008
-0.12322327494621277 -0.004300704225897789 1.0407360792160034
-0.15566450357437134 -0.05366671830415726 1.0014711618423462
-0.15412375330924988 -0.12478268146514893 0.9887619018554688
-0.16584612429141998 -0.056086909025907516 1.5577971935272217
-0.26608484983444214 0.09644006937742233 0.15169693529605865
-0.2783166766166687 0.08110867440700531 0.08109035342931747
-0.28354358673095703 0.05317036807537079 0.0732354000210762
-0.14291082322597504 -0.12709279358386993 1.3852795362472534
-0.13648442924022675 -0.06481315940618515 1.3445217609405518
-0.12476465851068497 -0.08289038389921188 1.3184410333633423
-0.1477535516023636 -0.13785043358802795 1.3690744638442993
-0.12631088495254517 -0.1641342043876648 1.3096730709075928
-0.1999318152666092 -0.10853105038404465 0.4928421974182129
-0.20436397194862366 -0.10441157966852188 0.4076450765132904
-0.21531711518764496 -0.039124976843595505 0.3703700006008148
-0.22251321375370026 -0.07084569334983826 0.3871987462043762
-0.172684907913208 -0.030657082796096802 1.7012991905212402
-0.12415172904729843 -0.11995396018028259 1.2763854265213013
-0.12713611125946045 -0.11151651293039322 1.236413836479187
-0.1292538344860077 -0.1506836861371994 1.2519091367721558
-0.1589655578136444 -0.17045876383781433 1.2458317279815674
-0.21070659160614014 -0.0066667720675468445 0.3131556510925293
-0.1479206383228302 -0.12711113691329956 1.566886305809021
-0.1508634239435196 -0.04520075395703316 1.555723786354065
-0.14979663491249084 -0.0844842717051506 1.5543020963668823
-0.1684354543685913 -0.1753135770559311 0.568588376045227
-0.11182011663913727 -0.03356967866420746 1.807204246520996
-0.10809163749217987 -0.14448760449886322 1.1945886611938477
-0.11519591510295868 -0.051308345049619675 1.165969967842102
-0.1201569065451622 -0.1598890870809555 0.751857340335846
-0.1301935911178589 0.01657531037926674 1.7434622049331665
-0.11376965045928955 -0.15989117324352264 1.3924174308776855
-0.10259415954351425 -0.11209952086210251 0.8435307741165161
-0.14247789978981018 -0.1250729262828827 0.8683599829673767
-0.1219409704208374 -0.2037203311920166 0.9106038808822632
-0.10817992687225342 -0.21675965189933777 0.8504574298858643
-0.2582099437713623 0.011504262685775757 0.05557114630937576
-0.09314849227666855 0.04313471168279648 1.7368037700653076
-0.10945286601781845 -0.022459041327238083 1.7893534898757935
-0.14449545741081238 -0.11429561674594879 1.4560070037841797
-0.1257089376449585 -0.13336746394634247 1.5194605588912964
-0.1796358972787857 -0.0200953409075737 0.3704255223274231
-0.20757406949996948 0.011439094319939613 0.2885929346084595
-0.2520862817764282 -0.01820242591202259 0.08746696263551712
-0.20801915228366852 0.13261690735816956 0.19998329877853394
-0.10142460465431213 -0.07478897273540497 1.3261799812316895
-0.1520487666130066 -0.19025559723377228 0.5342628955841064
-0.2088467925786972 0.07691128551959991 0.046663716435432434
-0.24951495230197906 0.08291657269001007 0.043669622391462326
-0.11178874969482422 -0.04817381873726845 1.5724560022354126
-0.10763330012559891 -0.08805674314498901 1.5331525802612305
-0.025802019983530045 -0.22100791335105896 0.9014652967453003
-0.09036971628665924 0.08807341009378433 0.8502295613288879
-0.2181442379951477 -0.10951589792966843 0.2751837968826294
-0.19634343683719635 -0.04738461598753929 0.20093843340873718
-0.19101089239120483 0.09125760197639465 0.22043867409229279
-0.08574382960796356 -0.060632213950157166 1.2959132194519043
-0.09522911161184311 -0.07015273720026016 1.250345230102539
-0.051247503608465195 -0.19457212090492249 1.2906800508499146
-0.12597553431987762 -0.10396476089954376 0.6439921855926514
-0.10178656876087189 -0.16437512636184692 0.7458220720291138
-0.067904531955719 -0.11922367662191391 0.8121887445449829
-0.18674111366271973 -0.022879021242260933 0.17135514318943024
-0.202504962682724 0.008974151685833931 0.0655011311173439
-0.1046791821718216 -0.18699601292610168 1.525520920753479
-0.08697076886892319 -0.07442271709442139 1.3642274141311646
-0.056082289665937424 -0.05554693192243576 1.3037588596343994
-0.11932861059904099 -0.20183929800987244 0.5525093674659729
-0.09930602461099625 -0.18708544969558716 0.5576221942901611
-0.13138598203659058 -0.08080688863992691 0.5356136560440063
-0.08357677608728409 -0.17146585881710052 1.4822965860366821
-0.0612700916826725 -0.12752413749694824 1.4446948766708374
-0.10329315066337585 -0.07477626949548721 1.4168028831481934
-0.10649609565734863 -0.11884351074695587 0.5281887054443359
-0.061226267367601395 -0.0007529333233833313 1.791512131690979
-0.09332194924354553 -0.2145649492740631 1.6796092987060547
-0.01817261427640915 -0.19535407423973083 0.9862073659896851
-0.062452856451272964 -0.13802774250507355 1.4686737060546875
-0.03680089861154556 -0.16836923360824585 1.4521563053131104
-0.061359602957963943 -0.15050196647644043 1.4342050552368164
-0.03482867777347565 -0.21058914065361023 1.610750436782837
-0.07863947749137878 -0.2136697918176651 1.5475974082946777
-0.041665129363536835 -0.10163190960884094 1.4834249019622803
-0.08174377679824829 -0.13581515848636627 0.624854326248169
-0.003829892724752426 -0.04033032804727554 1.822312355041504
-0.05156124010682106 0.06366146355867386 1.7016005516052246
-0.0220428965985775 -0.23200726509094238 1.5556292533874512
-0.04262237623333931 -0.21708646416664124 1.4919731616973877
-0.02278941683471203 -0.1091342568397522 1.4471192359924316
-0.013459313660860062 -0.21642063558101654 1.4930014610290527
0.0052650198340415955 -0.07865989208221436 1.4281595945358276
-0.013445580378174782 -0.060059383511543274 1.296406865119934
-0.014520447701215744 0.017103496938943863 1.7858844995498657
-0.000226559117436409 -0.10730233788490295 1.4904060363769531
0.00019589625298976898 -0.16005192697048187 1.4719114303588867
0.01398182287812233 0.03900642693042755 1.7408875226974487
0.007428200915455818 -0.026116980239748955 1.802125334739685
-0.0008771736174821854 -0.15522940456867218 1.4408457279205322
0.04645157232880592 -0.17289358377456665 1.5166915655136108
0.003967694006860256 -0.1317422091960907 1.4533846378326416
0.07065700739622116 -0.21448732912540436 0.6135540008544922
0.02820131555199623 -0.06506191939115524 1.522658348083496
0.10863659530878067 -0.23306040465831757 0.5447471141815186
0.03137090057134628 -0.21166858077049255 1.2397609949111938
0.0707014873623848 -0.07404030859470367 1.2746036052703857
0.07466944307088852 -0.06272080540657043 1.148767113685608
0.18695923686027527 -0.1378936916589737 0.13157720863819122
0.21596865355968475 -0.11892595887184143 0.12314054369926453
0.16287070512771606 -0.04246187210083008 0.2327527105808258
0.04418136924505234 -0.1875283122062683 1.2341307401657104
0.03611290082335472 -0.2044314742088318 1.158930778503418
0.06099178269505501 -0.19406859576702118 0.7537437081336975
0.16534194350242615 -0.06416232883930206 0.17802414298057556
0.060192570090293884 -0.031089328229427338 1.7574725151062012
0.04395599663257599 -0.2027955949306488 1.6908466815948486
0.03531229868531227 -0.19378097355365753 1.5977157354354858
0.03261527419090271 -0.20441041886806488 1.5474659204483032
0.0882996916770935 -0.14608439803123474 0.8727911710739136
0.11785074323415756 -0.029169436544179916 1.79115629196167
0.033827044069767 -0.06021089479327202 1.578464150428772
0.03443190082907677 -0.0881112813949585 1.55245041847229
0.1492026001214981 -0.1322903335094452 0.39665138721466064
0.1493948996067047 -0.11465205997228622 0.3459310829639435
0.18069276213645935 -0.027969062328338623 0.22127509117126465
0.05949592590332031 -0.04229950159788132 1.8533258438110352
0.08047396689653397 -0.10427545756101608 1.439902424812317
0.0965203270316124 -0.20716285705566406 0.8616961240768433
0.07544271647930145 -0.1244925856590271 0.8542478084564209
0.122113898396492 -0.1815844029188156 0.8587427139282227
0.0983021929860115 -0.09954382479190826 0.7275148034095764
0.23993873596191406 -0.1338323950767517 0.13100707530975342
0.07551076263189316 -0.03979704901576042 1.7721232175827026
0.06912590563297272 -0.1614178717136383 1.1322152614593506
0.07833201438188553 -0.181437686085701 1.247581958770752
0.085120290517807 -0.20127686858177185 1.2377192974090576
0.13048292696475983 -0.17015068233013153 0.9169704914093018
0.07253070175647736 -0.13545110821723938 1.6100075244903564
0.06343710422515869 -0.05372948944568634 1.5897804498672485
0.06788984686136246 -0.08359239995479584 1.579118013381958
0.0783284604549408 -0.09851241111755371 1.5810526609420776
0.08892028033733368 -0.11537940800189972 1.5577564239501953
0.13508263230323792 -0.173940509557724 0.6582959294319153
0.12473610043525696 -0.22419163584709167 0.7005867958068848
0.10141915082931519 -0.15900082886219025 1.3949027061462402
0.11230196803808212 -0.07706724107265472 1.361283779144287
0.07079267501831055 -0.08374036848545074 1.3702733516693115
0.08105219900608063 -0.09071871638298035 1.3373560905456543
0.1112796813249588 -0.12885010242462158 0.8318542838096619
0.22614412009716034 -0.054253049194812775 0.21238373219966888
0.24328461289405823 -0.06894858181476593 0.19737373292446136
0.08431287109851837 -0.05016978830099106 1.7252717018127441
0.11292645335197449 -0.1087433397769928 1.418672800064087
0.21338751912117004 -0.17722612619400024 0.3812474012374878
0.10999070107936859 -0.02854815311729908 1.6944302320480347
0.07659946382045746 -0.003577493131160736 1.6941722631454468
0.09240619093179703 -0.03634650260210037 1.6610965728759766
0.2421727031469345 -0.11504284292459488 0.2376832664012909
0.2641136646270752 -0.11392943561077118 0.15422412753105164
0.2340821772813797 -0.15679466724395752 0.14719581604003906
0.15839284658432007 0.00319120567291975 0.9370070695877075
0.14820365607738495 -0.014156241901218891 0.832690417766571
0.12261845171451569 -0.04949050396680832 1.79053795337677
0.16757544875144958 0.04165944457054138 0.8340396881103516
0.18340563774108887 0.018728535622358322 0.8958817720413208
0.15124163031578064 -0.09054842591285706 1.3615885972976685
0.1726590245962143 -0.10829015076160431 1.3412078619003296
0.11883705854415894 -0.15145596861839294 1.3603709936141968
0.1849164366722107 -0.07498249411582947 1.3148983716964722
0.17698246240615845 -0.06748875975608826 1.2914172410964966
0.23480886220932007 -0.15455040335655212 1.2436808347702026
0.21297550201416016 -0.1174338310956955 1.3019206523895264
0.23468217253684998 -0.048094943165779114 1.2675338983535767
0.27296173572540283 -0.005940340459346771 1.2052900791168213
0.3014017939567566 -0.008607394993305206 1.224259376525879
0.29016318917274475 -0.06246504932641983 1.255751132965088
0.28368884325027466 -0.12101368606090546 1.244407057762146
0.33117422461509705 -0.002064049243927002 1.1736726760864258
0.38803938031196594 -0.07910939306020737 1.2047758102416992
0.3836018741130829 -0.044482048600912094 1.1995750665664673
0.3622858226299286 -0.010664969682693481 1.1842536926269531
0.3828815817832947 -0.12893570959568024 1.1584367752075195
0.3927232027053833 -0.06814238429069519 1.1489274501800537
0.3801962733268738 -0.041417043656110764 1.1437578201293945
0.5006522536277771 -0.0449349470436573 1.0366557836532593
0.38296380639076233 -0.0934608206152916 1.1353747844696045
0.4023657441139221 -0.10032208263874054 1.1000823974609375
0.4416278004646301 -0.025823451578617096 1.0756115913391113
0.4069565534591675 -0.07360401004552841 1.0836023092269897
0.4210053086280823 -0.10310027003288269 1.0739994049072266
0.4484495520591736 -0.06727967411279678 1.0599082708358765
0.4735970199108124 -0.05887206643819809 1.0616977214813232
0.44504058361053467 -0.10992606729269028 1.0395209789276123
0.46330007910728455 -0.08443756401538849 1.0467039346694946
0.4526011645793915 -0.09723661839962006 1.0466653108596802
0.5034664273262024 -0.0436866357922554 1.0149046182632446
0.4704170227050781 -0.10349893569946289 1.0330394506454468
0.4718427360057831 -0.04606679454445839 1.0278769731521606
0.501879870891571 -0.07514624297618866 1.0127578973770142
0.5110843181610107 -0.06355974078178406 1.0269560813903809
-0.3836316168308258 -0.018061958253383636 1.0907269716262817
-0.3855164051055908 -0.08285440504550934 1.0561856031417847
-0.366769403219223 -0.06099399924278259 1.0558570623397827
-0.3907422423362732 -0.12286137044429779 1.0863817930221558
-0.314697265625 -0.013910241425037384 1.0797264575958252
-0.3606843948364258 -0.1167336031794548 1.0693427324295044
-0.20664680004119873 -0.05327487736940384 1.2428128719329834
-0.2220573127269745 -0.1130044236779213 1.1968843936920166
-0.1712360978126526 -0.09871814399957657 0.9557578563690186
-0.17911504209041595 -0.01398606039583683 0.9167509078979492
-0.1324460506439209 0.04977446421980858 0.914059042930603
-0.1692248284816742 0.09750617295503616 1.2393882274627686
-0.1717441827058792 0.09941808134317398 1.174407958984375
-0.1797019988298416 0.1279580295085907 1.1430516242980957
-0.15626437962055206 -0.012376240454614162 0.9506500959396362
-0.21654386818408966 -0.05762515217065811 1.7622530460357666
-0.14514614641666412 -0.08326177299022675 1.3606318235397339
-0.16956734657287598 -0.05918664485216141 1.3000445365905762
-0.11265337467193604 0.14244477450847626 1.0295016765594482
-0.15443049371242523 0.14957904815673828 0.942736029624939
-0.27211496233940125 0.04256724566221237 0.17832347750663757
-0.2875487208366394 0.043768517673015594 0.10386505722999573
-0.18481962382793427 -0.06751071661710739 1.7433841228485107
-0.17310945689678192 -0.05392255634069443 1.6806762218475342
-0.14271925389766693 -0.18371522426605225 1.2130662202835083
-0.1456262618303299 -0.1931678056716919 1.1823726892471313
-0.15209445357322693 -0.21407562494277954 1.1727300882339478
-0.15106962621212006 0.04524186998605728 1.3723114728927612
-0.13926275074481964 0.03987017273902893 1.3677579164505005
-0.11695212125778198 -0.18970887362957 1.2350643873214722
-0.13403481245040894 -0.09027060866355896 1.2069191932678223
-0.24610890448093414 -0.02517067827284336 0.20920121669769287
-0.2484656423330307 -0.0008476290386170149 0.25077131390571594
-0.10777415335178375 0.08273289352655411 1.230590581893921
-0.1498192846775055 -0.12905153632164001 1.469298243522644
-0.14754678308963776 -0.12382963299751282 1.4432225227355957
-0.1351671814918518 -0.11734716594219208 1.4176959991455078
-0.15066906809806824 -0.11792217195034027 1.4196434020996094
-0.14783181250095367 -0.13115036487579346 1.3990858793258667
-0.14210572838783264 -0.12436343729496002 0.7903639078140259
-0.15838505327701569 -0.09219164401292801 0.7721240520477295
-0.11928561329841614 0.20818978548049927 1.0370699167251587
-0.11501528322696686 0.199944406747818 1.0934877395629883
-0.10790742188692093 -0.17514684796333313 1.2332570552825928
-0.12823450565338135 -0.1015901267528534 0.8563337326049805
-0.23802819848060608 0.08685573935508728 0.22456716001033783
-0.24408891797065735 0.1137453094124794 0.1983904391527176
-0.14164577424526215 -0.18621239066123962 0.8523256182670593
-0.12536710500717163 0.15308928489685059 1.2081018686294556
-0.14053946733474731 -0.18823760747909546 1.6710164546966553
-0.13293898105621338 -0.07016067206859589 1.5566775798797607
-0.12027714401483536 0.02826399728655815 1.5152289867401123
-0.11209122836589813 -0.006351526826620102 1.576326608657837
-0.13486114144325256 -0.015306321904063225 1.551210880279541
-0.1276623159646988 0.011293653398752213 1.4628584384918213
-0.08008140325546265 0.06748446077108383 1.5519633293151855
-0.11267273873090744 -0.11644585430622101 1.511015772819519
-0.09302245080471039 0.04398949444293976 0.9704446196556091
-0.14297699928283691 -0.04755214601755142 1.8519781827926636
-0.15037158131599426 -0.05377393588423729 1.8452887535095215
-0.15629270672798157 -0.06973592936992645 1.8352562189102173
-0.03626061975955963 0.01961544156074524 1.4411207437515259
-0.11401062458753586 0.06357282400131226 1.4206173419952393
-0.1832543909549713 0.09226749837398529 0.1224304735660553
-0.07458745688199997 0.12181846052408218 1.3488023281097412
-0.10243749618530273 -0.19453516602516174 1.575079321861267
-0.15756343305110931 -0.11012682318687439 0.40535828471183777
-0.07692116498947144 -0.0011202730238437653 1.5099692344665527
-0.08420469611883163 -0.06231258064508438 1.5049399137496948
-0.06406877189874649 0.08221987634897232 1.4652957916259766
-0.04243085905909538 0.05488564819097519 0.8440001010894775
-0.161861389875412 -0.0376385860145092 0.38101691007614136
-0.06428064405918121 0.1888662725687027 0.938957929611206
-0.03880826756358147 0.040138233453035355 1.0354044437408447
-0.08255136013031006 -0.20409537851810455 1.2299108505249023
-0.07872254401445389 -0.17130987346172333 1.1415895223617554
-0.1529119312763214 -0.057618774473667145 0.3512272536754608
-0.14312388002872467 -0.05066310986876488 0.28946495056152344
-0.16799934208393097 -0.005647622514516115 0.309317409992218
-0.07119014859199524 -0.02636078931391239 1.5378097295761108
-0.0685340017080307 -0.16871428489685059 0.6880861520767212
-0.10132499039173126 -0.10856296867132187 0.6385760307312012
-0.05624235421419144 0.2181449830532074 1.0793489217758179
-0.05820707976818085 0.22049126029014587 0.9885793924331665
-0.025184594094753265 -0.20731477439403534 1.1615498065948486
-0.16561657190322876 0.038280270993709564 0.18594971299171448
-0.054134123027324677 0.16369464993476868 0.9822430610656738
-0.05398625507950783 0.1323351413011551 1.022728443145752
-0.00045995786786079407 -0.007963543757796288 1.521006464958191
-0.06805772334337234 -0.17918598651885986 1.3868519067764282
-0.016176342964172363 0.14160704612731934 1.3249742984771729
0.018321383744478226 0.02178756147623062 1.4288685321807861
-0.006275888532400131 -0.027975723147392273 1.5309172868728638
0.006457865238189697 0.16661852598190308 0.9882072806358337
0.0273795984685421 0.16549253463745117 0.9380761981010437
-0.006436513736844063 -0.19090306758880615 1.3788907527923584
0.008412782102823257 0.04223101586103439 1.0297297239303589
-0.0025833200197666883 -0.20555076003074646 1.1026214361190796
0.06771811842918396 0.12246362864971161 1.3508497476577759
0.026124170050024986 -0.055626917630434036 1.3159769773483276
0.047528479248285294 0.07466761767864227 1.4749454259872437
0.020454876124858856 0.015599943697452545 1.4740992784500122
0.04394727572798729 -0.04520091041922569 1.223770022392273
0.03983327001333237 0.10269849002361298 0.9071376323699951
0.013003252446651459 -0.07756898552179337 1.7902785539627075
0.1561003029346466 -0.12222949415445328 0.15934190154075623
0.16369754076004028 -0.10507985949516296 0.13577353954315186
0.1422564685344696 -0.08109042793512344 0.2134675532579422
-0.004515588283538818 -0.21742329001426697 1.6876802444458008
0.06803419440984726 -0.13346122205257416 0.7025399804115295
0.0890071764588356 0.015357840806245804 1.4483083486557007
0.04783899337053299 -0.1314374953508377 1.52140474319458
0.09208223223686218 -0.13669708371162415 1.4505019187927246
0.045080360025167465 -0.09300528466701508 1.4258582592010498
0.12147169560194016 -0.14891701936721802 0.45059484243392944
0.15009260177612305 -0.21270743012428284 0.2980320155620575
0.1647009253501892 -0.11003393679857254 0.3152162432670593
0.08765432983636856 0.1688660979270935 0.9927937388420105
0.06855600327253342 0.201499342918396 0.957097053527832
0.09412047266960144 -0.1956183910369873 0.7711598873138428
0.1112016960978508 -0.1573653221130371 0.6563524603843689
0.02098008431494236 -0.13273322582244873 1.784912347793579
0.06955213844776154 -0.13787809014320374 1.7421026229858398
0.11851084977388382 -0.2562626898288727 0.5847362279891968
0.03650028258562088 -0.06796901673078537 1.8059741258621216
0.06586401164531708 -0.08199413120746613 1.7533875703811646
0.08724790811538696 -0.08985570073127747 1.139344573020935
0.09380801022052765 -0.07623940706253052 1.1081074476242065
0.08544779568910599 -0.15109559893608093 1.0891493558883667
0.0573870874941349 -0.18453246355056763 1.6794925928115845
0.06580638885498047 -0.11971672624349594 1.5567095279693604
0.06007181107997894 -0.16788865625858307 1.5632327795028687
0.13156291842460632 0.1628793478012085 0.9485946893692017
0.0978509858250618 -0.15514977276325226 1.2858527898788452
0.11911492794752121 -0.20849990844726562 1.2256944179534912
0.10220220685005188 -0.12745831906795502 1.2406713962554932
0.21434706449508667 -0.09184084087610245 0.2754131257534027
0.2012256532907486 -0.17687630653381348 0.23937666416168213
0.2228500247001648 -0.16306892037391663 0.23120252788066864
0.07771250605583191 -0.05537625402212143 1.7729640007019043
0.11273669451475143 -0.17154331505298615 1.2830984592437744
0.19204430282115936 -0.16185574233531952 0.49521031975746155
0.16588470339775085 -0.2201191931962967 0.5338959097862244
0.2037273347377777 -0.1684853583574295 0.4439634084701538
0.1082237958908081 -0.15378357470035553 1.4404364824295044
0.09364879131317139 -0.14983314275741577 1.433832049369812
0.11900658160448074 -0.11883208155632019 1.4061287641525269
0.11910548061132431 0.0743304193019867 0.8991426229476929
0.11798839271068573 -0.11050105094909668 0.8511372208595276
0.23220090568065643 -0.14781036972999573 0.33971112966537476
0.23965083062648773 -0.17630138993263245 0.33783286809921265
0.12711632251739502 -0.10372859239578247 1.3998068571090698
0.15455229580402374 0.07419043034315109 1.2601292133331299
0.15795175731182098 0.10899308323860168 1.2306276559829712
0.13909587264060974 -0.24520739912986755 1.1025044918060303
0.15926861763000488 -0.043281927704811096 0.9707236289978027
0.16156646609306335 -0.10077935457229614 0.9646577835083008
0.19797097146511078 -0.03849610313773155 1.2492897510528564
0.3142477869987488 -0.08931884914636612 1.1191741228103638
0.3113321363925934 -0.031689755618572235 1.1254065036773682
0.3277677595615387 -0.15256816148757935 1.1684507131576538
-0.3699364960193634 -0.0234652329236269 1.0562697649002075
-0.39928683638572693 -0.08467595279216766 1.0230450630187988
-0.2934575378894806 -0.11748743057250977 1.1163175106048584
-0.3030725419521332 -0.14083045721054077 1.1620792150497437
-0.2549513280391693 -0.08155187964439392 1.1385273933410645
-0.23837146162986755 -0.0390731543302536 1.1734247207641602
-0.19460132718086243 -0.14959698915481567 0.8715672492980957
-0.1873888522386551 0.14542719721794128 0.9890953302383423
-0.18071463704109192 0.12221664190292358 1.1000093221664429
-0.1656845510005951 -0.2532942295074463 1.0585718154907227
-0.13351942598819733 -0.16429507732391357 0.9545488357543945
-0.25703859329223633 -0.05135010927915573 0.31579527258872986
-0.2372937947511673 -0.10166218131780624 0.3111751675605774
-0.1705310046672821 -0.08089850842952728 0.5256651639938354
-0.15260380506515503 -0.19310390949249268 0.8573755025863647
-0.15656669437885284 -0.14304305613040924 0.6248621940612793
