0.7153390049934387 -0.06177994981408119 1.3075505495071411
0.7021113038063049 -0.07971746474504471 1.306572437286377
0.7621870636940002 -0.0965663492679596 1.1089569330215454
0.7398732900619507 -0.1161491721868515 1.1331344842910767
0.7599170207977295 -0.12879693508148193 1.0833640098571777
0.7705766558647156 -0.10786415636539459 1.112547516822815
0.7171291708946228 -0.14393004775047302 1.0958160161972046
0.7743467688560486 -0.15874558687210083 1.049022912979126
0.764111340045929 -0.1712580919265747 1.0551813840866089
-0.4977598786354065 0.06932191550731659 0.8368914723396301
-0.46894311904907227 0.05642831325531006 0.8067771196365356
-0.4680071175098419 0.03805166482925415 0.7744513750076294
-0.46468761563301086 0.03962917998433113 0.8149451613426208
-0.43189364671707153 0.045047152787446976 0.743935227394104
-0.4193541407585144 0.022413715720176697 0.7436145544052124
-0.5132646560668945 0.13056600093841553 0.8904294967651367
-0.4994989335536957 0.0821973979473114 0.9440559148788452
-0.4827883839607239 0.07566536962985992 0.8868552446365356
-0.47099196910858154 0.07010158896446228 0.8843050003051758
-0.43930643796920776 0.05297614261507988 0.8148484230041504
-0.42219069600105286 0.019150689244270325 0.7929933667182922
-0.4316762685775757 0.007065974175930023 0.7561051845550537
-0.3827798366546631 0.004025500267744064 0.6591743230819702
-0.39086756110191345 -0.010300667956471443 0.6839208006858826
-0.3548908233642578 -0.0417475625872612 0.6545658707618713
-0.4283921718597412 0.029785964637994766 0.8542847037315369
-0.41402560472488403 0.03276416286826134 0.7852544784545898
-0.36367231607437134 0.01345667615532875 0.6554129123687744
-0.4065450429916382 0.022230364382267 0.7752803564071655
-0.41234394907951355 0.03531155362725258 0.8028242588043213
-0.40585803985595703 0.006010528653860092 0.7566050291061401
-0.39065706729888916 -0.020243600010871887 0.763343095779419
-0.4755959212779999 0.1066584661602974 1.0805484056472778
-0.32162201404571533 -0.10133090615272522 0.6420510411262512
-0.28748154640197754 -0.1139054149389267 0.5611610412597656
-0.5006738901138306 0.09147295355796814 1.1963865756988525
-0.5046440362930298 0.09485619515180588 1.111301302909851
-0.45844390988349915 0.09279127418994904 1.0564056634902954
-0.5261423587799072 0.10322865843772888 1.2151806354522705
-0.5142288208007812 0.14956620335578918 1.149860143661499
-0.3841535151004791 -0.048537567257881165 0.8487521409988403
-0.5396005511283875 0.16524909436702728 1.353592872619629
-0.49147748947143555 0.13797254860401154 1.2948538064956665
-0.27588048577308655 0.0044514499604702 0.688255250453949
-0.2536832392215729 -0.0036222636699676514 0.5993722677230835
-0.3429279923439026 0.036388032138347626 0.8270689845085144
-0.22813266515731812 -0.025653637945652008 0.5944033265113831
-0.3770262598991394 0.03854476287961006 1.0029765367507935
-0.3831540644168854 0.014467399567365646 0.9393836259841919
-0.343100905418396 0.03389758989214897 0.8963325023651123
-0.3289743661880493 0.03789577633142471 0.9487823247909546
-0.3257630467414856 0.059058599174022675 0.9478071331977844
-0.36378830671310425 0.04279997944831848 1.0287491083145142
-0.48242977261543274 0.10825828462839127 1.4249523878097534
-0.5123775005340576 0.1544489860534668 1.4490951299667358
-0.33335739374160767 0.07558947056531906 1.0478416681289673
-0.4154723286628723 0.10897596180438995 1.2126085758209229
-0.42799168825149536 0.080681212246418 1.1957330703735352
-0.4552367925643921 0.10886342823505402 1.5384602546691895
-0.44723233580589294 0.10310336947441101 1.4110380411148071
-0.4809015393257141 0.1430976539850235 1.513256311416626
-0.35314643383026123 0.07093734294176102 1.139890193939209
-0.35489150881767273 0.10430049896240234 1.1570371389389038
-0.3412543535232544 0.07301987707614899 1.106007695198059
-0.3300655484199524 0.07969249784946442 1.0961763858795166
-0.39627403020858765 0.12695786356925964 1.3496159315109253
-0.36197662353515625 0.11777706444263458 1.2863713502883911
-0.3455403447151184 0.08999523520469666 1.4668456315994263
-0.2504637539386749 0.07798074185848236 1.0975950956344604
-0.407119482755661 0.13157126307487488 1.5545361042022705
-0.2683431804180145 0.06921130418777466 1.4455642700195312
-0.305512011051178 0.113393634557724 1.4371646642684937
-0.24805474281311035 0.06762775778770447 1.3742066621780396
-0.2343689501285553 0.09792155027389526 1.3679611682891846
-0.20530197024345398 0.08423084765672684 1.2793452739715576
-0.17470908164978027 0.0655730739235878 1.2407370805740356
0.2197805643081665 0.01487801969051361 1.2203468084335327
0.19550229609012604 -0.006882506888359785 1.233288049697876
0.23765891790390015 -0.0029749139212071896 1.1856741905212402
0.23961877822875977 0.015522889792919159 1.3689981698989868
0.20807860791683197 -0.016008315607905388 1.2909351587295532
0.21947047114372253 0.013974280096590519 1.2995872497558594
0.28229573369026184 0.002211599610745907 1.25182044506073
0.29229509830474854 -0.02541292831301689 1.2492231130599976
0.3052292466163635 -0.003987309522926807 1.1550116539001465
0.32161077857017517 -0.010644962079823017 1.1292611360549927
0.30071723461151123 -0.016662754118442535 1.159088373184204
0.31920352578163147 -0.021327462047338486 1.138848066329956
0.3510766923427582 -0.009939255192875862 1.1456445455551147
0.2744203805923462 0.02022906020283699 1.537032961845398
0.27606916427612305 -0.013187915086746216 1.4985082149505615
0.3927084803581238 -0.018608666956424713 1.1269197463989258
0.37109851837158203 -0.03955777734518051 1.139004111289978
0.3456117510795593 -0.020223373547196388 1.14975905418396
0.3847249150276184 -0.024069447070360184 1.124011754989624
0.4223569631576538 -0.034878920763731 1.0900896787643433
0.313370943069458 -0.02144264429807663 1.404915452003479
0.4387895464897156 -0.024360135197639465 1.228173017501831
0.38678812980651855 -0.051425300538539886 1.162718415260315
0.39129120111465454 -0.028551926836371422 1.1775352954864502
0.40578389167785645 -0.006687751971185207 1.367275357246399
0.41866248846054077 -0.04649270698428154 1.2184107303619385
0.4706798791885376 -0.03734229505062103 1.1421282291412354
0.45299032330513 -0.023771416395902634 1.1902616024017334
0.4552813768386841 -0.04381241649389267 1.1628978252410889
0.44890347123146057 -0.07004562020301819 1.1900043487548828
0.41676485538482666 -0.014120986685156822 1.4192489385604858
0.4482114017009735 -0.026149963960051537 1.301849365234375
0.4258846640586853 -0.05300296097993851 1.322102665901184
0.3972327709197998 -0.03337694704532623 1.5576947927474976
0.48633211851119995 -0.0498385988175869 1.1854043006896973
0.42634087800979614 -0.005266163498163223 1.5306304693222046
0.44776248931884766 -0.020996831357479095 1.4727362394332886
0.44812947511672974 -0.044500913470983505 1.5245193243026733
0.5741763710975647 -0.11211104691028595 0.9891226291656494
0.4843052923679352 -0.06186361610889435 1.4536473751068115
0.5193237066268921 -0.06487877666950226 1.4144980907440186
0.5131188035011292 -0.03443032503128052 1.3581397533416748
0.5223846435546875 -0.08690303564071655 1.2648266553878784
0.5351600646972656 -0.05363206937909126 1.2601855993270874
0.536237359046936 -0.03659920394420624 1.3747552633285522
0.5534084439277649 -0.050225164741277695 1.3121191263198853
0.581393837928772 -0.07595973461866379 1.2465614080429077
0.5664173364639282 -0.037403594702482224 1.4024863243103027
0.5746201276779175 -0.06552333384752274 1.3734800815582275
0.6186209917068481 -0.2340186983346939 0.8444797396659851
0.6515090465545654 -0.25257521867752075 0.7031226754188538
0.6989024877548218 -0.19874988496303558 0.6878725290298462
0.6592247486114502 -0.20588241517543793 0.7247565388679504
0.6362569332122803 -0.14459791779518127 1.0523276329040527
0.6419832706451416 -0.14810532331466675 1.0094345808029175
0.6278820037841797 -0.07287249714136124 1.2436392307281494
0.7303916215896606 -0.14208495616912842 0.728312075138092
0.7075493335723877 -0.1392444223165512 0.803054928779602
0.7234596014022827 -0.1473216712474823 1.0043628215789795
0.7526374459266663 -0.16747094690799713 0.9073114395141602
0.7021179795265198 -0.16830560564994812 0.9129958152770996
0.7322922348976135 -0.19413553178310394 0.9240978360176086
-0.4570654332637787 0.02365121617913246 0.7173759937286377
-0.45666640996932983 0.0068415068089962006 0.7314190864562988
-0.559291660785675 0.14604158699512482 1.087005853652954
-0.5540659427642822 0.1620868444442749 1.0910146236419678
-0.5307503342628479 0.13791313767433167 1.0439453125
-0.47884583473205566 0.09206651151180267 0.9457413554191589
-0.4676792025566101 0.0913495123386383 1.000749111175537
-0.47496724128723145 0.0539858415722847 0.9054585695266724
-0.4350559711456299 0.06621488928794861 0.9175657629966736
-0.4855426549911499 0.07134208083152771 1.0534460544586182
-0.5405060052871704 0.1232360303401947 1.2182209491729736
-0.5262515544891357 0.12322795391082764 1.1808061599731445
-0.3040778338909149 0.014184065163135529 0.730667233467102
-0.34831613302230835 0.02312186360359192 0.674681544303894
-0.2906370759010315 -0.00019857287406921387 0.6096275448799133
-0.5070868730545044 0.1399019956588745 1.220857858657837
-0.551298975944519 0.13255827128887177 1.2663822174072266
-0.37184637784957886 -0.019426457583904266 0.8092936277389526
-0.35804349184036255 -0.03608417138457298 0.7894845008850098
-0.30202716588974 -0.06477388739585876 0.6315316557884216
-0.27998268604278564 -0.08873507380485535 0.5817854404449463
-0.38415610790252686 0.059414077550172806 0.9229269027709961
-0.5731597542762756 0.15313784778118134 1.3717461824417114
-0.40399253368377686 0.06487491726875305 0.9668612480163574
-0.3617744445800781 0.05747692659497261 0.8980894088745117
-0.42798006534576416 0.03765236586332321 0.9986534118652344
-0.42208921909332275 0.02693650871515274 0.9770510196685791
-0.37447014451026917 0.06664558500051498 0.9842360019683838
-0.44455695152282715 0.06367087364196777 1.0892443656921387
-0.3358555734157562 0.030820395797491074 0.8530867099761963
-0.3061516284942627 0.010991103947162628 0.791309118270874
-0.4673885107040405 0.11650890111923218 1.1578963994979858
-0.41484880447387695 0.09037016332149506 1.1028600931167603
-0.412169873714447 0.059251755475997925 1.071091890335083
-0.5251133441925049 0.13660892844200134 1.436366319656372
-0.49584922194480896 0.09205681830644608 1.2454147338867188
-0.40705955028533936 0.07022789120674133 1.1533846855163574
-0.5103281736373901 0.1213739812374115 1.5030453205108643
-0.4433661103248596 0.1355321705341339 1.3978393077850342
-0.45215338468551636 0.09230110049247742 1.2830308675765991
-0.34335118532180786 0.08204850554466248 1.0912675857543945
-0.36804407835006714 0.05855517089366913 1.1047594547271729
-0.42890310287475586 0.12747177481651306 1.2850898504257202
-0.3938690423965454 0.11273658275604248 1.2213313579559326
-0.388651967048645 0.13121256232261658 1.467667579650879
-0.37408873438835144 0.0877639576792717 1.2866169214248657
-0.3221138119697571 0.06970620155334473 1.2046552896499634
-0.3047190308570862 0.09342282265424728 1.200898289680481
-0.29300743341445923 0.08143921941518784 1.1369348764419556
-0.2843063473701477 0.06635898351669312 1.2416338920593262
-0.26462265849113464 0.08996911346912384 1.1429425477981567
-0.3600165843963623 0.1258867233991623 1.3793028593063354
-0.3157132863998413 0.08607819676399231 1.3454192876815796
-0.22116771340370178 0.07367545366287231 1.1377395391464233
-0.20146559178829193 0.07193823158740997 1.1641312837600708
-0.22764942049980164 0.09063050895929337 1.4433428049087524
-0.22010712325572968 0.05628753826022148 1.2839293479919434
0.2693132162094116 -0.021583911031484604 1.1702626943588257
0.18334412574768066 0.01904357597231865 1.4529756307601929
0.3273317515850067 0.002923879772424698 1.2137161493301392
0.321900874376297 -0.023360326886177063 1.2081080675125122
0.3273690938949585 -0.0019227610900998116 1.1427104473114014
0.354542076587677 -0.0026223566383123398 1.3311407566070557
0.3651476502418518 -0.04053759574890137 1.2534971237182617
0.43106648325920105 -0.027718614786863327 1.0960935354232788
0.37959885597229004 0.0019452497363090515 1.489215612411499
0.4426270127296448 -0.06332665681838989 1.2195955514907837
0.47943198680877686 -0.03121505305171013 1.4356132745742798
0.5937142372131348 -0.12155824154615402 0.898707926273346
0.6154003143310547 -0.11972013860940933 0.8807632923126221
0.6284574866294861 -0.1345866620540619 0.7666859030723572
0.6395871043205261 -0.14024846255779266 0.6864480972290039
0.6274529695510864 -0.15676580369472504 0.7018735408782959
0.5739415884017944 -0.07636084407567978 1.1807758808135986
0.6458703279495239 -0.12140651047229767 0.7672720551490784
0.6551397442817688 -0.13011589646339417 0.6931986212730408
0.5838289260864258 -0.17056682705879211 0.9618881940841675
0.574904203414917 -0.17894408106803894 1.009103775024414
0.5658613443374634 -0.1977575272321701 0.9818326830863953
0.5980491638183594 -0.1846633404493332 0.9098683595657349
0.6729122996330261 -0.12440738826990128 0.7948583364486694
0.683704674243927 -0.13808545470237732 0.7099561095237732
0.6403828859329224 -0.12849363684654236 0.9700129628181458
0.6021544337272644 -0.17357996106147766 0.9546441435813904
0.6344997882843018 -0.19371020793914795 0.8989450931549072
0.5974435806274414 -0.19326753914356232 0.9644491672515869
0.6170170307159424 -0.22414879500865936 0.8932752013206482
0.6022499203681946 -0.1560334712266922 1.0295727252960205
0.6483092308044434 -0.17102648317813873 0.9768086671829224
0.6753436923027039 -0.2105415314435959 0.7378802299499512
0.6629902124404907 -0.2427995800971985 0.6767305135726929
0.7078155279159546 -0.17142513394355774 0.6798955202102661
0.6458811163902283 -0.1197318285703659 1.0494850873947144
0.6754248142242432 -0.15223288536071777 0.833073616027832
0.6579592227935791 -0.22693416476249695 0.807626485824585
0.6784619092941284 -0.21641701459884644 0.7964847087860107
0.7099062204360962 -0.20842137932777405 0.7111420631408691
0.7055686116218567 -0.14337487518787384 0.9825668931007385
0.7265815138816833 -0.14088840782642365 0.9529024958610535
0.7403641939163208 -0.18864929676055908 0.7756828665733337
0.7311466932296753 -0.19107097387313843 0.7959818840026855
0.6375852823257446 -0.1005321517586708 1.1530084609985352
0.7322015762329102 -0.0976390615105629 1.103615641593933
0.6935523152351379 -0.11612261831760406 1.1022698879241943
0.6736811399459839 -0.07499100267887115 1.297332763671875
0.6754907369613647 -0.08315091580152512 1.24993896484375
0.6733655333518982 -0.07904815673828125 1.245827317237854
0.6752564907073975 -0.09936633706092834 1.2292768955230713
0.7130507230758667 -0.0962923914194107 1.1634122133255005
0.7019771337509155 -0.1044476255774498 1.1850404739379883
-0.5060904622077942 0.0986681878566742 0.8867233991622925
-0.5078387260437012 0.0761215090751648 0.90240478515625
-0.4989333152770996 0.05348631739616394 0.8729907274246216
-0.3011239767074585 -0.045128319412469864 0.5992614030838013
-0.29912489652633667 -0.09140019863843918 0.5622886419296265
-0.3585299253463745 -0.02953592874109745 0.7890682220458984
-0.3635983467102051 -0.043182652443647385 0.7339426279067993
-0.37219756841659546 -0.07040023803710938 0.7743756175041199
-0.35120922327041626 -0.0748857855796814 0.6629747152328491
-0.31671249866485596 -0.055683836340904236 0.6760887503623962
-0.30538904666900635 -0.09048895537853241 0.642753005027771
-0.4080789387226105 0.006768546998500824 0.9259836673736572
-0.38687750697135925 -0.025790981948375702 0.8821905255317688
-0.40002936124801636 -0.005403496325016022 0.880905270576477
-0.33246463537216187 -0.0784219354391098 0.7138564586639404
-0.3248733580112457 -0.05244984105229378 0.7132399082183838
-0.36312052607536316 -0.05528975650668144 0.8108161687850952
-0.3464909791946411 -0.039329469203948975 0.7610831260681152
-0.43564409017562866 0.09492436051368713 1.0663843154907227
-0.34017688035964966 0.05219706520438194 0.9169276356697083
-0.3113135099411011 0.03939802944660187 0.9575971364974976
-0.3049420118331909 0.06090943515300751 0.9557987451553345
-0.39465177059173584 0.05370771512389183 1.1039875745773315
-0.33353105187416077 0.06083507463335991 1.0460233688354492
-0.3124730587005615 0.06542220711708069 0.9900768995285034
-0.30865633487701416 0.04543798789381981 0.981175422668457
-0.36139973998069763 0.08870167285203934 1.3466190099716187
-0.303971529006958 0.08269365131855011 1.0775419473648071
-0.29313427209854126 0.05376336723566055 1.1234049797058105
-0.2725307047367096 0.08293081074953079 1.0807037353515625
-0.2245958298444748 0.059888578951358795 1.1295098066329956
-0.23916175961494446 0.07657011598348618 1.096334457397461
-0.19144012033939362 0.06304232776165009 1.1927188634872437
0.4966306686401367 -0.050928182899951935 1.0965423583984375
0.4443932771682739 -0.021566560491919518 1.6045562028884888
0.571008026599884 -0.08460664004087448 1.0646599531173706
0.5232309103012085 -0.05511908605694771 1.0406795740127563
0.5398471355438232 -0.09557187557220459 1.0394036769866943
0.5535621643066406 -0.07850737869739532 1.0306642055511475
0.5182506442070007 -0.05438496172428131 1.2419798374176025
0.549776554107666 -0.1302565187215805 1.0689785480499268
0.5692720413208008 -0.14558593928813934 1.013487696647644
0.5526783466339111 -0.16623462736606598 1.0361261367797852
0.5579555034637451 -0.16967199742794037 1.0049753189086914
0.5797725319862366 -0.159444659948349 0.9496116042137146
0.6304393410682678 -0.17737288773059845 0.7443462014198303
0.6455662250518799 -0.18139058351516724 0.6921559572219849
0.6726133227348328 -0.17225755751132965 0.6820987462997437
0.5990780591964722 -0.11556872725486755 1.0462764501571655
0.6147006750106812 -0.11946383118629456 1.0067306756973267
0.5975208282470703 -0.17692533135414124 0.9852924346923828
0.5942875146865845 -0.18215040862560272 0.9436790943145752
0.5829551219940186 -0.21450304985046387 0.9143633246421814
0.5395469069480896 -0.08056531846523285 1.3588659763336182
0.6650000214576721 -0.14461661875247955 0.9785058498382568
0.6948245167732239 -0.15578877925872803 0.9332159757614136
0.6454467177391052 -0.1364482045173645 1.1082488298416138
0.7342127561569214 -0.22270941734313965 0.7595034241676331
0.7366229295730591 -0.1822240948677063 0.7215703129768372
0.6897135972976685 -0.16814135015010834 0.9645192623138428
0.6970210671424866 -0.18536219000816345 0.9123257994651794
0.7600969076156616 -0.12979266047477722 1.0969128608703613
0.7175098657608032 -0.16508793830871582 1.0588630437850952
0.73989337682724 -0.1447894275188446 1.050612211227417
0.7623966932296753 -0.18490613996982574 0.9185636639595032
0.758794367313385 -0.16103461384773254 0.9241009950637817
-0.5399264693260193 0.1309436559677124 1.0486799478530884
-0.31997567415237427 -0.034462712705135345 0.5402671098709106
-0.419724702835083 0.004465028643608093 0.8636266589164734
-0.40064865350723267 -0.018569335341453552 0.8362987041473389
-0.44019222259521484 0.03687484934926033 0.905286967754364
-0.5350701212882996 0.13364166021347046 1.3626339435577393
-0.41922879219055176 0.07202783972024918 0.938511848449707
-0.4044463038444519 0.04955751821398735 0.9085050821304321
-0.26406967639923096 -0.049597274512052536 0.579785943031311
-0.24628520011901855 -0.022367022931575775 0.5783720016479492
-0.3719567060470581 -0.00395791232585907 0.8822267055511475
-0.3600015640258789 -0.026994116604328156 0.8326717615127563
-0.36852359771728516 -0.02239399030804634 0.8761805891990662
-0.5152867436408997 0.11185592412948608 1.316526174545288
-0.47087883949279785 0.12301086634397507 1.207614779472351
-0.2446615993976593 0.09209588170051575 1.2020413875579834
0.16657967865467072 0.011282211169600487 1.2565542459487915
0.15375296771526337 -0.004557400941848755 1.2656352519989014
0.2712046802043915 -0.025044020265340805 1.2140592336654663
0.27804723381996155 -0.009284725412726402 1.1379330158233643
0.3450236916542053 -0.00896446406841278 1.2619961500167847
0.4171295464038849 -0.0330636203289032 1.1445655822753906
0.4113030433654785 -0.048458896577358246 1.1288002729415894
0.46667271852493286 -0.06115167960524559 1.2904224395751953
0.48269984126091003 -0.0727270096540451 1.373523235321045
0.5169591903686523 -0.08711478114128113 1.1871426105499268
0.5799334645271301 -0.20289967954158783 0.9164406061172485
0.6136583089828491 -0.19150152802467346 0.8666037917137146
0.6099149584770203 -0.22721974551677704 0.8251504898071289
0.6292673945426941 -0.20472292602062225 0.7680959701538086
0.6026474833488464 -0.13183146715164185 1.1115354299545288
0.6708572506904602 -0.2497522234916687 0.70064777135849
-0.4916228652000427 0.062160782516002655 0.8950626254081726
-0.29280877113342285 -0.010142596438527107 0.7351271510124207
-0.27043616771698 -0.021936148405075073 0.6783364415168762
-0.5437528491020203 0.1399834156036377 1.4708067178726196
-0.29631608724594116 0.07442575693130493 1.0648443698883057
-0.28215792775154114 0.07223515212535858 1.0342659950256348
-0.2683781385421753 0.06303706765174866 1.0691931247711182
-0.22014029324054718 0.07171472162008286 1.1068328619003296
-0.15728095173835754 0.05188506841659546 1.2643332481384277
-0.16639727354049683 0.03488712012767792 1.2673816680908203
0.3969498574733734 -0.04038652032613754 1.4205998182296753
0.4199097752571106 -0.0467887744307518 1.4755874872207642
0.5976963043212891 -0.10231658816337585 1.0758322477340698
0.596980094909668 -0.1000356674194336 0.9982671141624451
0.5457152128219604 -0.10867074131965637 1.1857616901397705
0.5947660207748413 -0.16559948027133942 0.8906728625297546
0.6148543357849121 -0.12027888745069504 1.1580556631088257
0.5987935066223145 -0.10096922516822815 1.2442119121551514
0.6927245259284973 -0.14168192446231842 1.0807180404663086
0.6932888031005859 -0.158312126994133 1.0157740116119385
0.7164656519889832 -0.20195508003234863 0.8488780856132507
0.6778243780136108 -0.2217353731393814 0.7591773271560669
0.7351602911949158 -0.1832774430513382 0.8391947150230408
-0.31651410460472107 -0.055094946175813675 0.5702516436576843
-0.27270054817199707 -0.03028557449579239 0.5657010078430176
-0.3642977476119995 -0.03595490753650665 0.7836960554122925
-0.3103219270706177 -0.05705254524946213 0.6308863162994385
-0.2680908441543579 -0.056099992245435715 0.6235459446907043
-0.3596954345703125 0.03236455097794533 0.9400392770767212
-0.2655704915523529 0.06559978425502777 1.21412193775177
-0.25489115715026855 0.06324464082717896 1.1572377681732178
-0.2559016942977905 0.07599147409200668 1.1310380697250366
-0.22738972306251526 0.05493323504924774 1.2071354389190674
-0.2054315209388733 0.04308620095252991 1.1403571367263794
-0.20064395666122437 0.057302989065647125 1.1280930042266846
0.2825888395309448 0.004362155683338642 1.1437307596206665
0.5295417904853821 -0.10723045468330383 1.1088865995407104
0.5639324188232422 -0.1373811662197113 1.1111884117126465
0.5772695541381836 -0.15234749019145966 1.066147804260254
0.68509840965271 -0.19803279638290405 0.8968643546104431
-0.37682926654815674 -0.012119833379983902 0.6356552839279175
-0.3688617944717407 -0.04210047051310539 0.6060923337936401
-0.3628036379814148 -0.029737044125795364 0.6019408702850342
-0.3920222222805023 0.04374400153756142 0.8274187445640564
-0.343595415353775 -0.018937643617391586 0.8009122014045715
-0.3536908030509949 -0.01868348941206932 0.8528150320053101
-0.18942508101463318 0.04936446249485016 1.2272977828979492
-0.15075643360614777 0.040373921394348145 1.3389568328857422
-0.13754698634147644 0.04647080600261688 1.3280370235443115
0.15464308857917786 -0.01374858245253563 1.2787715196609497
0.20747840404510498 0.017215095460414886 1.6752015352249146
0.38053587079048157 0.012582972645759583 1.621628999710083
0.40396934747695923 -0.006069216877222061 1.6414052248001099
0.46159452199935913 -0.021461326628923416 1.5729175806045532
0.6289253830909729 -0.06785744428634644 1.3205053806304932
0.6550419926643372 -0.07140577584505081 1.3576852083206177
0.6569110155105591 -0.054039791226387024 1.2929383516311646
0.6617610454559326 -0.07967887818813324 1.2788512706756592
0.6856105923652649 -0.06417957693338394 1.293441891670227
-0.5349310040473938 0.11614011228084564 0.9831345677375793
-0.5230811834335327 0.12649911642074585 0.961155891418457
-0.5789906978607178 0.16649609804153442 1.2267060279846191
-0.5562888979911804 0.16566690802574158 1.2168035507202148
-0.3135232925415039 0.00026058778166770935 0.5862783193588257
-0.2971460819244385 -0.015431215986609459 0.5425153374671936
-0.34070438146591187 -0.053324971348047256 0.6697036027908325
-0.3675940930843353 0.030794750899076462 0.7779219746589661
-0.4251667261123657 0.08424423635005951 0.990123987197876
-0.532946765422821 0.14230738580226898 1.5215593576431274
0.2764132618904114 0.0026839282363653183 1.2087453603744507
0.2939527630805969 0.012851685285568237 1.442678689956665
0.4389311373233795 -0.039003804326057434 1.1635277271270752
0.41581153869628906 -0.012679342180490494 1.28949773311615
0.48535484075546265 -0.05972067639231682 1.0977169275283813
0.506067156791687 -0.07225994765758514 1.0487263202667236
0.48910781741142273 -0.09054867923259735 1.1315851211547852
0.6073786020278931 -0.1382792443037033 0.8462950587272644
0.6167311072349548 -0.15835703909397125 0.8339931964874268
0.6200688481330872 -0.20095176994800568 0.9076288938522339
0.6754906177520752 -0.1246117353439331 1.0777441263198853
0.7189589142799377 -0.14751456677913666 0.8554447889328003
-0.33610299229621887 -0.04011385142803192 0.5755736231803894
-0.29120999574661255 -0.04160227254033089 0.5354061722755432
-0.27216005325317383 0.08289036154747009 1.0368456840515137
-0.23105473816394806 0.08442021906375885 1.1267063617706299
-0.20038174092769623 0.05304286628961563 1.1805652379989624
0.6885082125663757 -0.14600108563899994 0.8885853290557861
0.7251809239387512 -0.19595706462860107 0.6539454460144043
0.7339069247245789 -0.19924212992191315 0.6703827977180481
-0.385640949010849 -0.02367273159325123 0.818895161151886
-0.3140696883201599 -0.015041902661323547 0.7517038583755493
-0.30162185430526733 -0.03823985531926155 0.7068462371826172
0.502253532409668 -0.040862102061510086 1.493430495262146
0.7399812340736389 -0.17743973433971405 0.661883533000946
0.7343494296073914 -0.16971518099308014 0.9803595542907715
-0.2617971897125244 0.09711333364248276 1.2782347202301025
0.705743134021759 -0.135084867477417 1.0722684860229492
-0.32468169927597046 0.007536929100751877 0.824944257736206
0.6393830180168152 -0.23170576989650726 0.714999794960022
0.6971536874771118 -0.13957826793193817 1.0565893650054932
-0.38126248121261597 -0.04644998908042908 0.781447172164917
-0.3683687448501587 -0.14355570077896118 0.9667627811431885
-0.37249383330345154 -0.13973233103752136 0.9791786670684814
-0.3571639060974121 -0.16202551126480103 0.9771701097488403
-0.3632110357284546 -0.16102495789527893 0.9886679649353027
-0.3433402180671692 -0.11122442781925201 1.0366404056549072
-0.34796181321144104 -0.12710942327976227 1.0156854391098022
-0.3386646509170532 -0.11146882176399231 0.9871363043785095
-0.3365601599216461 -0.08679495751857758 1.020990014076233
-0.33623453974723816 -0.14170926809310913 1.0247777700424194
-0.33952584862709045 -0.1724223792552948 1.0137075185775757
-0.32343417406082153 -0.07422485947608948 1.1010245084762573
-0.31778931617736816 -0.16914334893226624 1.0152784585952759
-0.3333381712436676 -0.13349169492721558 1.0124685764312744
-0.3170941472053528 -0.15132096409797668 1.0553271770477295
-0.3193317651748657 -0.1254911869764328 1.043445348739624
-0.3127416670322418 -0.06075559929013252 1.070452332496643
-0.31235915422439575 -0.11605339497327805 1.0444910526275635
-0.314444363117218 -0.12419635057449341 1.0678507089614868
-0.3205992877483368 -0.10126592218875885 1.0963040590286255
-0.33731377124786377 -0.05764014646410942 1.1321818828582764
-0.32621800899505615 -0.11051996052265167 1.1286839246749878
-0.30226272344589233 -0.007874490693211555 1.1601755619049072
-0.31100624799728394 -0.014932719990611076 1.1142091751098633
-0.3275378346443176 -0.06032843515276909 1.1662588119506836
-0.2760336697101593 -0.014175944030284882 1.1044458150863647
-0.2807932496070862 -0.044716909527778625 1.220598578453064
-0.29317736625671387 -0.10582408308982849 1.1774656772613525
-0.2770470082759857 0.005682635121047497 1.147157073020935
-0.24314406514167786 -0.0013800160959362984 1.1599292755126953
-0.2498708963394165 0.005866652354598045 1.2171205282211304
-0.22539904713630676 0.006240826100111008 1.2179789543151855
-0.2203124761581421 -0.0492531955242157 1.2912514209747314
-0.257266640663147 -0.07887330651283264 1.2261039018630981
-0.21675768494606018 0.012274332344532013 1.2632299661636353
-0.2423533946275711 -0.017870863899588585 1.27097487449646
-0.20479656755924225 0.01000162959098816 1.3022451400756836
-0.1900079995393753 0.006242942065000534 1.3379021883010864
-0.18224413692951202 -0.04278334230184555 1.3481316566467285
-0.2086111456155777 -0.08775543421506882 1.2488377094268799
-0.19089792668819427 0.05856922268867493 1.7457902431488037
-0.1411997675895691 0.10915571451187134 1.4075157642364502
-0.13188788294792175 0.06655572354793549 0.8747202157974243
-0.17858563363552094 0.01727973110973835 0.8812770843505859
-0.15518374741077423 -0.07540471851825714 0.886689305305481
-0.19822727143764496 -0.10382317006587982 0.8772130012512207
-0.17531539499759674 0.06819812953472137 1.6503102779388428
-0.19647301733493805 0.04324658587574959 1.7685116529464722
-0.16562625765800476 0.051284439861774445 1.7164031267166138
-0.14785851538181305 0.0808989405632019 1.6648824214935303
-0.15771259367465973 0.06334647536277771 1.6153714656829834
-0.1161174401640892 0.0007438603788614273 1.0459126234054565
-0.15351995825767517 -0.0515805222094059 1.009606122970581
-0.1595967561006546 -0.12094353884458542 0.9979383945465088
-0.152191162109375 0.04276835173368454 1.544555425643921
-0.2812579572200775 -0.07459627091884613 0.06677313894033432
-0.29583311080932617 -0.13565324246883392 0.032330527901649475
-0.29762399196624756 -0.16125470399856567 0.04899254068732262
-0.1520216017961502 -0.02776057831943035 1.3975551128387451
-0.14464950561523438 0.014586012810468674 1.342824935913086
-0.1369432806968689 -0.011397678405046463 1.3243080377578735
-0.1600058227777481 -0.04051951691508293 1.385390043258667
-0.14268340170383453 -0.08300315588712692 1.342745065689087
-0.22437606751918793 -0.04047826677560806 0.48576295375823975
-0.22524717450141907 -0.06834153831005096 0.40244993567466736
-0.23629054427146912 -0.018004894256591797 0.3375283181667328
-0.24061626195907593 -0.042289599776268005 0.3690907061100006
-0.16086995601654053 0.0595393069088459 1.6850409507751465
-0.13857537508010864 -0.0528329461812973 1.2934049367904663
-0.14050574600696564 -0.06310481578111649 1.2500343322753906
-0.14210575819015503 -0.09101757407188416 1.2812963724136353
-0.1672557294368744 -0.10648782551288605 1.2823219299316406
-0.23142839968204498 -0.006881122477352619 0.2666378319263458
-0.15220306813716888 -0.025064121931791306 1.542305827140808
-0.14293895661830902 0.0474720261991024 1.5454152822494507
-0.1489582359790802 0.018915362656116486 1.539178729057312
-0.1921958327293396 -0.07421139627695084 0.58418869972229
-0.10996834933757782 0.04372861236333847 1.781697154045105
-0.1265869438648224 -0.11057858169078827 1.2191133499145508
-0.11685678362846375 -0.03475993499159813 1.1650161743164062
-0.1360088437795639 -0.12651482224464417 0.7564874887466431
-0.1162894144654274 0.09584327042102814 1.7262074947357178
-0.13077980279922485 -0.06135194003582001 1.4122636318206787
-0.10521574318408966 -0.11776043474674225 0.8587009906768799
-0.1412951648235321 -0.13125385344028473 0.8807332515716553
-0.12428105622529984 -0.20122547447681427 0.920966625213623
-0.10801398754119873 -0.2163139283657074 0.8562241792678833
-0.2716060280799866 -0.19814783334732056 0.06951113790273666
-0.0757472962141037 0.1198621392250061 1.7248059511184692
-0.10322888940572739 0.054875776171684265 1.7674329280853271
-0.15263745188713074 -0.002031885087490082 1.4511910676956177
-0.13336534798145294 -0.02863583341240883 1.50071120262146
-0.19753727316856384 0.006594150327146053 0.3346787691116333
-0.22638405859470367 -0.017705276608467102 0.21841508150100708
-0.26155129075050354 -0.19526983797550201 0.11128097027540207
-0.23213794827461243 -0.01123073510825634 0.07369698584079742
-0.1122211217880249 -0.008727777749300003 1.327012538909912
-0.17275063693523407 -0.10191728174686432 0.5575078129768372
-0.22666822373867035 -0.15678350627422333 0.013163638301193714
-0.2692304253578186 -0.15893980860710144 0.006498022470623255
-0.10629783570766449 0.04225848987698555 1.5618271827697754
-0.10676107555627823 0.01086738333106041 1.5185599327087402
-0.0314367450773716 -0.21845290064811707 0.9127156138420105
-0.08120544999837875 0.08930101990699768 0.8694174289703369
-0.2263166457414627 -0.12157969176769257 0.2769593298435211
-0.202529177069664 -0.11865714192390442 0.2007625848054886
-0.21135830879211426 -0.020996805280447006 0.11805658787488937
-0.09631961584091187 -0.005908630788326263 1.2930989265441895
-0.10347086191177368 -0.026321306824684143 1.2513272762298584
-0.07367701083421707 -0.1276739537715912 1.325607419013977
-0.14066600799560547 -0.03259963169693947 0.6764523983001709
-0.11784359067678452 -0.12865570187568665 0.7459076046943665
-0.07525143027305603 -0.1172139123082161 0.818215548992157
-0.19445744156837463 -0.1257447451353073 0.16767576336860657
-0.21629935503005981 -0.18940752744674683 0.07974671572446823
-0.12573158740997314 -0.07986265420913696 1.4951777458190918
-0.0960557758808136 0.0039939284324646 1.3629683256149292
-0.06566081941127777 -0.0012973062694072723 1.2967051267623901
-0.1419943869113922 -0.10517466068267822 0.5796476602554321
-0.11733908206224442 -0.0852569192647934 0.5806795358657837
-0.15932109951972961 0.010550030507147312 0.5203362703323364
-0.09538417309522629 -0.06828838586807251 1.4657777547836304
-0.07241283357143402 -0.024988096207380295 1.445163369178772
-0.10272549092769623 0.014849986881017685 1.4034311771392822
-0.1289561688899994 -0.025850500911474228 0.5256611704826355
-0.060773443430662155 0.07109583914279938 1.7694082260131836
-0.1159675121307373 -0.11991366744041443 1.633216381072998
-0.0343639962375164 -0.18887105584144592 0.9977792501449585
-0.07484650611877441 -0.036365807056427 1.4598798751831055
-0.053264737129211426 -0.06528431922197342 1.4449851512908936
-0.07381288707256317 -0.04977497085928917 1.438847541809082
-0.0622108057141304 -0.11691320687532425 1.5633413791656494
-0.10374011099338531 -0.11272574961185455 1.50870943069458
-0.051185354590415955 -0.005011260509490967 1.4698396921157837
-0.10234583914279938 -0.04923715814948082 0.646664023399353
-0.01562673971056938 0.02476564794778824 1.793920874595642
-0.034484125673770905 0.12838158011436462 1.6939632892608643
-0.0498022697865963 -0.13387718796730042 1.514711856842041
-0.06491576135158539 -0.11310447752475739 1.4669189453125
-0.03455672413110733 -0.013108119368553162 1.4446858167648315
-0.03875259682536125 -0.1131017655134201 1.4662777185440063
-0.0038247108459472656 0.007941145449876785 1.419560432434082
-0.027072174474596977 -0.01306377723813057 1.2911399602890015
-0.011889901012182236 0.08046434819698334 1.7674683332443237
-0.011583024635910988 -0.016674555838108063 1.4748883247375488
-0.01608233153820038 -0.060958750545978546 1.4608930349349976
0.016118070110678673 0.09809768199920654 1.7246888875961304
-0.000561986118555069 0.036890871822834015 1.7739619016647339
-0.01112210750579834 -0.05260739102959633 1.4455435276031494
0.01886763423681259 -0.08187693357467651 1.4864661693572998
-0.006113080307841301 -0.030931886285543442 1.452878713607788
0.07598692923784256 -0.09064042568206787 0.6018732786178589
0.018580734729766846 0.012882359325885773 1.503311276435852
0.11034003645181656 -0.10907891392707825 0.519413948059082
0.007168223615735769 -0.16614313423633575 1.2812789678573608
0.05189818888902664 -0.039392512291669846 1.2716796398162842
0.053868114948272705 -0.06719344109296799 1.1566011905670166
0.14568619430065155 -0.10712587088346481 0.08685104548931122
0.1637752205133438 -0.098457932472229 0.07010683417320251
0.1344139128923416 0.017069749534130096 0.09580303728580475
0.022423114627599716 -0.1485256552696228 1.2667632102966309
0.010425574146211147 -0.18841734528541565 1.1911835670471191
0.07224328070878983 -0.14134472608566284 0.7434848546981812
0.12880024313926697 -0.03221748769283295 0.06771017611026764
0.05020998418331146 0.028719983994960785 1.7336077690124512
0.010818339884281158 -0.12497618794441223 1.6417654752731323
0.001873806118965149 -0.10946115851402283 1.5542960166931152
0.00705936923623085 -0.11212000250816345 1.5084474086761475
0.09976749122142792 -0.15977412462234497 0.8863348364830017
0.09872877597808838 0.021725855767726898 1.7605867385864258
0.025384394451975822 0.010279957205057144 1.55954110622406
0.0243156086653471 -0.006649088114500046 1.529895544052124
0.13438034057617188 -0.014510802924633026 0.34227705001831055
0.12680663168430328 -0.0014020241796970367 0.28178176283836365
0.1463089883327484 0.028309457004070282 0.07864899933338165
0.04381220042705536 0.012820195406675339 1.8201518058776855
0.060090094804763794 -0.009947218000888824 1.4263825416564941
0.10075336694717407 -0.2188783884048462 0.8740847110748291
0.09074149280786514 -0.1312538981437683 0.8738858699798584
0.1305074840784073 -0.19427716732025146 0.8746538162231445
0.09799815714359283 -0.042172737419605255 0.7627918124198914
0.19099950790405273 -0.09721098840236664 0.08163677901029587
0.05716373398900032 0.01659536361694336 1.7446283102035522
0.04296489804983139 -0.1572616994380951 1.1579105854034424
0.05110327899456024 -0.13524416089057922 1.2859078645706177
0.054004967212677 -0.15154430270195007 1.2827732563018799
0.12787115573883057 -0.1885775625705719 0.9433019757270813
0.04788098856806755 -0.0628124251961708 1.575209617614746
0.05485684424638748 0.011756990104913712 1.5681759119033813
0.05033426359295845 -0.01386970654129982 1.5581023693084717
0.05791867524385452 -0.030067168176174164 1.5526336431503296
0.06970809400081635 -0.04204675182700157 1.528961181640625
0.13737782835960388 -0.06583434343338013 0.661358654499054
0.13524800539016724 -0.132127046585083 0.6807793378829956
0.07796283066272736 -0.04858257248997688 1.4041454792022705
0.08052153140306473 0.0028323233127593994 1.3450357913970947
0.044897161424160004 -0.0014331862330436707 1.3597328662872314
0.055891163647174835 -0.022890515625476837 1.3363146781921387
0.1261879801750183 -0.1188226267695427 0.8426094055175781
0.1904306411743164 0.011847078800201416 0.08208348602056503
0.2057265043258667 -0.013449996709823608 0.0748717337846756
0.07049866765737534 0.0072665028274059296 1.6977509260177612
0.08607902377843857 -0.024639882147312164 1.3988927602767944
0.19759109616279602 -0.05829403176903725 0.32650819420814514
0.09259122610092163 0.026021789759397507 1.670891284942627
0.06954645365476608 0.05274635925889015 1.6741344928741455
0.07855992019176483 0.022183548659086227 1.6390540599822998
0.20711180567741394 -0.02550804615020752 0.1510452777147293
0.21490918099880219 -0.06885414570569992 0.08075971901416779
0.1997925341129303 -0.09951025992631912 0.1073707640171051
0.15517427027225494 -0.013420595787465572 0.9831432104110718
0.15282274782657623 -0.014900194481015205 0.8833070993423462
0.09712016582489014 -3.986060619354248e-07 1.7595486640930176
0.17064157128334045 0.038700804114341736 0.89113450050354
0.1829245686531067 0.0022011399269104004 0.9541849493980408
0.10806891322135925 -0.005829725414514542 1.3386176824569702
0.12404593825340271 -0.02629721909761429 1.323896050453186
0.08977480232715607 -0.051914677023887634 1.3696858882904053
0.12175998836755753 -0.010638192296028137 1.2837944030761719
0.1111338883638382 -0.015590552240610123 1.26334810256958
0.13603253662586212 -0.09218398481607437 1.2424132823944092
0.14581742882728577 -0.04561696574091911 1.282829761505127
0.16528978943824768 -0.015125922858715057 1.2183775901794434
0.1840827614068985 -0.017948780208826065 1.1409586668014526
0.21056297421455383 -0.03180573135614395 1.1586393117904663
0.19463002681732178 -0.05143076926469803 1.2053272724151611
0.1722097098827362 -0.09267895668745041 1.2246628999710083
0.21756064891815186 -0.04578303545713425 1.1055952310562134
0.23630470037460327 -0.11846739053726196 1.1546812057495117
0.24675074219703674 -0.0918373167514801 1.1361478567123413
0.2377987504005432 -0.06559176743030548 1.1083438396453857
0.2015918493270874 -0.15619586408138275 1.1351515054702759
0.2216382771730423 -0.12239295244216919 1.1026949882507324
0.2230716198682785 -0.10029192268848419 1.091610074043274
0.26656579971313477 -0.17360812425613403 0.9842407703399658
0.20327632129192352 -0.1411503553390503 1.1017560958862305
0.20228931307792664 -0.15568414330482483 1.0737793445587158
0.24230751395225525 -0.13281328976154327 1.020176887512207
0.20809109508991241 -0.14490094780921936 1.0490139722824097
0.20467686653137207 -0.17270123958587646 1.0509003400802612
0.2289915680885315 -0.1644730567932129 1.0188487768173218
0.2513694167137146 -0.17069584131240845 1.0120415687561035
0.20483899116516113 -0.19802486896514893 1.0209343433380127
0.2304723709821701 -0.18447107076644897 1.0114142894744873
0.21678823232650757 -0.1896028369665146 1.0205639600753784
0.2593322694301605 -0.1805964559316635 0.9639734029769897
0.22588467597961426 -0.2037244737148285 1.007879614830017
0.24228566884994507 -0.1666528880596161 0.9789015054702759
0.244602769613266 -0.20036795735359192 0.9763790369033813
0.2627570331096649 -0.19303321838378906 0.9797325730323792
-0.31771233677864075 -0.05072937160730362 1.0945450067520142
-0.3034200370311737 -0.11139346659183502 1.0850235223770142
-0.292346328496933 -0.09343869984149933 1.0808804035186768
-0.308397114276886 -0.13145840167999268 1.1208205223083496
-0.2590649425983429 -0.04714744910597801 1.090423583984375
-0.28048059344291687 -0.12890538573265076 1.1067084074020386
-0.20272597670555115 -0.012401895597577095 1.239838719367981
-0.19783370196819305 -0.06856095790863037 1.2176355123519897
-0.17401769757270813 -0.09870734810829163 0.973655104637146
-0.17791050672531128 -0.01646602340042591 0.9528501033782959
-0.12790018320083618 0.05109795928001404 0.9381264448165894
-0.11343692988157272 0.15478026866912842 1.2618460655212402
-0.10603497922420502 0.1518508344888687 1.2028205394744873
-0.10929402709007263 0.17567487061023712 1.1704154014587402
-0.15302395820617676 -0.01179026160389185 0.9756319522857666
-0.20610298216342926 0.03581219166517258 1.737922191619873
-0.15361788868904114 0.004817530512809753 1.3630732297897339
-0.1739668995141983 0.0047654807567596436 1.2945421934127808
-0.03980091214179993 0.16925424337387085 1.0707740783691406
-0.06804031133651733 0.17486955225467682 0.9890525341033936
-0.28434672951698303 -0.09084785729646683 0.1257273107767105
-0.2989289164543152 -0.1445973813533783 0.07985527068376541
-0.18026678264141083 0.03064218908548355 1.7188245058059692
-0.16450972855091095 0.038967665284872055 1.6639130115509033
-0.15189334750175476 -0.12849226593971252 1.2594993114471436
-0.15099400281906128 -0.145976722240448 1.2314921617507935
-0.15490669012069702 -0.16638609766960144 1.228500247001648
-0.11406773328781128 0.11559291929006577 1.3821654319763184
-0.10557644069194794 0.10659362375736237 1.3763525485992432
-0.1319316178560257 -0.1287713348865509 1.2746933698654175
-0.14784760773181915 -0.056009817868471146 1.21489679813385
-0.25691094994544983 -0.10890070348978043 0.1930081993341446
-0.26140058040618896 -0.06398199498653412 0.19923701882362366
-0.06155481934547424 0.13172133266925812 1.256221055984497
-0.15798987448215485 -0.013126008212566376 1.4639256000518799
-0.15820392966270447 -0.007466886192560196 1.4420459270477295
-0.14421644806861877 -0.01243995875120163 1.423802375793457
-0.15761540830135345 -0.005709059536457062 1.4199659824371338
-0.15624317526817322 -0.026384230703115463 1.4119035005569458
-0.1491585224866867 -0.10936620831489563 0.7999051213264465
-0.16067075729370117 -0.0714578926563263 0.7950533628463745
-0.035943176597356796 0.2301039695739746 1.0779660940170288
-0.03746825456619263 0.22783267498016357 1.130352258682251
-0.123450867831707 -0.12151533365249634 1.272471308708191
-0.13021597266197205 -0.10855671018362045 0.8721513748168945
-0.2575209140777588 -0.027343779802322388 0.12515360116958618
-0.2627846598625183 -0.02715974673628807 0.08653773367404938
-0.1406722068786621 -0.18777649104595184 0.858771026134491
-0.06325709819793701 0.19297082722187042 1.2368767261505127
-0.1572824865579605 -0.0886857882142067 1.6306753158569336
-0.13071246445178986 0.025793150067329407 1.543299674987793
-0.10102400183677673 0.11348669230937958 1.5090947151184082
-0.1008622795343399 0.07555193454027176 1.5691757202148438
-0.11972583085298538 0.07422987371683121 1.5420970916748047
-0.10617401450872421 0.09288842976093292 1.4554767608642578
-0.05459139123558998 0.13668298721313477 1.551177978515625
-0.1203160434961319 -0.012211434543132782 1.4949393272399902
-0.08613073825836182 0.04398787021636963 0.9820754528045654
-0.13715232908725739 0.03631880134344101 1.821920394897461
-0.1497558057308197 0.028758399188518524 1.8168292045593262
-0.1493336260318756 0.017331615090370178 1.8023905754089355
-0.02235717512667179 0.07705210149288177 1.446182131767273
-0.08220508694648743 0.12821844220161438 1.4249423742294312
-0.20136436820030212 -0.09106740355491638 0.048558734357357025
-0.03281823545694351 0.16643983125686646 1.3687766790390015
-0.11863140016794205 -0.08941369503736496 1.542673110961914
-0.17477628588676453 -0.07185297459363937 0.4047450125217438
-0.06167646124958992 0.0743914395570755 1.5098052024841309
-0.08467547595500946 0.0330219492316246 1.4937024116516113
-0.03421409800648689 0.1399281769990921 1.4712462425231934
-0.03296985477209091 0.05246048420667648 0.8640676736831665
-0.1821901500225067 -0.008460870012640953 0.3542014956474304
0.009525974281132221 0.1916196197271347 0.9853326082229614
-0.032740239053964615 0.03803640976548195 1.0404796600341797
-0.10414151102304459 -0.15342925488948822 1.270817756652832
-0.09831072390079498 -0.15445512533187866 1.1676013469696045
-0.17050689458847046 -0.036029018461704254 0.33301424980163574
-0.1549055576324463 -0.05153672769665718 0.2707417607307434
-0.18557396531105042 -0.0019400138407945633 0.26560401916503906
-0.06861912459135056 0.05695284530520439 1.5300023555755615
-0.08808575570583344 -0.10657815635204315 0.6955035924911499
-0.11302648484706879 -0.03303658962249756 0.6672224402427673
0.019251016899943352 0.23470273613929749 1.1198945045471191
0.023337576538324356 0.22440823912620544 1.0320535898208618
-0.05059948191046715 -0.18628916144371033 1.1948814392089844
-0.18214133381843567 -0.07411924749612808 0.1345631629228592
0.014455423690378666 0.17304331064224243 1.027996301651001
0.0075096325017511845 0.1526157110929489 1.06605863571167
0.0014279484748840332 0.056368134915828705 1.5203503370285034
-0.08422809839248657 -0.0841638445854187 1.405746340751648
0.02137557789683342 0.1755773425102234 1.3466160297393799
0.022975850850343704 0.06717511266469955 1.436378002166748
-0.006719816476106644 0.04690582677721977 1.5214531421661377
0.06753723323345184 0.1686476171016693 1.0354015827178955
0.08442270755767822 0.15452119708061218 0.9926791191101074
-0.019302112981677055 -0.10211403667926788 1.4018120765686035
0.014117784798145294 0.037678420543670654 1.0388710498809814
-0.024126514792442322 -0.1996522843837738 1.1226296424865723
0.08722557127475739 0.1459241509437561 1.3706955909729004
0.012219812721014023 -0.012279130518436432 1.308257818222046
0.06007029861211777 0.11898675560951233 1.4777255058288574
0.026479221880435944 0.06918760389089584 1.4804565906524658
0.02759072370827198 -0.02801964432001114 1.218099594116211
0.0447794571518898 0.09514357894659042 0.9284305572509766
-0.00197489932179451 -0.011845748871564865 1.75797438621521
0.12743352353572845 -0.0811418741941452 0.09865175932645798
0.11856632679700851 -0.08668956160545349 0.07519812136888504
0.12006284296512604 -0.028624579310417175 0.11056751012802124
