0.24629464745521545 -0.31580641865730286 0.13481803238391876
0.08083200454711914 -0.035666849464178085 1.7662709951400757
0.06779644638299942 -0.16943520307540894 1.1297608613967896
0.07758243381977081 -0.19356760382652283 1.245462417602539
0.08376988768577576 -0.21290022134780884 1.2357858419418335
0.12938623130321503 -0.1637323498725891 0.9193500280380249
0.07607828825712204 -0.14132574200630188 1.6088995933532715
0.0670374184846878 -0.06218365952372551 1.5856918096542358
0.06964391469955444 -0.09046072512865067 1.5770978927612305
0.07989095896482468 -0.1059432178735733 1.5784313678741455
0.09020501375198364 -0.12401728332042694 1.5566051006317139
0.13164746761322021 -0.2301071733236313 0.6772303581237793
0.1177007257938385 -0.2699946463108063 0.7339032888412476
0.10064355283975601 -0.17178133130073547 1.3928853273391724
0.11414656788110733 -0.09024728834629059 1.359572172164917
0.07274261116981506 -0.09671232849359512 1.3680970668792725
0.08156615495681763 -0.10400006175041199 1.3358197212219238
0.10793828964233398 -0.13164810836315155 0.8441644310951233
0.23523348569869995 -0.20688006281852722 0.19352124631404877
0.25241976976394653 -0.2254934012889862 0.178412526845932
0.08795274794101715 -0.04928081855177879 1.7199848890304565
0.11398985236883163 -0.125372052192688 1.4169789552688599
0.21107158064842224 -0.3033543527126312 0.3990648686885834
0.11197811365127563 -0.029952550306916237 1.6885287761688232
0.0804600790143013 -0.005000390112400055 1.6871984004974365
0.09645159542560577 -0.039359722286462784 1.6557166576385498
0.24578793346881866 -0.2670826315879822 0.23839309811592102
0.27019959688186646 -0.2884616255760193 0.15120327472686768
0.23860135674476624 -0.3322451710700989 0.15995891392230988
0.15938732028007507 0.006452213041484356 0.9308037757873535
0.14972485601902008 -0.01689176820218563 0.8243366479873657
0.12521860003471375 -0.045632705092430115 1.7834974527359009
0.17049947381019592 0.03775113448500633 0.8243340849876404
0.18531551957130432 0.021707963198423386 0.8850569128990173
0.15001104772090912 -0.10338340699672699 1.3604915142059326
0.17325396835803986 -0.12438603490591049 1.3405468463897705
0.11930599808692932 -0.16512742638587952 1.3591288328170776
0.1838655173778534 -0.08966227620840073 1.31473708152771
0.17850936949253082 -0.0837387964129448 1.2902777194976807
0.23061372339725494 -0.16830945014953613 1.2445378303527832
0.21307101845741272 -0.13346624374389648 1.3026573657989502
0.2343597412109375 -0.06541604548692703 1.2667025327682495
0.2702530324459076 -0.021029777824878693 1.203689694404602
0.29858624935150146 -0.02607066184282303 1.2246196269989014
0.28647512197494507 -0.07842116057872772 1.2557237148284912
0.2808031439781189 -0.1369965672492981 1.2464874982833862
0.3287324905395508 -0.018880397081375122 1.174312710762024
0.38391679525375366 -0.09680017083883286 1.20648193359375
0.38023829460144043 -0.060387998819351196 1.2013705968856812
0.3580974042415619 -0.026711825281381607 1.1837778091430664
0.37785571813583374 -0.14516586065292358 1.161107063293457
0.38648495078086853 -0.08463247865438461 1.1514766216278076
0.3737500309944153 -0.05733291804790497 1.146821141242981
0.49354133009910583 -0.06353925168514252 1.0436614751815796
0.379004567861557 -0.11186947673559189 1.1374763250350952
0.39952197670936584 -0.1179337128996849 1.104203224182129
0.4348943531513214 -0.04449182003736496 1.0796223878860474
0.40143337845802307 -0.08995717018842697 1.0879771709442139
0.4161219000816345 -0.1212606430053711 1.0777227878570557
0.4420270621776581 -0.08674433082342148 1.064133644104004
0.46731480956077576 -0.0764087364077568 1.0660600662231445
0.4405721127986908 -0.1281699389219284 1.045325517654419
0.4575370252132416 -0.10248484462499619 1.052270770072937
0.4457820951938629 -0.1153249740600586 1.0523229837417603
0.49630236625671387 -0.06247607618570328 1.021101474761963
0.4671482443809509 -0.12155430763959885 1.0383737087249756
0.4661450684070587 -0.06350187957286835 1.0334928035736084
0.4952501654624939 -0.09398718178272247 1.018939733505249
0.5043743252754211 -0.080443374812603 1.0325356721878052
-0.38930365443229675 -0.02324952557682991 1.091605544090271
-0.3931541442871094 -0.08691944181919098 1.0571625232696533
-0.3728718161582947 -0.06489932537078857 1.0574851036071777
-0.3977828621864319 -0.1285417377948761 1.0855952501296997
-0.320270836353302 -0.019953634589910507 1.0814263820648193
-0.3680550456047058 -0.12311432510614395 1.0677428245544434
-0.20991744101047516 -0.06241028010845184 1.2438026666641235
-0.225297212600708 -0.12107256054878235 1.1969654560089111
-0.17003703117370605 -0.1023530513048172 0.9560354948043823
-0.17717263102531433 -0.017116546630859375 0.9212208986282349
-0.13089343905448914 0.049222737550735474 0.9184467792510986
-0.1691402792930603 0.06091064587235451 1.2292609214782715
-0.17200909554958344 0.058149076998233795 1.1644612550735474
-0.18252091109752655 0.08484800159931183 1.1321653127670288
-0.15487632155418396 -0.014284128323197365 0.9542527198791504
-0.2100396305322647 -0.05510285869240761 1.757982850074768
-0.14409643411636353 -0.09406410157680511 1.360419511795044
-0.17055287957191467 -0.06866458803415298 1.3010233640670776
-0.1198708713054657 0.09341434389352798 1.0180459022521973
-0.16435584425926208 0.09514331072568893 0.932816743850708
-0.27094775438308716 0.17750434577465057 0.2042052000761032
-0.2870003581047058 0.19620580971240997 0.12968935072422028
-0.18041913211345673 -0.06441442668437958 1.7397102117538452
-0.16790039837360382 -0.05513814836740494 1.6778693199157715
-0.1439545452594757 -0.19358724355697632 1.2105274200439453
-0.1474049836397171 -0.20167610049247742 1.178543210029602
-0.15353301167488098 -0.2238059639930725 1.1680891513824463
-0.1492663323879242 0.018368562683463097 1.3658422231674194
-0.13685661554336548 0.01235111989080906 1.3613899946212769
-0.11757422983646393 -0.19839617609977722 1.230673909187317
-0.13671325147151947 -0.0998387485742569 1.2062220573425293
-0.248615100979805 0.09663942456245422 0.22262679040431976
-0.24798648059368134 0.11394298821687698 0.2721329629421234
-0.10740657150745392 0.04647191986441612 1.2208223342895508
-0.14657822251319885 -0.14144255220890045 1.4690965414047241
-0.14498382806777954 -0.1351376622915268 1.4430251121520996
-0.13230890035629272 -0.1307975947856903 1.416946530342102
-0.1474515199661255 -0.12878522276878357 1.4187403917312622
-0.14477474987506866 -0.1426055133342743 1.3985742330551147
-0.14406967163085938 -0.11734457314014435 0.7841085195541382
-0.16027766466140747 -0.08267815411090851 0.7706528902053833
-0.12838655710220337 0.15899591147899628 1.0219634771347046
-0.12116028368473053 0.1542527675628662 1.0781214237213135
-0.10852028429508209 -0.18577566742897034 1.230709195137024
-0.1299838423728943 -0.10242275893688202 0.8545368909835815
-0.2340593934059143 0.2111007571220398 0.26234108209609985
-0.23869988322257996 0.2479589283466339 0.24055998027324677
-0.1429731398820877 -0.18574270606040955 0.8489660620689392
-0.12809871137142181 0.11485593020915985 1.1951744556427002
-0.13707737624645233 -0.19091498851776123 1.6726323366165161
-0.13101442158222198 -0.07905468344688416 1.5551385879516602
-0.11777491122484207 0.014944978058338165 1.5095462799072266
-0.10829999297857285 -0.01505165547132492 1.572084665298462
-0.13099707663059235 -0.024843163788318634 1.547116994857788
-0.12476140260696411 -0.007487162947654724 1.4589014053344727
-0.07623365521430969 0.05628400295972824 1.5417582988739014
-0.11128802597522736 -0.12575194239616394 1.5103378295898438
-0.09192129969596863 0.04300810396671295 0.9734708666801453
-0.1351393610239029 -0.037608835846185684 1.8461755514144897
-0.14332938194274902 -0.04663711413741112 1.840597152709961
-0.14812612533569336 -0.061311978846788406 1.8301645517349243
-0.03214055299758911 -0.0030884481966495514 1.4352210760116577
-0.11095187813043594 0.039410315454006195 1.4125546216964722
-0.18007530272006989 0.23859944939613342 0.15630172193050385
-0.07104562222957611 0.09326919913291931 1.335762858390808
-0.09873145073652267 -0.19954299926757812 1.5781267881393433
-0.1602899134159088 -0.03837679326534271 0.4078271687030792
-0.07315583527088165 -0.012745901942253113 1.5058108568191528
-0.08213507384061813 -0.072232685983181 1.5034421682357788
-0.059255704283714294 0.06277760863304138 1.4548554420471191
-0.040910810232162476 0.055206988006830215 0.8473962545394897
-0.16276095807552338 0.04097975417971611 0.400562584400177
-0.07712402939796448 0.13418510556221008 0.9235727787017822
-0.040120139718055725 0.036205120384693146 1.038233757019043
-0.08240998536348343 -0.21283912658691406 1.2258970737457275
-0.0797911286354065 -0.18029296398162842 1.1379226446151733
-0.15412583947181702 0.02769658900797367 0.3653346002101898
-0.14344854652881622 0.04722830280661583 0.30279868841171265
-0.16798555850982666 0.08953362703323364 0.33474618196487427
-0.0695110410451889 -0.03583790734410286 1.534601092338562
-0.07061749696731567 -0.14943760633468628 0.675735592842102
-0.1029212549328804 -0.08236419409513474 0.6369449496269226
-0.06081238389015198 0.17282551527023315 1.0619648694992065
-0.0689832866191864 0.1702783703804016 0.9700989723205566
-0.026371240615844727 -0.21680927276611328 1.1571557521820068
-0.16436465084552765 0.16453887522220612 0.2122216820716858
-0.0636775866150856 0.1123545691370964 0.9672603607177734
-0.06125297397375107 0.0827765017747879 1.0116281509399414
0.0015263743698596954 -0.022412242367863655 1.517173171043396
-0.06631196290254593 -0.18982987105846405 1.383865475654602
-0.012744194827973843 0.11146551370620728 1.310256838798523
0.02205021306872368 -0.0020598042756319046 1.4230008125305176
-0.003310892730951309 -0.03784821927547455 1.5268210172653198
-0.0027690138667821884 0.11822020262479782 0.972504734992981
0.014864840544760227 0.11301977187395096 0.9234800338745117
-0.005124097689986229 -0.20299184322357178 1.375664472579956
0.007794019300490618 0.03902948275208473 1.0331599712371826
-0.002976001938804984 -0.2136363387107849 1.0986446142196655
0.0718151181936264 0.09480197727680206 1.3371952772140503
0.026495149359107018 -0.06716237962245941 1.3151116371154785
0.05289803817868233 0.05480695143342018 1.465173602104187
0.024054886773228645 -0.0018679015338420868 1.4688113927841187
0.04325930401682854 -0.05406094342470169 1.223537564277649
0.04084676876664162 0.1019769012928009 0.9063781499862671
0.016991447657346725 -0.0735214501619339 1.7867181301116943
0.16141240298748016 -0.28842946887016296 0.1622621715068817
0.17211215198040009 -0.27940237522125244 0.1302834153175354
0.14703747630119324 -0.2334812432527542 0.20893149077892303
0.00047116726636886597 -0.21758823096752167 1.6879713535308838
0.06556454300880432 -0.17226959764957428 0.7115054130554199
0.09318573027849197 -0.005050512962043285 1.443321704864502
0.050888318568468094 -0.14098912477493286 1.5210378170013428
0.09178701043128967 -0.15151897072792053 1.4485399723052979
0.04576357826590538 -0.10419081151485443 1.4241158962249756
0.11994624137878418 -0.2562621831893921 0.46274107694625854
0.14715026319026947 -0.3522358238697052 0.3252396881580353
0.166438490152359 -0.24949808418750763 0.31942713260650635
0.07752782106399536 0.12258630245923996 0.9771000742912292
0.05691774934530258 0.15244275331497192 0.9377598762512207
0.08769505470991135 -0.21959157288074493 0.7990570068359375
0.10776424407958984 -0.21152231097221375 0.6704995632171631
0.02590107172727585 -0.12650980055332184 1.7835474014282227
0.07235927879810333 -0.1369418203830719 1.739341139793396
0.1107979342341423 -0.33259207010269165 0.626979649066925
0.040842413902282715 -0.06202831119298935 1.7999187707901
0.06811782717704773 -0.08011727780103683 1.7494858503341675
0.08675384521484375 -0.09840940684080124 1.1388328075408936
0.09192018210887909 -0.08278476446866989 1.109216570854187
0.08516054600477219 -0.15794289112091064 1.0870380401611328
0.05926436930894852 -0.18750207126140594 1.6789090633392334
0.06669718027114868 -0.1277528554201126 1.5556179285049438
0.06388764828443527 -0.17505697906017303 1.5629509687423706
0.12090529501438141 0.11411941051483154 0.9338138103485107
0.09765195101499557 -0.1668548882007599 1.283813714981079
0.11710061132907867 -0.22008609771728516 1.2237187623977661
0.10163408517837524 -0.13782137632369995 1.238121509552002
0.2178601175546646 -0.23865853250026703 0.27397286891937256
0.20225274562835693 -0.3284842371940613 0.254272997379303
0.2230207920074463 -0.3164752721786499 0.24229589104652405
0.08205874264240265 -0.05285671725869179 1.7681344747543335
0.11272862553596497 -0.18483752012252808 1.2809251546859741
0.18959806859493256 -0.2621385157108307 0.5097271800041199
0.15936096012592316 -0.3107175827026367 0.5656920671463013
0.20189988613128662 -0.2814602255821228 0.46000486612319946
0.10763406753540039 -0.17047739028930664 1.4375330209732056
0.09165630489587784 -0.1651134192943573 1.4321134090423584
0.11837300658226013 -0.13430479168891907 1.4036881923675537
0.12055444717407227 0.07409138977527618 0.8936573266983032
0.11638697981834412 -0.10710710287094116 0.8552239537239075
0.23295444250106812 -0.28452634811401367 0.3484271466732025
0.23875129222869873 -0.31303638219833374 0.3536221981048584
0.12735123932361603 -0.11830978095531464 1.3986952304840088
0.15759266912937164 0.04311719536781311 1.2483645677566528
0.1592758297920227 0.07732543349266052 1.2169510126113892
0.13701830804347992 -0.257449209690094 1.1004310846328735
0.15884217619895935 -0.04041554778814316 0.9680566787719727
0.16064150631427765 -0.09502650797367096 0.9628435373306274
0.19926723837852478 -0.05411708354949951 1.2483069896697998
0.3108913004398346 -0.10746251046657562 1.1221261024475098
0.3085993528366089 -0.050005149096250534 1.1269251108169556
0.3232896625995636 -0.16834676265716553 1.1723392009735107
-0.37663012742996216 -0.028547663241624832 1.0584533214569092
-0.4064278304576874 -0.08878063410520554 1.0230947732925415
-0.30049556493759155 -0.12441055476665497 1.115722894668579
-0.3079780340194702 -0.14936871826648712 1.1616476774215698
-0.25985366106033325 -0.0888296365737915 1.1381584405899048
-0.24197155237197876 -0.04644722491502762 1.17426335811615
-0.19506195187568665 -0.15048830211162567 0.8686996698379517
-0.19659775495529175 0.09294448047876358 0.9785764217376709
-0.18654261529445648 0.07654577493667603 1.0910784006118774
-0.17020626366138458 -0.25984397530555725 1.0539017915725708
-0.13259214162826538 -0.167160302400589 0.9530618190765381
-0.258515328168869 0.04528523236513138 0.33006978034973145
-0.24107062816619873 -0.005737761035561562 0.31272029876708984
-0.1721203476190567 -0.034145504236221313 0.5380045771598816
-0.15370245277881622 -0.19290649890899658 0.8540732860565186
-0.15935058891773224 -0.11727776378393173 0.6199978590011597
-0.15158581733703613 -0.14146682620048523 0.6802057027816772
-0.1408458948135376 -0.07454255223274231 0.6773416996002197
-0.11425936222076416 -0.024843716993927956 1.107615351676941
-0.10856519639492035 -0.09269405901432037 1.1250272989273071
-0.09071637690067291 0.14458440244197845 1.1541249752044678
-0.11852994561195374 -0.011393541470170021 0.842896044254303
-0.19840987026691437 -0.024284053593873978 0.3120466470718384
-0.11361122131347656 -0.06216613948345184 1.215071439743042
-0.1000029593706131 -0.05261731892824173 1.1405411958694458
-0.17469562590122223 -0.08358685672283173 0.4420078694820404
-0.13781706988811493 -0.06921805441379547 1.7640384435653687
-0.1371944546699524 -0.11055339127779007 1.7579542398452759
-0.08723966777324677 -0.14011478424072266 1.7791361808776855
-0.10059186816215515 -0.1859627068042755 1.7441383600234985
-0.11945784091949463 -0.1958729773759842 1.6344048976898193
-0.1683712601661682 -0.009128613397479057 0.3609958291053772
-0.0689990222454071 -0.13646681606769562 0.7319208383560181
-0.1497795581817627 0.019344627857208252 0.29179486632347107
-0.17080332338809967 -0.005164389032870531 0.2817945182323456
-0.17347931861877441 0.11121626943349838 0.30118244886398315
-0.05561881512403488 0.06573019176721573 0.9647749066352844
-0.08702656626701355 -0.04551102593541145 1.807189702987671
-0.10521417111158371 -0.060599587857723236 1.796984314918518
0.01287367008626461 0.07734460383653641 1.1409355401992798
-0.08878552913665771 0.0720105692744255 1.1432031393051147
-0.00416039302945137 0.06062001734972 1.2058016061782837
0.010262377560138702 -0.07419191300868988 1.2597031593322754
-0.004836904816329479 0.14902226626873016 1.185485601425171
-0.009319612756371498 0.09600704908370972 1.013601541519165
0.05330129712820053 0.17324285209178925 1.0949594974517822
0.0053885579109191895 0.05807560682296753 1.6625447273254395
0.032559338957071304 0.08918866515159607 1.0209053754806519
0.04746631160378456 -0.2101634442806244 0.9050778746604919
0.11522384732961655 -0.3121299743652344 0.33925703167915344
0.1411800980567932 -0.3109032213687897 0.2894059419631958
0.05137303099036217 -0.23671552538871765 0.7466108202934265
0.03322388231754303 0.0120506277307868 1.0679010152816772
0.08488250523805618 -0.25552043318748474 0.6168308854103088
0.08463352918624878 0.042719416320323944 1.2787644863128662
0.07028885185718536 -0.18550845980644226 1.40439772605896
0.04296649619936943 0.03941946476697922 1.62969970703125
0.046319346874952316 -0.03987842798233032 1.612206220626831
0.04731322452425957 -0.02383936569094658 1.582773208618164
0.03615123778581619 -0.049896031618118286 1.848160982131958
0.07616305351257324 -0.1863655149936676 1.3235583305358887
0.15599387884140015 -0.24062860012054443 0.56280916929245
0.12528082728385925 -0.22602629661560059 0.553296685218811
0.16753853857517242 -0.2436789572238922 0.4213000535964966
0.19330091774463654 -0.2523227632045746 0.4000356197357178
0.09035728126764297 -0.1239842027425766 1.5449137687683105
0.08025655895471573 -0.13235417008399963 1.5560526847839355
0.09192588925361633 -0.1269380748271942 1.538028359413147
0.13052275776863098 -0.1352176070213318 0.7524128556251526
0.13837288320064545 -0.2637242376804352 0.6882243156433105
0.12199824303388596 0.039441872388124466 0.9380244016647339
0.12108466029167175 -0.0709509551525116 1.0826672315597534
0.11797355115413666 -0.12465078383684158 1.0697672367095947
0.12401707470417023 -0.13741518557071686 1.0144602060317993
0.0891084298491478 -0.06670879572629929 1.6634564399719238
0.10124433040618896 -0.08260605484247208 1.5750117301940918
0.11063618212938309 -0.20247219502925873 1.209869146347046
0.10907945036888123 -0.014460250735282898 1.553702712059021
0.09882844984531403 -0.03545597940683365 1.595625877380371
0.24741123616695404 -0.22316858172416687 0.21078257262706757
0.26408112049102783 -0.2585081160068512 0.1808059960603714
0.122049979865551 -0.03092871978878975 1.5160771608352661
0.1300213634967804 -0.01674949750304222 1.487505316734314
0.14300481975078583 -0.01503427792340517 1.4399540424346924
0.1435658037662506 0.0021445583552122116 1.4192832708358765
0.1334906965494156 -0.2678671181201935 1.1179430484771729
0.16738006472587585 -0.13744769990444183 0.8663279414176941
0.1458675116300583 -0.24540123343467712 1.141363263130188
0.14524956047534943 -0.2688380479812622 1.1208140850067139
0.1979842483997345 -0.09379555284976959 0.8706016540527344
0.19960778951644897 -0.08224640041589737 0.8472650051116943
0.2123601734638214 -0.0481177382171154 0.8446263074874878
-0.262596070766449 -0.14624077081680298 1.172250747680664
-0.1766241192817688 -0.17103974521160126 1.2393301725387573
-0.1910865157842636 -0.16481706500053406 1.2236979007720947
-0.17850783467292786 -0.15640299022197723 1.2325834035873413
-0.16995760798454285 -0.1614571213722229 1.2505080699920654
-0.2021491825580597 0.007400796748697758 0.8540756106376648
-0.13417872786521912 -0.12777815759181976 1.2821271419525146
-0.14825493097305298 -0.07466675341129303 1.077327013015747
-0.1580524742603302 0.0002752840518951416 1.550879955291748
-0.1343611180782318 -0.12493325769901276 1.1883544921875
-0.13882514834403992 -0.10137687623500824 1.141033411026001
-0.13164499402046204 0.00720878504216671 1.4429203271865845
-0.12198997288942337 0.006584491580724716 1.3908356428146362
-0.12221228331327438 -0.15313345193862915 1.0371404886245728
-0.08742106705904007 -0.17836496233940125 0.9959506988525391
-0.13943859934806824 -0.03718026354908943 0.7637300491333008
-0.08226645737886429 0.11907050013542175 1.2340481281280518
-0.10156819224357605 0.05417131632566452 1.635994553565979
-0.16464906930923462 0.23769399523735046 0.21503879129886627
-0.17628523707389832 0.2561623454093933 0.22489017248153687
-0.08931606262922287 0.02869882993400097 0.8577965497970581
-0.01079288125038147 0.10017678141593933 0.839851975440979
-0.07045301795005798 -0.01360272616147995 0.8339278697967529
0.005786146968603134 0.024074885994195938 1.3112818002700806
-0.04345593601465225 -0.08875192701816559 0.7523703575134277
-0.04152124375104904 -0.21334658563137054 1.6569386720657349
-0.012122191488742828 0.022223852574825287 0.8589208126068115
-0.007156179286539555 -0.01796143129467964 0.841147780418396
0.012357323430478573 -0.10879462957382202 0.8518394827842712
-0.078668013215065 -0.1666359156370163 0.854351282119751
0.000998789444565773 -0.22038942575454712 0.8501812219619751
0.021906757727265358 -0.1121121495962143 0.8336181044578552
-0.0012171878479421139 -0.1581284999847412 0.8593544960021973
-0.00828249379992485 -0.06580808758735657 1.5027483701705933
0.024505142122507095 -0.03419742360711098 0.8305584788322449
0.027878928929567337 -0.0646112784743309 0.8010794520378113
0.004820428788661957 -0.04192031919956207 1.5836188793182373
0.007277451455593109 -0.03718434274196625 1.5540846586227417
0.03192124888300896 -0.11746085435152054 0.8474515676498413
0.1313730925321579 0.05644708126783371 0.8159053325653076
0.11985161155462265 -0.2855774760246277 0.3384181261062622
0.05227680131793022 -0.06693720817565918 0.7771571278572083
0.06449899822473526 0.08000054955482483 1.172296404838562
0.13469097018241882 -0.306442528963089 0.45828351378440857
0.13941363990306854 -0.29337653517723083 0.39769428968429565
0.15310651063919067 -0.31282860040664673 0.4158700108528137
0.15130802989006042 -0.35517117381095886 0.3670969605445862
0.09158264845609665 -0.004328954964876175 1.5251469612121582
0.07827723026275635 -0.019414782524108887 0.8209220767021179
0.10601696372032166 -0.06283365190029144 0.7937431335449219
0.09638796746730804 -0.1081719696521759 1.250738501548767
0.15801279246807098 -0.31625598669052124 0.5093215703964233
0.08132339268922806 -0.011373892426490784 1.628736972808838
0.0815625935792923 -0.08549997210502625 1.3107606172561646
0.1834404319524765 -0.31598079204559326 0.4217098355293274
0.07808448374271393 0.15139706432819366 1.1609976291656494
0.10181224346160889 -0.07688391208648682 1.2290781736373901
0.20597799122333527 -0.2538267970085144 0.32638412714004517
0.1196686252951622 0.15373383462429047 1.0684783458709717
0.19008414447307587 -0.2533319294452667 0.3424227833747864
0.1969190388917923 -0.3648046851158142 0.34467417001724243
0.13618558645248413 0.03180134668946266 1.3040482997894287
0.09683617949485779 -0.1638091504573822 1.4803917407989502
0.11354430019855499 -0.1491968035697937 1.450465440750122
0.09731767326593399 -0.1594497710466385 1.4809656143188477
0.12828859686851501 -0.1320875734090805 1.4427807331085205
0.13388173282146454 -0.22377055883407593 1.1908729076385498
0.11829665303230286 -0.2348095178604126 1.178534984588623
0.15269805490970612 0.0634603500366211 1.195602297782898
0.16720564663410187 0.10450418293476105 1.1223284006118774
0.15890294313430786 0.09880572557449341 1.0872435569763184
0.16525591909885406 -0.10093297064304352 1.2757600545883179
0.15505391359329224 -0.14764314889907837 1.2665269374847412
0.15348686277866364 -0.15703165531158447 0.8799360990524292
0.16506825387477875 -0.1716473549604416 1.270247220993042
0.23421701788902283 -0.15482304990291595 1.1749881505966187
0.21505320072174072 -0.07697208970785141 1.1918206214904785
0.2394103854894638 -0.11852030456066132 1.1585496664047241
0.3104984164237976 -0.15471872687339783 1.213310956954956
0.3594011664390564 -0.06822067499160767 1.116454005241394
0.3532352149486542 -0.14793433248996735 1.1374634504318237
-0.1693529635667801 -0.25960469245910645 1.0971202850341797
-0.16107656061649323 -0.20295360684394836 1.1677861213684082
-0.16967926919460297 -0.1981479525566101 1.1918410062789917
-0.1579580157995224 -0.245940163731575 1.1039235591888428
-0.1500554084777832 0.005023067817091942 1.4763212203979492
-0.15448379516601562 -0.008887065574526787 1.4582972526550293
-0.16043515503406525 0.014009777456521988 1.4109745025634766
-0.16407400369644165 -0.0771445780992508 1.7231141328811646
-0.16079702973365784 -0.12370549142360687 1.6413174867630005
-0.2266826629638672 -0.0014081308618187904 0.3664867877960205
-0.13665258884429932 -0.06119667366147041 0.8430691957473755
-0.136879563331604 -0.08847017586231232 0.8276077508926392
-0.18619512021541595 0.11207795143127441 0.9508633017539978
-0.0953884869813919 -0.1763107180595398 1.2266474962234497
-0.12489040940999985 -0.025692053139209747 0.8127337694168091
-0.10865586996078491 -0.08166038990020752 1.7793158292770386
-0.08818600326776505 -0.13951486349105835 1.1215307712554932
-0.04960698261857033 -0.19986164569854736 1.1102955341339111
-0.10028791427612305 0.09187012910842896 1.0626665353775024
-0.011438854970037937 0.09189452230930328 1.0564810037612915
-0.07871928811073303 -0.03954713046550751 1.1598396301269531
-0.05803199112415314 -0.10763971507549286 0.8436315059661865
-0.041370078921318054 -0.2012786567211151 1.0536656379699707
-0.05974128097295761 0.012762743979692459 1.0600985288619995
-0.03223603963851929 -0.1863187998533249 1.7593212127685547
0.02265569008886814 -0.15605081617832184 0.7782948017120361
-0.06090991199016571 0.03323666751384735 1.2764503955841064
0.16582094132900238 -0.23571668565273285 0.14655885100364685
0.08984869718551636 0.17193087935447693 0.9994209408760071
0.06801732629537582 0.10328315943479538 1.074355125427246
0.027109168469905853 0.18116672337055206 1.0139331817626953
0.09858334809541702 0.08866435289382935 0.8298294544219971
0.22006414830684662 -0.18688717484474182 0.21664491295814514
0.11881804466247559 -0.04351170361042023 0.8199949264526367
0.16869331896305084 -0.310943603515625 0.46847885847091675
0.10984880477190018 -0.17613954842090607 1.3920118808746338
0.12328731268644333 -0.17236797511577606 1.3024941682815552
0.20058342814445496 -0.0017349272966384888 0.8239246606826782
0.1998589187860489 -0.024188123643398285 0.8975856304168701
0.3651275634765625 -0.10782866925001144 1.1173310279846191
-0.327924907207489 -0.14947469532489777 1.1259536743164062
-0.19222167134284973 -0.08486358076334 0.9191751480102539
-0.21725711226463318 -0.06851056218147278 0.8629453182220459
-0.1590011864900589 -0.002683822065591812 1.4071567058563232
-0.1644044667482376 0.03642351180315018 1.23396635055542
-0.15108677744865417 -0.08317707479000092 1.5447874069213867
-0.14001628756523132 -0.06417562812566757 1.0434112548828125
-0.14258287847042084 -0.09555622190237045 1.0819885730743408
-0.1518131047487259 -0.0799095407128334 1.543842077255249
-0.14770010113716125 -0.09794490039348602 1.5327181816101074
-0.15217427909374237 -0.08767069876194 1.5411752462387085
-0.15171055495738983 -0.09355969727039337 1.5436067581176758
-0.15316399931907654 -0.10813002288341522 1.5332921743392944
-0.22738036513328552 0.07662475854158401 0.20031914114952087
-0.15338915586471558 -0.15563756227493286 1.7058501243591309
-0.03969389200210571 -0.04759897291660309 1.2169238328933716
-0.1798122078180313 0.18992622196674347 0.11789050698280334
-0.05175263062119484 -0.06693591177463531 1.2557991743087769
-0.01264109555631876 -0.04266301169991493 1.170605182647705
-0.04285810887813568 0.09470737725496292 0.9245811700820923
-0.039721667766571045 -0.08531222492456436 1.7985183000564575
-0.059426199644804 -0.10000891983509064 0.6884247064590454
-0.033940717577934265 0.0405471995472908 1.2377688884735107
0.01847723126411438 -0.19654929637908936 1.0011578798294067
-0.026900751516222954 -0.22570019960403442 1.1953922510147095
0.0032995427027344704 0.07779058814048767 1.105299472808838
0.14420844614505768 -0.26683157682418823 0.2978195548057556
0.07465331256389618 -0.16999447345733643 0.9832916259765625
0.1175742894411087 -0.15331581234931946 0.9615986943244934
0.06688708066940308 -0.023402949795126915 1.5458953380584717
0.07479768991470337 -0.18418467044830322 1.1567994356155396
0.0358554869890213 -0.04628750681877136 1.1685091257095337
0.09347181767225266 -0.024869738146662712 1.0797693729400635
0.0773090273141861 0.06852385401725769 0.9421543478965759
0.24397948384284973 -0.2567092180252075 0.10281384736299515
0.21752549707889557 -0.2431829273700714 0.10345001518726349
0.2666378617286682 -0.24447225034236908 0.12452664971351624
0.22079786658287048 -0.3499608635902405 0.32247820496559143
0.09499049186706543 -0.1595708578824997 1.47674560546875
0.09614157676696777 -0.16075082123279572 1.477994441986084
0.09441904723644257 -0.1318538635969162 1.32064950466156
0.1205773577094078 -0.15760885179042816 1.2959479093551636
0.16220030188560486 0.13363665342330933 1.006818175315857
0.15701578557491302 0.1110871434211731 0.9594584703445435
0.16637584567070007 0.11807030439376831 0.9565329551696777
0.3629334270954132 -0.052465349435806274 1.1275922060012817
0.3889015018939972 -0.11761193722486496 1.0933027267456055
0.41553813219070435 -0.13754454255104065 1.0803484916687012
-0.32625308632850647 -0.062038060277700424 1.0693835020065308
-0.17468124628067017 -0.2319105714559555 1.1474480628967285
-0.19425679743289948 -0.023994052782654762 0.38564613461494446
-0.14070360362529755 0.1005529910326004 0.9229594469070435
-0.09650855511426926 -0.15431320667266846 1.0749434232711792
-0.040002863854169846 -0.03583484888076782 0.8375424742698669
-0.06200997158885002 -0.027475593611598015 0.7956832051277161
-0.05341712757945061 -0.08028200268745422 0.8022393584251404
-0.011645480990409851 0.006725957617163658 1.106601595878601
0.030207287520170212 -0.20207612216472626 0.8431680798530579
0.09835287928581238 0.019680071622133255 0.8339524269104004
0.08378904312849045 0.10558907687664032 1.0375940799713135
0.09427705407142639 -0.06320542842149734 1.5741422176361084
0.10168135911226273 -0.04269622638821602 1.546079158782959
0.18332791328430176 -0.08506016433238983 0.9157530665397644
-0.18252846598625183 -0.23470327258110046 1.1123812198638916
-0.1601848155260086 -0.025825107470154762 1.5695466995239258
-0.10393005609512329 0.1137302964925766 0.9704657196998596
-0.14229249954223633 0.004923000931739807 1.59850013256073
-0.11030741035938263 -0.029981769621372223 1.5907312631607056
-0.07330977916717529 -0.0394439771771431 1.5714921951293945
0.04440421983599663 -0.19939421117305756 1.0553314685821533
0.06285644322633743 -0.18721812963485718 1.2400637865066528
0.16885121166706085 -0.32106807827949524 0.24052901566028595
0.1024332046508789 -0.1563861221075058 1.2097804546356201
0.11240044236183167 -0.12785743176937103 1.1606944799423218
0.12649311125278473 6.69192522764206e-05 1.4425733089447021
0.1043832078576088 0.03612791746854782 1.4395692348480225
0.1140524297952652 -0.08393295109272003 1.177234411239624
0.11846043914556503 -0.08807875216007233 0.8272727727890015
0.09624465554952621 -0.224000483751297 1.2069532871246338
0.13870835304260254 0.046960681676864624 1.3269498348236084
-0.14843997359275818 0.03266070410609245 1.3278802633285522
-0.17891795933246613 0.03316318243741989 0.4325706958770752
0.040014877915382385 -0.19175985455513 0.7478074431419373
0.026149671524763107 -0.18886394798755646 1.740959882736206
-0.19130845367908478 0.10465400665998459 1.0254195928573608
-0.16085833311080933 -0.16189974546432495 1.2527332305908203
-0.13871659338474274 -0.019891956821084023 0.4340834617614746
-0.002011151984333992 0.06753811240196228 1.4581105709075928
0.1949208825826645 -0.2526455819606781 0.10593753308057785
0.09552356600761414 -0.12836547195911407 1.5373096466064453
0.09343752264976501 -0.12748362123966217 1.536354660987854
0.09739881753921509 -0.15012341737747192 1.4318333864212036
0.21792782843112946 -0.3279683589935303 0.29379957914352417
0.23158210515975952 -0.29019200801849365 0.2973079979419708
0.21540467441082 -0.17466753721237183 1.2206730842590332
-0.16999736428260803 -0.1600853055715561 0.9267265200614929
-0.15343810617923737 0.015563879162073135 1.3641357421875
-0.1505710780620575 0.013150740414857864 1.3672871589660645
-0.15646320581436157 0.009867019951343536 1.3673175573349
-0.16356678307056427 0.0828891173005104 0.2594074606895447
-0.03883831948041916 -0.0895102471113205 0.8390696048736572
0.1443590521812439 -0.28772851824760437 0.24608860909938812
0.2698916792869568 -0.17337410151958466 1.1868574619293213
0.08506839722394943 -0.13883326947689056 1.6841607093811035
0.13378237187862396 -0.14612694084644318 0.8087133169174194
0.1433766633272171 0.0027427738532423973 1.3926842212677002
0.14167356491088867 0.025013338774442673 1.348464012145996
0.15813924372196198 -0.19898450374603271 0.18398049473762512
0.41674184799194336 -0.5184980630874634 0.9623503684997559
0.4086410701274872 -0.47926825284957886 0.9482212662696838
0.4124792218208313 -0.4906606674194336 0.9455327391624451
0.4007194936275482 -0.48829102516174316 0.9521452188491821
0.41319775581359863 -0.5149202346801758 0.946384847164154
0.4134868383407593 -0.509811282157898 0.9659996628761292
0.4086635112762451 -0.34135016798973083 1.003199815750122
0.3960839509963989 -0.3479127287864685 0.9929603338241577
0.4107966721057892 -0.3712770938873291 0.99488365650177
0.4056628942489624 -0.3822028338909149 0.994800329208374
0.39251235127449036 -0.15272000432014465 0.9995639324188232
0.3882356286048889 -0.17243528366088867 1.0099061727523804
0.39873382449150085 -0.1652822643518448 0.9876477122306824
0.40490981936454773 -0.35150524973869324 0.9547445774078369
0.40470102429389954 -0.3730698823928833 0.9641125202178955
0.4144561290740967 -0.4144209921360016 1.00530207157135
0.4119530916213989 -0.3990444242954254 1.0003858804702759
0.40402254462242126 -0.1965339183807373 0.9559895396232605
0.39619749784469604 -0.21546366810798645 0.9725662469863892
0.40754434466362 -0.2688848674297333 1.0286076068878174
0.40152135491371155 -0.2618522047996521 1.023349404335022
0.42171525955200195 -0.4913290739059448 0.9867371320724487
0.41751042008399963 -0.4611627161502838 0.9457277059555054
0.4060512185096741 -0.1581464260816574 0.9790782332420349
0.40205562114715576 -0.16692979633808136 0.9710595607757568
0.3884566128253937 0.01999160647392273 1.1477476358413696
0.3909260034561157 0.007178768515586853 1.1394188404083252
0.39236342906951904 0.027618788182735443 1.125834584236145
0.41313356161117554 -0.4395783245563507 0.9904433488845825
0.41619741916656494 -0.4669702649116516 0.9843659400939941
0.40695106983184814 -0.16038113832473755 0.9715853929519653
0.408077597618103 -0.15572097897529602 0.9634796977043152
0.4258413314819336 -0.5271828174591064 0.9039138555526733
0.4304037392139435 -0.5423268675804138 0.906205415725708
0.397329181432724 0.03822052478790283 1.146803617477417
0.39693522453308105 0.022404156625270844 1.1535296440124512
0.3921569883823395 0.04029180854558945 1.1391432285308838
0.39667585492134094 0.033986881375312805 1.1262203454971313
0.43014204502105713 -0.5935665369033813 0.9484928846359253
0.4346536099910736 -0.6162434220314026 0.9542024731636047
0.43377718329429626 -0.6113814115524292 0.9323363304138184
0.4081137180328369 -0.2827318012714386 0.9551875591278076
0.41749194264411926 -0.3008394241333008 0.9499333500862122
0.4152269661426544 -0.3221203088760376 0.9319570660591125
0.42297011613845825 -0.31577587127685547 0.9340640306472778
0.39851662516593933 0.012308016419410706 1.1564958095550537
0.39674970507621765 0.04347755014896393 1.1363375186920166
0.4234350919723511 -0.43782493472099304 1.0094276666641235
0.43066781759262085 -0.43726977705955505 1.012715458869934
0.42037126421928406 -0.4562358558177948 1.004699468612671
0.428472101688385 -0.4760456085205078 1.0032707452774048
0.4108329117298126 -0.23515209555625916 0.9600993394851685
0.4145278334617615 -0.2512195408344269 0.9489455223083496
0.40998411178588867 -0.2564395070075989 0.9543284773826599
0.4027843475341797 0.03879867494106293 1.1410303115844727
0.4021291136741638 0.012753792107105255 1.1528455018997192
0.40368354320526123 0.02650582790374756 1.1280834674835205
0.4093279242515564 -0.11790907382965088 0.9444974660873413
0.40863195061683655 -0.12179233133792877 0.9354158639907837
0.4113336503505707 -0.13951537013053894 0.9532865285873413
0.4135875999927521 -0.1337132602930069 0.9469733238220215
0.4058898985385895 -0.12797363102436066 0.9431902170181274
0.4303998649120331 -0.3437594175338745 0.9186334609985352
0.4211549460887909 -0.3259430527687073 0.920987606048584
0.4246412217617035 -0.3285400867462158 0.9065020084381104
0.42433053255081177 -0.33232390880584717 0.9061278700828552
0.4033956527709961 0.02089979499578476 1.1358658075332642
0.4412926137447357 -0.6243325471878052 0.9559838175773621
0.4421502947807312 -0.6141400337219238 0.9409247040748596
0.44511714577674866 -0.6341079473495483 0.9511138200759888
0.43751490116119385 -0.6388247013092041 0.9520798325538635
0.4374665915966034 -0.6036696434020996 0.927204966545105
0.42413750290870667 -0.1510341465473175 1.0001490116119385
0.41586124897003174 -0.15974144637584686 0.9785602688789368
0.43493685126304626 -0.5047236084938049 0.9053688645362854
0.43289926648139954 -0.5335081815719604 0.9051609635353088
0.43788161873817444 -0.5595724582672119 0.9107930064201355
0.42254170775413513 -0.2573906183242798 1.0331897735595703
0.4215157926082611 -0.2777860760688782 1.0271375179290771
0.430338978767395 -0.28792232275009155 1.0185821056365967
0.43090057373046875 -0.4307597875595093 1.0191830396652222
0.43442022800445557 -0.4399622976779938 1.0052467584609985
0.43682268261909485 -0.49611878395080566 0.9939609169960022
0.42448529601097107 -0.3986637592315674 1.010662317276001
0.4403407871723175 -0.4795334041118622 0.9319511651992798
0.43914949893951416 -0.514615535736084 0.9191297292709351
0.4280625879764557 -0.25371649861335754 1.0303198099136353
0.4376458525657654 -0.4043402075767517 0.9930751323699951
0.4415787160396576 -0.3811427056789398 0.992485523223877
0.43941983580589294 -0.423145592212677 0.9907892346382141
0.44316500425338745 -0.5795835852622986 0.941537618637085
0.4463401138782501 -0.5618341565132141 0.9354814887046814
0.43107834458351135 -0.37610548734664917 0.9435909390449524
0.4379361569881439 -0.3815864324569702 0.9566998481750488
0.43344372510910034 -0.40399885177612305 0.9546761512756348
0.44058722257614136 -0.40807604789733887 0.9629411697387695
0.4329145550727844 -0.3267461657524109 1.003421664237976
0.4288785457611084 -0.36786919832229614 0.9972814321517944
0.44036954641342163 -0.48471885919570923 0.976392388343811
0.44779452681541443 -0.5082014799118042 0.9635496139526367
0.4372852146625519 -0.516539990901947 0.9658814668655396
0.4421938955783844 -0.4670409858226776 0.9541972875595093
0.4458704888820648 -0.47629332542419434 0.9465025067329407
0.43776023387908936 -0.33628734946250916 0.9614847302436829
0.4374959468841553 -0.3555039167404175 0.956490159034729
0.4327423572540283 -0.32002416253089905 0.949456512928009
0.4360293745994568 -0.346637487411499 0.9503267407417297
0.4334236681461334 -0.36515742540359497 0.9535678625106812
0.4379424452781677 -0.3192124366760254 0.9784883260726929
0.43646684288978577 -0.3052346706390381 0.989502489566803
0.4318755865097046 -0.2846694588661194 0.9634854793548584
0.4360198974609375 -0.30015450716018677 0.9768273830413818
0.4450213313102722 -0.48830485343933105 0.9476175904273987
0.45134836435317993 -0.510420560836792 0.9482569694519043
0.44448649883270264 -0.49925288558006287 0.9453828930854797
0.459247350692749 -0.501319944858551 0.9493066072463989
0.43397825956344604 -0.17088982462882996 1.0092960596084595
0.39950162172317505 -0.4648836851119995 0.9717279076576233
0.3984426259994507 -0.4784128665924072 0.9574083089828491
0.400289922952652 -0.3907734155654907 0.9821553826332092
0.39854946732521057 -0.3882322311401367 0.9780158400535583
0.39402148127555847 -0.4097787141799927 0.9798102378845215
0.39679765701293945 -0.395135760307312 0.9735422134399414
0.3983292579650879 -0.41234081983566284 0.9782336950302124
0.40619000792503357 -0.34955960512161255 0.9740155935287476
0.40330639481544495 -0.35850417613983154 0.970772385597229
0.4027509391307831 -0.32550662755966187 0.9781826734542847
0.40239274501800537 -0.4099797010421753 0.9858243465423584
0.42204615473747253 -0.4830165207386017 0.9248631000518799
0.41326266527175903 -0.5113664865493774 0.9427015781402588
0.40682464838027954 -0.38280102610588074 0.9548454880714417
0.414610356092453 -0.5375939607620239 0.9468899965286255
0.4203340411186218 -0.5613868236541748 0.936712920665741
0.42175909876823425 -0.5410375595092773 0.9338068962097168
0.42210906744003296 -0.5820993781089783 0.9424540400505066
0.39860281348228455 -0.1511441320180893 1.0231281518936157
0.4069591164588928 -0.22400149703025818 1.073492169380188
0.4014113247394562 -0.2278422862291336 1.0626578330993652
0.41027966141700745 -0.23166537284851074 1.0677838325500488
0.40651097893714905 -0.23436662554740906 0.965994119644165
0.39002475142478943 0.022634357213974 1.1122910976409912
0.39463239908218384 -0.008486330509185791 1.1478710174560547
0.39657554030418396 -0.019597124308347702 1.1366530656814575
0.392371267080307 -0.013203747570514679 1.1280583143234253
0.4212172031402588 -0.35037410259246826 1.009204626083374
0.4227612018585205 -0.5142993330955505 0.9940048456192017
0.4302060604095459 -0.5760571956634521 0.9194096922874451
0.39401862025260925 -0.044885434210300446 1.077648639678955
0.4074019491672516 -0.07030387222766876 1.0577362775802612
0.4160730242729187 -0.3272281885147095 1.0248587131500244
0.41386860609054565 -0.33253538608551025 1.0153415203094482
0.414960652589798 -0.377956360578537 1.0033960342407227
0.43257078528404236 -0.5876492857933044 0.9185663461685181
0.43634817004203796 -0.6311008930206299 0.9596694111824036
0.4369162917137146 -0.6420978903770447 0.9586054682731628
0.43598729372024536 -0.6296417117118835 0.9424372911453247
0.4038078784942627 -0.12342062592506409 1.0345712900161743
0.41254785656929016 -0.14487767219543457 1.0274628400802612
0.42702797055244446 -0.37690603733062744 1.0031899213790894
0.4036919176578522 -0.14811654388904572 1.0018727779388428
0.4338691830635071 -0.5500037670135498 0.9056340456008911
0.41259124875068665 -0.18477763235569 1.1080609560012817
0.41474172472953796 -0.1835094392299652 1.1037906408309937
0.41233766078948975 -0.1903229057788849 1.088936448097229
0.4158211350440979 -0.19978705048561096 1.0981111526489258
0.4189099371433258 -0.21405421197414398 1.0959818363189697
0.40413928031921387 -0.18590503931045532 1.0646569728851318
0.41548001766204834 -0.18529635667800903 1.0707505941390991
0.43859949707984924 -0.6418789029121399 0.9607804417610168
0.42525991797447205 -0.38954979181289673 0.9398987293243408
0.4267040193080902 -0.4054877758026123 0.942031741142273
0.42229944467544556 -0.4105611741542816 0.9420434236526489
0.42406612634658813 -0.36589086055755615 0.932010293006897
0.42245009541511536 -0.19856204092502594 1.0955915451049805
0.42141610383987427 -0.2145732343196869 1.0935750007629395
0.4184908866882324 -0.1602030098438263 0.9638712406158447
0.41839665174484253 -0.18854361772537231 1.0999362468719482
0.419292688369751 -0.19180980324745178 1.088028907775879
0.42811405658721924 -0.41489177942276 1.0111984014511108
0.4196338653564453 -0.15713143348693848 0.9355108141899109
0.41806212067604065 -0.15358741581439972 0.9281502366065979
0.4160987436771393 -0.16220152378082275 0.9153275489807129
0.4185484051704407 -0.1738859862089157 0.9169224500656128
0.426535040140152 -0.15287403762340546 1.0246890783309937
0.4236602187156677 -0.21753163635730743 1.0737943649291992
0.4344027638435364 -0.43744874000549316 0.9900127649307251
0.43333274126052856 -0.4617990255355835 0.9895880222320557
0.4223494231700897 -0.17556746304035187 0.9585378766059875
0.4275270402431488 -0.18426650762557983 0.9526901841163635
0.4202277660369873 -0.1745612770318985 0.9411958456039429
0.4433552324771881 -0.45758336782455444 0.9814232587814331
0.4427722692489624 -0.4339648485183716 0.9789589047431946
0.4414280652999878 -0.4390662610530853 0.9602557420730591
0.44151055812835693 -0.41884851455688477 0.9660623073577881
0.43842899799346924 -0.5323457717895508 0.9291993379592896
0.44584229588508606 -0.5392532348632812 0.9312925338745117
0.4297927916049957 -0.17938746511936188 0.9766138195991516
0.43163666129112244 -0.1980859637260437 1.025208592414856
0.4350370764732361 -0.2231946885585785 1.010934591293335
0.4347102642059326 -0.20897164940834045 1.006128191947937
0.43432849645614624 -0.23902252316474915 1.005930781364441
0.43360763788223267 -0.24553023278713226 0.9946460723876953
0.45065924525260925 -0.4566303491592407 0.9640253782272339
0.4536164104938507 -0.44485539197921753 0.9664103388786316
0.4570837616920471 -0.4933437705039978 0.966333270072937
0.4529012143611908 -0.375604510307312 0.9836752414703369
0.4488486349582672 -0.4098602533340454 0.9803313612937927
0.4458523988723755 -0.384989470243454 0.9806723594665527
0.4458358883857727 -0.39349988102912903 0.9742082953453064
0.44936415553092957 -0.40430954098701477 0.976891815662384
0.43975332379341125 -0.39120662212371826 0.983102023601532
0.4505208730697632 -0.4084036946296692 0.9737964868545532
0.4586460590362549 -0.5048516988754272 0.9588469862937927
0.4561114013195038 -0.49247491359710693 0.9536925554275513
0.401248574256897 -0.48920339345932007 0.9661821126937866
0.40068894624710083 -0.5069031715393066 0.962062656879425
0.4014618694782257 -0.4787127375602722 0.951533854007721
0.40466034412384033 -0.5016193389892578 0.9517892599105835
0.3921579122543335 -0.21152861416339874 1.0542157888412476
0.392564982175827 -0.17875242233276367 0.9944761991500854
0.3936482071876526 -0.19051817059516907 0.9841890335083008
0.3911917805671692 -0.17384162545204163 1.0421322584152222
0.41206932067871094 -0.4715914726257324 0.9770902991294861
0.41120660305023193 -0.4429997503757477 0.9603230357170105
0.3985798954963684 -0.2384602278470993 0.9944998025894165
0.4025947153568268 -0.24085646867752075 0.9783209562301636
0.3942562937736511 -0.22919514775276184 1.0404915809631348
0.40201178193092346 -0.24698805809020996 1.0328302383422852
0.4111802577972412 -0.4318399429321289 0.9638181328773499
0.4155915379524231 -0.4891726076602936 0.9764034748077393
0.40618419647216797 -0.2710789144039154 0.9786431193351746
0.4032290577888489 -0.30964675545692444 0.9770548343658447
0.40575119853019714 -0.2933748960494995 0.9625920057296753
0.40847504138946533 -0.4077225923538208 0.9614065885543823
0.4240894317626953 -0.5673342943191528 0.952390730381012
0.428865522146225 -0.6024649143218994 0.9432190656661987
0.4308464825153351 -0.5952290296554565 0.927862823009491
0.403231143951416 -0.2124735414981842 1.0886037349700928
0.40846049785614014 -0.24758656322956085 1.0658787488937378
0.4093802571296692 -0.2898714244365692 1.0243635177612305
0.41028720140457153 -0.31661078333854675 1.0211358070373535
0.41202113032341003 -0.3072645366191864 0.9524803161621094
0.41111111640930176 -0.26557403802871704 1.0705201625823975
0.40759098529815674 -0.2348344624042511 1.043357491493225
0.41354700922966003 -0.2535315155982971 1.035368800163269
0.42668184638023376 -0.532582700252533 0.9852346777915955
0.4313892126083374 -0.5564917325973511 0.966415286064148
0.4191519021987915 -0.4134000241756439 0.943734347820282
0.40156421065330505 -0.09793248772621155 1.0754754543304443
0.3984275162220001 -0.0826464369893074 1.0829017162322998
0.4158566892147064 -0.32649868726730347 0.9209177494049072
0.42232319712638855 -0.30700135231018066 1.021472692489624
0.42462024092674255 -0.3283279538154602 1.0286704301834106
0.4303792715072632 -0.5256198048591614 0.9900447726249695
0.4350298345088959 -0.5312792062759399 0.9852777719497681
0.4308375120162964 -0.5436768531799316 0.9768844246864319
