-0.15372291207313538 0.029115915298461914 1.667320728302002
-0.1333528757095337 0.06028006970882416 1.6232068538665771
-0.14360859990119934 0.041864845901727676 1.5713262557983398
-0.11552002280950546 -0.0038178209215402603 1.0273542404174805
-0.1538325846195221 -0.04973365738987923 0.9903925061225891
-0.16064471006393433 -0.11715792864561081 0.9767582416534424
-0.1434117704629898 0.024742409586906433 1.505807638168335
-0.2745771110057831 -0.06766099482774734 0.05340064316987991
-0.2893630266189575 -0.1300022304058075 0.02297312580049038
-0.2942633032798767 -0.1531980037689209 0.042004361748695374
-0.14937599003314972 -0.03774131089448929 1.3637889623641968
-0.13836733996868134 0.0032201893627643585 1.3144006729125977
-0.13365279138088226 -0.022183213382959366 1.2940952777862549
-0.15808895230293274 -0.048303596675395966 1.3514904975891113
-0.14181427657604218 -0.09026357531547546 1.3058768510818481
-0.21536985039710999 -0.03261172026395798 0.47021371126174927
-0.2150880992412567 -0.060616396367549896 0.3855800926685333
-0.22767595946788788 -0.00793041754513979 0.3253711760044098
-0.23389582335948944 -0.03546854853630066 0.35225245356559753
-0.1468631476163864 0.03905985876917839 1.637477993965149
-0.1363925337791443 -0.06112631782889366 1.2617124319076538
-0.14043520390987396 -0.06879182159900665 1.2208386659622192
-0.1435430496931076 -0.09331835061311722 1.2496631145477295
-0.16695360839366913 -0.1061737984418869 1.2491375207901
-0.22268100082874298 0.0020970480982214212 0.25067415833473206
-0.146647647023201 -0.03760051727294922 1.4984564781188965
-0.12938877940177917 0.030260559171438217 1.5065109729766846
-0.13880933821201324 0.0008244365453720093 1.4978961944580078
-0.1854824274778366 -0.06977140158414841 0.5686125159263611
-0.10206879675388336 0.01845771074295044 1.726726770401001
-0.1281861513853073 -0.11256386339664459 1.1886718273162842
-0.11652188003063202 -0.040448982268571854 1.1421303749084473
-0.1303463578224182 -0.12709148228168488 0.738098680973053
-0.10170232504606247 0.0679120421409607 1.6825623512268066
-0.12850038707256317 -0.06737163662910461 1.3736977577209473
-0.1016995832324028 -0.11979654431343079 0.844485878944397
-0.13728582859039307 -0.13093945384025574 0.8655750155448914
-0.12246123701334 -0.19630485773086548 0.9054340124130249
-0.10506446659564972 -0.21245667338371277 0.8444502353668213
-0.2673913538455963 -0.1903916448354721 0.061391957104206085
-0.0660657286643982 0.08390343934297562 1.6825182437896729
-0.09585846960544586 0.02830679714679718 1.711856722831726
-0.14530666172504425 -0.014355037361383438 1.4143227338790894
-0.12851949036121368 -0.039364323019981384 1.4572291374206543
-0.19368340075016022 0.012799404561519623 0.3197735548019409
-0.22031010687351227 -0.010993343777954578 0.203107088804245
-0.257388174533844 -0.1856507807970047 0.1038573831319809
-0.22436583042144775 -0.002623222768306732 0.05837801843881607
-0.10851040482521057 -0.018834110349416733 1.2997407913208008
-0.16620801389217377 -0.09592883288860321 0.541559100151062
-0.22244490683078766 -0.1525195986032486 0.0020142076537013054
-0.262527734041214 -0.15352728962898254 -0.0009834724478423595
-0.09616715461015701 0.02022063359618187 1.5211844444274902
-0.10391220450401306 -0.0073412321507930756 1.478525161743164
-0.03296073153614998 -0.21437029540538788 0.8989270925521851
-0.07784221321344376 0.0884845107793808 0.8575390577316284
-0.21989774703979492 -0.1136413961648941 0.26257267594337463
-0.1969805657863617 -0.10958091914653778 0.18652431666851044
-0.2029886245727539 -0.01062367856502533 0.10180957615375519
-0.09406936168670654 -0.01811055652797222 1.2660763263702393
-0.10356906056404114 -0.0362706258893013 1.226088523864746
-0.0775790885090828 -0.13616332411766052 1.2866501808166504
-0.13404642045497894 -0.028526416048407555 0.6616069078445435
-0.11361078917980194 -0.129209965467453 0.7312358617782593
-0.07148395478725433 -0.11959294974803925 0.8069258332252502
-0.18763619661331177 -0.11717753112316132 0.1526167243719101
-0.21028926968574524 -0.18031348288059235 0.06772057712078094
-0.12377859652042389 -0.08994593471288681 1.4488890171051025
-0.09231799840927124 -0.010908951982855797 1.33375883102417
-0.06421755254268646 -0.015421755611896515 1.2730224132537842
-0.13580071926116943 -0.09742278605699539 0.5642868876457214
-0.11484809964895248 -0.07815434038639069 0.5639580488204956
-0.15196523070335388 0.01797872595489025 0.5072750449180603
-0.09802674502134323 -0.07727353274822235 1.4203131198883057
-0.07058893144130707 -0.04139982536435127 1.4068495035171509
-0.09866161644458771 0.00324886292219162 1.3734934329986572
-0.12598590552806854 -0.019635308533906937 0.5129689574241638
-0.05407478287816048 0.03835413604974747 1.7181774377822876
-0.12034851312637329 -0.13186714053153992 1.5748918056488037
-0.039112675935029984 -0.188066303730011 0.973858118057251
-0.07614193856716156 -0.05130714550614357 1.4195265769958496
-0.05704503506422043 -0.08007695525884628 1.4039100408554077
-0.07669776678085327 -0.06383718550205231 1.3976088762283325
-0.06979043781757355 -0.13129037618637085 1.5101361274719238
-0.10493119060993195 -0.12010744214057922 1.4597926139831543
-0.05011685937643051 -0.022720301523804665 1.4308016300201416
-0.09717176109552383 -0.04302283003926277 0.6326481103897095
-0.015432704240083694 -0.0073631443083286285 1.734708547592163
-0.02205396443605423 0.09317652136087418 1.655339241027832
-0.059995029121637344 -0.14720956981182098 1.4606523513793945
-0.07210128754377365 -0.12162692099809647 1.4177665710449219
-0.034491539001464844 -0.032561663538217545 1.4069043397903442
-0.046572647988796234 -0.1277322769165039 1.4194713830947876
-0.006374269723892212 -0.015398159623146057 1.3860366344451904
-0.02522394247353077 -0.029930775985121727 1.2652324438095093
-0.010139428079128265 0.04443294554948807 1.7157164812088013
-0.016772305592894554 -0.03397131711244583 1.4335613250732422
-0.02295486256480217 -0.07501911371946335 1.4184341430664062
0.019594009965658188 0.057010017335414886 1.6811944246292114
-0.0038965120911598206 0.0016718097031116486 1.719490647315979
-0.0192553848028183 -0.0671674981713295 1.408510446548462
0.010492756962776184 -0.09733972698450089 1.4414376020431519
-0.01222761906683445 -0.04851900786161423 1.413372278213501
0.0724443718791008 -0.09129488468170166 0.5848108530044556
0.015614710748195648 -0.01235390454530716 1.4661380052566528
0.10840202867984772 -0.11248572170734406 0.5013434886932373
-0.008935348130762577 -0.17433932423591614 1.2465678453445435
0.04366922751069069 -0.06134464219212532 1.2428455352783203
0.04471707344055176 -0.08027806878089905 1.135361909866333
0.13985978066921234 -0.15978629887104034 0.06711510568857193
0.15600503981113434 -0.15502896904945374 0.04456189647316933
0.1264737844467163 -0.018759943544864655 0.06687463819980621
0.005123833194375038 -0.15891379117965698 1.233831763267517
-0.003742065280675888 -0.19428661465644836 1.159026026725769
0.06761528551578522 -0.14061345160007477 0.7236241698265076
0.12287042289972305 -0.0760980099439621 0.04113176465034485
0.04244113713502884 -0.007488250732421875 1.6795845031738281
-0.005410410463809967 -0.14543575048446655 1.5818449258804321
-0.006451752036809921 -0.12757404148578644 1.5006954669952393
-0.00694621354341507 -0.1271938681602478 1.4583799839019775
0.09460550546646118 -0.16219094395637512 0.8707484006881714
0.08968698978424072 -0.01876695640385151 1.7076592445373535
0.021047212183475494 -0.013796597719192505 1.5147196054458618
0.018472924828529358 -0.03474654629826546 1.4857677221298218
0.13035069406032562 -0.027966827154159546 0.3183094561100006
0.12288737297058105 -0.021155862137675285 0.25563186407089233
0.13940806686878204 -0.011702258139848709 0.04743657633662224
0.03461623191833496 -0.021931950002908707 1.760767936706543
0.05038734897971153 -0.03698316961526871 1.383905053138733
0.09580090641975403 -0.2193727195262909 0.8578438758850098
0.08474157005548477 -0.1327153444290161 0.8569217920303345
0.1264151632785797 -0.19618764519691467 0.8584809303283691
0.09251625090837479 -0.039678603410720825 0.7450717687606812
0.1813519150018692 -0.15539495646953583 0.057539500296115875
0.05358754098415375 -0.018174652010202408 1.6902879476547241
0.03125600144267082 -0.16694308817386627 1.12856125831604
0.032261624932289124 -0.14915765821933746 1.2496426105499268
0.03167828917503357 -0.1659356951713562 1.247029423713684
0.12427155673503876 -0.1905709207057953 0.9253957271575928
0.03805886209011078 -0.08631855994462967 1.5229268074035645
0.04956257343292236 -0.014202285557985306 1.5272648334503174
0.04526562616229057 -0.039082325994968414 1.5114896297454834
0.04997256025671959 -0.05436192452907562 1.5069999694824219
0.05537460744380951 -0.06701771914958954 1.4837510585784912
0.13215914368629456 -0.06606274843215942 0.6428601145744324
0.1299382597208023 -0.1312645971775055 0.6619073152542114
0.05872660130262375 -0.07541418820619583 1.3672034740447998
0.0654074177145958 -0.03277686983346939 1.3079426288604736
0.03579093888401985 -0.032994162291288376 1.3274285793304443
0.043347496539354324 -0.05173536017537117 1.3023966550827026
0.12073881924152374 -0.11943735927343369 0.8244587182998657
0.1842878758907318 -0.03378156200051308 0.050210192799568176
0.19638727605342865 -0.0593346431851387 0.04728742316365242
0.06030690297484398 -0.025405587628483772 1.6454252004623413
0.07375457882881165 -0.04883212596178055 1.3594474792480469
0.1930081844329834 -0.07580287754535675 0.30380192399024963
0.08619895577430725 -0.00960879772901535 1.6232532262802124
0.06498163938522339 0.017091695219278336 1.6290555000305176
0.0725315660238266 -0.011141616851091385 1.5924961566925049
0.19952820241451263 -0.06141890585422516 0.12521980702877045
0.2061396837234497 -0.12160539627075195 0.056014809757471085
0.19441691040992737 -0.14874130487442017 0.0858917310833931
0.1519998461008072 -0.017468761652708054 0.964448094367981
0.14764732122421265 -0.017439957708120346 0.8653361797332764
0.0865418016910553 -0.034331656992435455 1.7021945714950562
0.1653217077255249 0.03574035316705704 0.8716180920600891
0.17861688137054443 -0.0009567239321768284 0.9339662194252014
0.08742114901542664 -0.04459640756249428 1.3022593259811401
0.09472310543060303 -0.06649771332740784 1.2890715599060059
0.06839495897293091 -0.07790548354387283 1.33771550655365
0.09592306613922119 -0.05678648501634598 1.2482895851135254
0.08565417677164078 -0.05838484317064285 1.2285397052764893
0.09178716689348221 -0.1329478621482849 1.219256043434143
0.10694856196641922 -0.09101594239473343 1.2500684261322021
0.12580373883247375 -0.07321614027023315 1.1832481622695923
0.1363081932067871 -0.08328942209482193 1.1082730293273926
0.16016694903373718 -0.09735653549432755 1.1210839748382568
0.14958807826042175 -0.10833484679460526 1.1734156608581543
0.12060105800628662 -0.1393665373325348 1.194380760192871
0.16146312654018402 -0.12379567325115204 1.0707566738128662
0.1769932508468628 -0.1806289106607437 1.1256988048553467
0.18453018367290497 -0.1625535786151886 1.1051524877548218
0.17624342441558838 -0.13836848735809326 1.078634262084961
0.1315564513206482 -0.214591383934021 1.1130284070968628
0.1555635929107666 -0.1882176399230957 1.0793240070343018
0.15649418532848358 -0.17110097408294678 1.0640250444412231
0.18506532907485962 -0.25466564297676086 0.9699828624725342
0.13416050374507904 -0.20219145715236664 1.0805708169937134
0.1346779465675354 -0.22190186381340027 1.0526376962661743
0.17303599417209625 -0.20540565252304077 0.9971944689750671
0.1383502185344696 -0.2118518352508545 1.0270932912826538
0.13094942271709442 -0.23727375268936157 1.031713604927063
0.15347714722156525 -0.2360261231660843 1.0029799938201904
0.16891562938690186 -0.24149879813194275 0.9991425275802612
0.12587818503379822 -0.2567307949066162 1.007987380027771
0.14752542972564697 -0.25429150462150574 0.9989595413208008
0.13642755150794983 -0.25331956148147583 1.0077732801437378
0.17814216017723083 -0.2594112753868103 0.9511094093322754
0.1413504183292389 -0.26809000968933105 0.9958198070526123
0.16315211355686188 -0.24251452088356018 0.9646921753883362
0.16323402523994446 -0.273923397064209 0.9644967913627625
0.1776503026485443 -0.26902294158935547 0.967025637626648
-0.29963767528533936 -0.03842592611908913 1.075066328048706
-0.29450470209121704 -0.09135950356721878 1.0611811876296997
-0.2799902856349945 -0.07594458758831024 1.0591658353805542
-0.2997644245624542 -0.10855943709611893 1.0959186553955078
-0.24797068536281586 -0.039310455322265625 1.0714937448501587
-0.27559059858322144 -0.11164259910583496 1.0794718265533447
-0.19443905353546143 -0.015214988961815834 1.2170467376708984
-0.19673416018486023 -0.06637470424175262 1.192223310470581
-0.1725533902645111 -0.09581474959850311 0.955451250076294
-0.17663916945457458 -0.014466616325080395 0.9358987808227539
-0.1265535056591034 0.051027920097112656 0.9224633574485779
-0.08049201965332031 0.12962517142295837 1.2546093463897705
-0.07481679320335388 0.12861311435699463 1.1973904371261597
-0.06991726160049438 0.1525460034608841 1.174487829208374
-0.15143588185310364 -0.010787300765514374 0.9566729068756104
-0.18873408436775208 0.01914161443710327 1.6840347051620483
-0.14715294539928436 -0.007092319428920746 1.3332384824752808
-0.16659072041511536 -0.004421494901180267 1.2690706253051758
-0.008588401600718498 0.1445644199848175 1.0827672481536865
-0.029501283541321754 0.14907468855381012 1.0062215328216553
-0.2769889235496521 -0.08068186789751053 0.11363454163074493
-0.29532092809677124 -0.13559943437576294 0.06783661991357803
-0.16722607612609863 0.00571836531162262 1.6683005094528198
-0.15274079144001007 0.01990831270813942 1.6156973838806152
-0.15528574585914612 -0.12786799669265747 1.2242226600646973
-0.15537762641906738 -0.1422034054994583 1.1993275880813599
-0.16040949523448944 -0.16149994730949402 1.1934325695037842
-0.09039466083049774 0.09063006937503815 1.3597756624221802
-0.08207584917545319 0.08362098038196564 1.3564647436141968
-0.13664276897907257 -0.13198724389076233 1.2400732040405273
-0.1441076397895813 -0.06142809987068176 1.1884987354278564
-0.2483699768781662 -0.09954223036766052 0.1775171160697937
-0.2566511332988739 -0.05462893471121788 0.18761560320854187
-0.034891314804553986 0.1081262081861496 1.2489105463027954
-0.1522662490606308 -0.02702808566391468 1.4255176782608032
-0.15033866465091705 -0.021118775010108948 1.40553617477417
-0.1376376450061798 -0.023178674280643463 1.3884021043777466
-0.15228688716888428 -0.01907123625278473 1.3859257698059082
-0.15312567353248596 -0.035258881747722626 1.3747687339782715
-0.14474695920944214 -0.11121521890163422 0.7849348187446594
-0.15750055015087128 -0.0724652111530304 0.779513955116272
0.0035958942025899887 0.19768548011779785 1.0958350896835327
0.000499306246638298 0.19444893300533295 1.143283724784851
-0.1276596188545227 -0.12547074258327484 1.2347280979156494
-0.12483703345060349 -0.11050903052091599 0.8577672243118286
-0.24970608949661255 -0.01751444861292839 0.10849542170763016
-0.2547975778579712 -0.01905164122581482 0.07009768486022949
-0.13691796362400055 -0.18465231359004974 0.84519362449646
-0.03153640404343605 0.16641417145729065 1.2346951961517334
-0.15451431274414062 -0.1008792519569397 1.573244333267212
-0.12101662158966064 0.006651695817708969 1.5023785829544067
-0.0834789052605629 0.08637277781963348 1.4815940856933594
-0.08605927973985672 0.05215279757976532 1.5328571796417236
-0.1069236472249031 0.05295795202255249 1.5077400207519531
-0.09152638912200928 0.07134873420000076 1.4298073053359985
-0.03982393816113472 0.10457997769117355 1.526181936264038
-0.11496807634830475 -0.026199549436569214 1.454279899597168
-0.0846729427576065 0.043814171105623245 0.9677855968475342
-0.13045987486839294 0.010466855019330978 1.7637170553207397
-0.13807812333106995 0.005408532917499542 1.7570288181304932
-0.14581528306007385 -0.004423048347234726 1.743961215019226
-0.011478463187813759 0.05145201459527016 1.4262709617614746
-0.060210756957530975 0.10250991582870483 1.403336524963379
-0.19317151606082916 -0.0854954645037651 0.03601222485303879
-0.009229836985468864 0.13832727074623108 1.3548496961593628
-0.1226627305150032 -0.10143977403640747 1.4887981414794922
-0.16696052253246307 -0.06143268197774887 0.38878920674324036
-0.05314173176884651 0.05028461292386055 1.4796346426010132
-0.07834784686565399 0.011927373707294464 1.4583568572998047
-0.01805516704916954 0.1116052195429802 1.4514429569244385
-0.032421618700027466 0.050041332840919495 0.8519680500030518
-0.17560306191444397 0.0005254605785012245 0.340238094329834
0.04762077331542969 0.1599423587322235 1.0118248462677002
-0.03009820729494095 0.032927751541137695 1.028501033782959
-0.11008435487747192 -0.15589722990989685 1.2332966327667236
-0.10516605526208878 -0.1551903784275055 1.1382333040237427
-0.16387003660202026 -0.027799775823950768 0.31742334365844727
-0.14897407591342926 -0.04209952801465988 0.2553178369998932
-0.1795198768377304 0.00662598293274641 0.25083446502685547
-0.058868780732154846 0.03286239877343178 1.4939297437667847
-0.08450308442115784 -0.10470019280910492 0.6820878386497498
-0.11038210242986679 -0.030995413661003113 0.6537109017372131
0.0513036847114563 0.19626471400260925 1.1364588737487793
0.057311996817588806 0.1912497878074646 1.0580700635910034
-0.06090043857693672 -0.1894698441028595 1.1615980863571167
-0.17620186507701874 -0.0680723562836647 0.1192721351981163
0.04498371481895447 0.1445111334323883 1.0454334020614624
0.033964451402425766 0.12223576009273529 1.0792701244354248
0.005771767348051071 0.028154244646430016 1.488736629486084
-0.09109582006931305 -0.09641242772340775 1.3667688369750977
0.04195115342736244 0.14016267657279968 1.3397469520568848
0.032662779092788696 0.042227499186992645 1.4168834686279297
-0.00451524555683136 0.021418027579784393 1.4871169328689575
0.09039628505706787 0.13302236795425415 1.0564186573028564
0.10772627592086792 0.12243791669607162 1.0123982429504395
-0.03129423409700394 -0.11345700919628143 1.3622493743896484
0.014271074905991554 0.030307414010167122 1.0266892910003662
-0.03462950140237808 -0.203666090965271 1.0931365489959717
0.09865665435791016 0.11056773364543915 1.3631900548934937
0.010523432865738869 -0.029560834169387817 1.281065821647644
0.06661631911993027 0.08372530341148376 1.4576685428619385
0.032109472900629044 0.042029738426208496 1.4563409090042114
0.022751018404960632 -0.045363374054431915 1.196073055267334
0.046081170439720154 0.09180248528718948 0.9162687063217163
-0.009806826710700989 -0.04056432098150253 1.699668526649475
0.11985054612159729 -0.12611936032772064 0.07399644702672958
0.11339561641216278 -0.13989607989788055 0.046981245279312134
0.11444482207298279 -0.06413354724645615 0.08303976058959961
-0.04752972349524498 -0.14689338207244873 1.5757505893707275
0.06467544287443161 -0.0624135285615921 0.7084341049194336
0.08587922155857086 0.02603241801261902 1.4268430471420288
0.020504053682088852 -0.06560797244310379 1.4513392448425293
0.05763820558786392 -0.05374617129564285 1.4017610549926758
0.019738584756851196 -0.025584924966096878 1.3823682069778442
0.10969705879688263 -0.040960345417261124 0.38611698150634766
0.1295389086008072 -0.1308538317680359 0.23173025250434875
0.12840403616428375 -0.04412681236863136 0.1899091601371765
0.14965415000915527 0.11915421485900879 1.0631011724472046
0.14634713530540466 0.14398205280303955 1.0349674224853516
0.10129478573799133 -0.14580613374710083 0.7353872060775757
0.10728831589221954 -0.05207519978284836 0.6525483727455139
-0.013556234538555145 -0.08612360805273056 1.682859182357788
0.026866456493735313 -0.09806996583938599 1.6415660381317139
0.12283177673816681 -0.13060784339904785 0.5454394817352295
0.01255391538143158 -0.03435705229640007 1.7134613990783691
0.03606817126274109 -0.05015997588634491 1.6639024019241333
0.05615362897515297 -0.10611110180616379 1.1296825408935547
0.06217210367321968 -0.09469682723283768 1.1047450304031372
0.05167155712842941 -0.16460196673870087 1.0854936838150024
0.008375152945518494 -0.13230793178081512 1.5745619535446167
0.03419264405965805 -0.06675806641578674 1.4818040132522583
0.02333715744316578 -0.10636366903781891 1.4766929149627686
0.1869964897632599 0.09875836968421936 1.0276639461517334
0.04628122225403786 -0.1124269887804985 1.2772032022476196
0.052645307034254074 -0.17235448956489563 1.2400071620941162
0.058411531150341034 -0.11746756732463837 1.2227692604064941
0.16778577864170074 -0.031800735741853714 0.14188961684703827
0.18050061166286469 -0.11695149540901184 0.1673775464296341
0.19473694264888763 -0.10478423535823822 0.15256576240062714
0.05001482740044594 -0.03218218684196472 1.6891582012176514
0.05347573384642601 -0.12265592813491821 1.2801653146743774
0.18353714048862457 -0.04308965429663658 0.4272405207157135
0.16330064833164215 -0.0966947078704834 0.4815223515033722
0.19097372889518738 -0.05928370729088783 0.369735449552536
0.06870576739311218 -0.07081084698438644 1.3940253257751465
0.055592965334653854 -0.06858482956886292 1.391175389289856
0.0748419463634491 -0.059331219643354416 1.3520326614379883
0.11833236366510391 0.0614236444234848 0.9206674695014954
0.12588736414909363 -0.1173257827758789 0.8597635626792908
0.1956503689289093 -0.04852671921253204 0.2433294653892517
0.21174943447113037 -0.07880692929029465 0.25168275833129883
0.07789711654186249 -0.04406407102942467 1.3441762924194336
0.16036821901798248 0.047667019069194794 1.2820792198181152
0.1725732982158661 0.07277863472700119 1.2623900175094604
0.055649422109127045 -0.2402443140745163 1.1387393474578857
0.14805512130260468 -0.06864871084690094 0.9912604093551636
0.14963167905807495 -0.12543627619743347 0.9835066795349121
0.09403452277183533 -0.05635109543800354 1.1742801666259766
0.09469543397426605 -0.17033575475215912 1.075892686843872
0.11443991959095001 -0.13546447455883026 1.0542244911193848
0.10025717318058014 -0.19693797826766968 1.143039584159851
-0.2846278250217438 -0.05128251016139984 1.0499736070632935
-0.2976226508617401 -0.10548712313175201 1.033117413520813
-0.23435604572296143 -0.09542609751224518 1.1250841617584229
-0.2468331754207611 -0.09689914435148239 1.1702375411987305
-0.21074195206165314 -0.0665421187877655 1.1370034217834473
-0.2056116759777069 -0.028497260063886642 1.1562628746032715
-0.18824070692062378 -0.1508806347846985 0.8706469535827637
-0.057011544704437256 0.15804743766784668 1.0443158149719238
-0.07029008865356445 0.1459248960018158 1.1384352445602417
-0.17120368778705597 -0.22163182497024536 1.1035494804382324
-0.13977839052677155 -0.1579991579055786 0.9476780891418457
-0.2619626820087433 -0.045337557792663574 0.27499833703041077
-0.24059250950813293 -0.09405913949012756 0.28959453105926514
-0.19030091166496277 0.009416241198778152 0.49336889386177063
-0.14766980707645416 -0.19077129662036896 0.8507367372512817
-0.1709708869457245 -0.04986812546849251 0.6350128650665283
-0.16195853054523468 -0.09340397268533707 0.6878534555435181
-0.14385050535202026 -0.037408895790576935 0.6954265832901001
-0.10209687799215317 -0.023901337757706642 1.0881160497665405
-0.11602088063955307 -0.08021451532840729 1.1081830263137817
0.009876392781734467 0.18324024975299835 1.2078635692596436
-0.11119845509529114 -0.020340271294116974 0.8534378409385681
-0.19657601416110992 -0.10531865805387497 0.30210691690444946
-0.11547516286373138 -0.031871769577264786 1.1891210079193115
-0.09414355456829071 -0.044713690876960754 1.120005488395691
-0.18114855885505676 -0.08310966193675995 0.4419901371002197
-0.13434599339962006 -0.00828583538532257 1.6844561100006104
-0.14226816594600677 -0.04138413071632385 1.6687206029891968
-0.10827440023422241 -0.07785288244485855 1.6763978004455566
-0.12808388471603394 -0.10987821221351624 1.6350537538528442
-0.14189349114894867 -0.10279357433319092 1.5389738082885742
-0.17489776015281677 -0.06371191889047623 0.3341781497001648
-0.07798419892787933 -0.11757130920886993 0.7318893074989319
-0.15251556038856506 -0.07234224677085876 0.2627018988132477
-0.17092998325824738 -0.10146670788526535 0.2691691815853119
-0.18762946128845215 -0.019730934873223305 0.19883620738983154
-0.045387595891952515 0.063752181828022 0.958361804485321
-0.09083329886198044 -0.001040186733007431 1.7272297143936157
-0.10849791020154953 -0.009853273630142212 1.7142363786697388
0.0710429847240448 0.10710982233285904 1.1938339471817017
-0.005182988476008177 0.1257925033569336 1.1872549057006836
0.04619426652789116 0.09887386858463287 1.2428174018859863
-0.008099731057882309 -0.04558167606592178 1.2313852310180664
0.07085807621479034 0.16729022562503815 1.2407300472259521
0.07596535980701447 0.12085647881031036 1.0845839977264404
0.1304810792207718 0.17239917814731598 1.170628547668457
0.01906653493642807 0.08156419545412064 1.6302926540374756
0.10466482490301132 0.10411158204078674 1.0947115421295166
0.038047075271606445 -0.21758338809013367 0.9007386565208435
0.09593690186738968 -0.09196832776069641 0.24969564378261566
0.12549827992916107 -0.1058080717921257 0.1893642097711563
0.062371619045734406 -0.1296268105506897 0.6912888884544373
0.03278040885925293 -1.3576122000813484e-05 1.0635347366333008
0.08830729126930237 -0.047937773168087006 0.561216413974762
0.10136214643716812 0.06523147225379944 1.3044745922088623
0.03717464208602905 -0.0810018852353096 1.3865792751312256
0.04855527728796005 0.0649353563785553 1.5948580503463745
0.03477492555975914 0.0022861994802951813 1.5571091175079346
0.040008001029491425 0.01855390891432762 1.5377070903778076
0.006294019520282745 -0.029834140092134476 1.7587871551513672
0.034014321863651276 -0.10366194695234299 1.3257160186767578
0.15299978852272034 -0.01971414126455784 0.49214041233062744
0.12116967141628265 -0.006978534162044525 0.4875320792198181
0.1484019160270691 -0.017665376886725426 0.3368724584579468
0.17090992629528046 -0.022905053570866585 0.30789726972579956
0.057714108377695084 -0.06537533551454544 1.472768783569336
0.0458248145878315 -0.07375085353851318 1.481356143951416
0.05784624442458153 -0.06751497089862823 1.466213583946228
0.12645411491394043 -0.05250495672225952 0.7602254748344421
0.1456489861011505 -0.09538394212722778 0.6304194927215576
0.1186702698469162 0.021199559792876244 0.9613766670227051
0.09376005828380585 -0.08480164408683777 1.085788607597351
0.0853741466999054 -0.13772694766521454 1.0725390911102295
0.09683454036712646 -0.16042092442512512 1.021806240081787
0.06107179820537567 -0.0331059992313385 1.5913562774658203
0.07251986116170883 -0.03608739376068115 1.5128569602966309
0.04747479781508446 -0.16496476531028748 1.2213244438171387
0.0976131409406662 0.03085615485906601 1.5052543878555298
0.08267412334680557 0.0024472102522850037 1.542536973953247
0.1982402205467224 -0.035903237760066986 0.0758046805858612
0.21112875640392303 -0.08350511640310287 0.06428874284029007
0.10541267693042755 0.010565262287855148 1.471510648727417
0.11358186602592468 0.02288830280303955 1.443877935409546
0.12386536598205566 0.013486791402101517 1.4129605293273926
0.12693831324577332 0.024834491312503815 1.3998366594314575
0.05402616038918495 -0.24214604496955872 1.1570570468902588
0.17263486981391907 -0.15896183252334595 0.8724842071533203
0.06612024456262589 -0.2199942171573639 1.168898344039917
0.06226000189781189 -0.2449885606765747 1.1581487655639648
0.19994163513183594 -0.11466363072395325 0.8914071917533875
0.2017778754234314 -0.09169857203960419 0.8721094131469727
0.2113448679447174 -0.05687369778752327 0.882265567779541
-0.2185746729373932 -0.0912269726395607 1.1780073642730713
-0.17854556441307068 -0.09460659325122833 1.2421233654022217
-0.1866404414176941 -0.09450684487819672 1.2267283201217651
-0.1783313751220703 -0.08656153082847595 1.232468605041504
-0.17241603136062622 -0.08752632141113281 1.249817967414856
-0.1942490041255951 0.0015787295997142792 0.8766923546791077
-0.14660170674324036 -0.056667327880859375 1.268922209739685
-0.14616508781909943 -0.06589410454034805 1.059377908706665
-0.12352151423692703 0.08103454858064651 1.5132941007614136
-0.14731436967849731 -0.08775798231363297 1.1784894466400146
-0.14790409803390503 -0.08061294257640839 1.1253695487976074
-0.09206327050924301 0.08429068326950073 1.4137935638427734
-0.07565095275640488 0.07784999907016754 1.378920555114746
-0.1360587775707245 -0.14034104347229004 1.0201952457427979
-0.1019953042268753 -0.16488763689994812 0.9824497699737549
-0.13412702083587646 -0.029592450708150864 0.7810286283493042
-6.640329957008362e-06 0.16091591119766235 1.2713069915771484
-0.0664249062538147 0.10057041049003601 1.606221079826355
-0.18161611258983612 -0.03486298769712448 0.06206571310758591
-0.1957325041294098 -0.018788792192935944 0.05253759026527405
-0.08038169145584106 0.024135330691933632 0.8601844310760498
0.0012651775032281876 0.09347325563430786 0.8493378162384033
-0.0650276467204094 -0.022859644144773483 0.8389953374862671
0.03539832681417465 0.06757104396820068 1.3274786472320557
-0.04877028614282608 -0.08246748149394989 0.7583059072494507
-0.08003692328929901 -0.1343405544757843 1.5508919954299927
-0.007012580521404743 0.014109577052295208 0.8676819801330566
-0.005945197306573391 -0.027819611132144928 0.8462810516357422
0.014959062449634075 -0.11926539242267609 0.850799024105072
-0.0776410773396492 -0.16229096055030823 0.851904571056366
-0.008669553324580193 -0.22324302792549133 0.8444594740867615
0.03293328732252121 -0.1113881915807724 0.8283423781394958
-0.010302228853106499 -0.1593867540359497 0.8557515144348145
-0.014867205172777176 0.00512179359793663 1.4551339149475098
0.02632785588502884 -0.03819599375128746 0.842556357383728
0.030868031084537506 -0.05068261921405792 0.8241803646087646
-0.0006034784018993378 0.01015259325504303 1.5323354005813599
0.003941252827644348 0.018149815499782562 1.5091150999069214
0.04202846437692642 -0.12487605959177017 0.8446414470672607
0.12903325259685516 0.055362600833177567 0.8553720712661743
0.09721696376800537 -0.0636155903339386 0.24732139706611633
0.05088479444384575 -0.03584842383861542 0.8132734298706055
0.10542991757392883 0.09803789854049683 1.220855474472046
0.12612175941467285 -0.09031674265861511 0.37314727902412415
0.12356263399124146 -0.07497050613164902 0.31201085448265076
0.1396283060312271 -0.09605489671230316 0.328843891620636
0.13644179701805115 -0.1352664828300476 0.27285516262054443
0.08570985496044159 0.04693227633833885 1.4762471914291382
0.07930143177509308 -0.017603877931833267 0.8476085066795349
0.1048477441072464 -0.03645947948098183 0.8268463611602783
0.06045380234718323 -0.0901644378900528 1.2277342081069946
0.15740419924259186 -0.10428549349308014 0.42248427867889404
0.06885507702827454 0.02101365104317665 1.5777504444122314
0.04802810773253441 -0.04990711808204651 1.274444818496704
0.1705833524465561 -0.0956370085477829 0.3291986584663391
0.13461951911449432 0.1525011509656906 1.2245712280273438
0.07047128677368164 -0.07268505543470383 1.2021386623382568
0.1581917107105255 -0.03447806090116501 0.20083369314670563
0.17800742387771606 0.13906654715538025 1.147889256477356
0.15501649677753448 -0.023965107277035713 0.23715461790561676
0.1802830845117569 -0.13645626604557037 0.24958732724189758
0.1357523500919342 0.04379837587475777 1.326564073562622
0.06570016592741013 -0.05327257513999939 1.4277379512786865
0.07251977920532227 -0.05336139351129532 1.3976387977600098
0.06441725790500641 -0.05070788040757179 1.4289956092834473
0.08682963252067566 -0.04955095052719116 1.3775994777679443
0.06285456568002701 -0.18692871928215027 1.2077977657318115
0.04808877781033516 -0.1974797546863556 1.202144742012024
0.16506846249103546 0.062149349600076675 1.2419641017913818
0.19491206109523773 0.09153717011213303 1.1883093118667603
0.18967986106872559 0.08847063779830933 1.1558037996292114
0.07114216685295105 -0.07192981243133545 1.2302438020706177
0.060239315032958984 -0.10198531299829483 1.24605131149292
0.15665151178836823 -0.18406157195568085 0.8827995657920837
0.06860486418008804 -0.1118607148528099 1.2578125
0.06041950732469559 -0.1422756165266037 1.158599853515625
0.08263075351715088 -0.0891658216714859 1.133925199508667
0.06849169731140137 -0.12618552148342133 1.125335931777954
0.11330191791057587 -0.17223712801933289 1.1736953258514404
0.13688743114471436 -0.17204618453979492 1.0442242622375488
0.1073671281337738 -0.20778435468673706 1.1001306772232056
-0.17352581024169922 -0.20784008502960205 1.1407500505447388
-0.16502200067043304 -0.14519047737121582 1.189117670059204
-0.17258591949939728 -0.13183096051216125 1.2094662189483643
-0.1626175045967102 -0.19623935222625732 1.1440305709838867
-0.10888198763132095 0.08947330713272095 1.4430078268051147
-0.11327095329761505 0.07765757292509079 1.426758050918579
-0.108829066157341 0.09402339160442352 1.3858723640441895
-0.15658724308013916 -0.004692133516073227 1.6489229202270508
-0.16138651967048645 -0.0361294224858284 1.5654352903366089
-0.23279282450675964 -0.06068844720721245 0.3318045735359192
-0.13083048164844513 -0.06927253305912018 0.8489274978637695
-0.13305117189884186 -0.09395363926887512 0.8306613564491272
-0.042594365775585175 0.16910724341869354 1.0242501497268677
-0.11615043878555298 -0.12288571149110794 1.228743553161621
-0.11694251000881195 -0.031506579369306564 0.8266454935073853
-0.11232361197471619 -0.025383148342370987 1.6926592588424683
-0.11054947227239609 -0.12360620498657227 1.1130967140197754
-0.07952825725078583 -0.1839059740304947 1.107192039489746
0.00041338615119457245 0.1421058475971222 1.1223050355911255
0.06775512546300888 0.12248840183019638 1.1222456693649292
-0.07147404551506042 -0.03293587639927864 1.135637640953064
-0.053279343992471695 -0.11550819873809814 0.8449180722236633
-0.06596291065216064 -0.18956337869167328 1.0418365001678467
-0.05135725811123848 0.012705609202384949 1.0482542514801025
-0.06954999268054962 -0.12373187392950058 1.6469206809997559
0.03189047798514366 -0.10211430490016937 0.7631701231002808
-0.008685296401381493 0.0879051610827446 1.2964061498641968
0.11086077988147736 -0.09786698967218399 0.0404834970831871
0.16842906177043915 0.15541647374629974 1.0919647216796875
0.1269473433494568 0.1127130314707756 1.1426271200180054
0.12511637806892395 0.1810029000043869 1.1017050743103027
0.09810392558574677 0.08470708131790161 0.8576406836509705
0.1694398820400238 -0.007635153830051422 0.06286696344614029
0.12055636942386627 -0.038879260420799255 0.8529302477836609
0.16032564640045166 -0.09592245519161224 0.3811161518096924
0.06666597723960876 -0.07672412693500519 1.3676714897155762
0.05600567162036896 -0.10222373157739639 1.295326590538025
0.19662614166736603 -0.0027119750156998634 0.8735618591308594
0.19439111649990082 -0.053918980062007904 0.9382714033126831
0.1242867261171341 -0.19727042317390442 1.063629388809204
-0.2560291290283203 -0.10916256904602051 1.1398998498916626
-0.1933402419090271 -0.0819990336894989 0.9296973943710327
-0.20994636416435242 -0.07309198379516602 0.8784581422805786
-0.11153708398342133 0.08068178594112396 1.3803677558898926
-0.08304396271705627 0.10983826220035553 1.2547013759613037
-0.14051930606365204 0.009595144540071487 1.4924895763397217
-0.1399904489517212 -0.05623221397399902 1.0272282361984253
-0.14677266776561737 -0.08697491884231567 1.064266562461853
-0.13915370404720306 0.012002643197774887 1.492748737335205
-0.13920873403549194 -0.0007265321910381317 1.4799659252166748
-0.14158406853675842 0.006474941968917847 1.4888395071029663
-0.1420878767967224 0.002461567521095276 1.490066409111023
-0.1482514590024948 -0.008323628455400467 1.479697823524475
-0.2243797779083252 -0.11887762695550919 0.18084314465522766
-0.16304771602153778 -0.07108473032712936 1.612374186515808
-0.04446866363286972 -0.02581166848540306 1.1893291473388672
-0.18720833957195282 -0.13472887873649597 0.0598704069852829
-0.06280214339494705 -0.031029822304844856 1.2289408445358276
-0.01857115514576435 -0.03929957374930382 1.147533893585205
-0.03528093546628952 0.09199851006269455 0.9204224348068237
-0.05836077779531479 -0.04147573560476303 1.7076966762542725
-0.06898010522127151 -0.06811273097991943 0.6968830823898315
0.01572611555457115 0.08889404684305191 1.267317533493042
-0.0055273473262786865 -0.19314399361610413 0.9936947822570801
-0.06199256330728531 -0.18567468225955963 1.205716848373413
0.07003991305828094 0.10990220308303833 1.1614153385162354
0.11618003994226456 -0.06811549514532089 0.1775330752134323
0.05061023309826851 -0.18110162019729614 0.9847632646560669
0.10392522811889648 -0.17539960145950317 0.9711748957633972
0.059329137206077576 0.02055981755256653 1.5056166648864746
0.03448693826794624 -0.17417581379413605 1.1559844017028809
0.018602194264531136 -0.04911230504512787 1.147771954536438
0.07868961244821548 -0.039763763546943665 1.0806206464767456
0.07969491183757782 0.05500056967139244 0.9547535181045532
0.16084083914756775 -0.13170869648456573 0.0131154153496027
0.13722769916057587 -0.1250171959400177 0.010062772780656815
0.1887793391942978 -0.10648749768733978 0.020090270787477493
0.19759361445903778 -0.1154250055551529 0.23351536691188812
0.06385467946529388 -0.051900237798690796 1.4252243041992188
0.06485096365213394 -0.05283588916063309 1.4279968738555908
0.048728957772254944 -0.07104532420635223 1.2963664531707764
0.054680049419403076 -0.09707416594028473 1.2826122045516968
0.20967121422290802 0.10799337923526764 1.0959110260009766
0.20738430321216583 0.0885452851653099 1.0529550313949585
0.2165234535932541 0.09110303223133087 1.0498725175857544
0.14746400713920593 -0.16561800241470337 1.0483503341674805
0.12111116945743561 -0.2197074145078659 1.0457366704940796
0.12565064430236816 -0.24495626986026764 1.039968490600586
-0.24829789996147156 -0.07064241915941238 1.0714199542999268
-0.17854127287864685 -0.170364648103714 1.1789803504943848
-0.20056389272212982 -0.06522796303033829 0.3624478280544281
-0.009100152179598808 0.1468513309955597 1.001772403717041
-0.11713966727256775 -0.14219313859939575 1.0610566139221191
-0.0351005457341671 -0.04475022107362747 0.8383826613426208
-0.05906587466597557 -0.03236733749508858 0.8030438423156738
-0.05468491464853287 -0.08512751013040543 0.8054512143135071
-0.010676141828298569 -0.002151621039956808 1.0941967964172363
0.022187085822224617 -0.2065921276807785 0.833788275718689
0.09570149332284927 0.012805082835257053 0.8635164499282837
0.1414996087551117 0.1089622899889946 1.1128655672073364
0.07247806340456009 -0.017353147268295288 1.5170807838439941
0.08534225821495056 0.002372387796640396 1.4990917444229126
0.18161456286907196 -0.12227611988782883 0.9377760887145996
-0.182491272687912 -0.1828906089067459 1.1493160724639893
-0.13281342387199402 0.05228915065526962 1.527314305305481
0.016330476850271225 0.15350455045700073 1.0464146137237549
-0.1119566261768341 0.07318160682916641 1.5593247413635254
-0.09307107329368591 0.03939485922455788 1.545614242553711
-0.06517858058214188 0.027384519577026367 1.5256291627883911
0.01248229667544365 -0.19855180382728577 1.051603078842163
0.02086755633354187 -0.14918898046016693 1.2410874366760254
0.15468169748783112 -0.12140781432390213 0.1519276350736618
0.05935000628232956 -0.14219814538955688 1.2011189460754395
0.07484159618616104 -0.13182200491428375 1.1505088806152344
0.11099803447723389 0.03167714923620224 1.4112651348114014
0.10170900076627731 0.06151280552148819 1.4263012409210205
0.08206403255462646 -0.09275950491428375 1.1579705476760864
0.12469328939914703 -0.07611360400915146 0.8371866941452026
0.035889532417058945 -0.18002425134181976 1.2287427186965942
0.13889667391777039 0.05691273510456085 1.3453959226608276
-0.08341209590435028 0.10329834371805191 1.3328379392623901
-0.19276706874370575 0.009696117602288723 0.3693353235721588
0.04577833041548729 -0.10281047224998474 0.7219514846801758
-0.02129264548420906 -0.13344192504882812 1.6300406455993652
-0.05689495801925659 0.16957195103168488 1.0856189727783203
-0.16621190309524536 -0.08817002177238464 1.2528557777404785
-0.15030749142169952 -0.0298547875136137 0.40098270773887634
0.02791096828877926 0.10355627536773682 1.456221580505371
0.11904449760913849 -0.13178081810474396 0.02042819932103157
0.06156633794307709 -0.06857658922672272 1.463557481765747
0.05918944627046585 -0.06724820286035538 1.463104009628296
0.0601777583360672 -0.058956801891326904 1.3860409259796143
0.1910020262002945 -0.10151699930429459 0.20240366458892822
0.18963639438152313 -0.06677379459142685 0.18692174553871155
0.0701039507985115 -0.13729894161224365 1.2062026262283325
-0.17094895243644714 -0.15479102730751038 0.926447868347168
-0.09325408935546875 0.09113071858882904 1.3584179878234863
-0.09380865097045898 0.08812179416418076 1.3598506450653076
-0.09860342741012573 0.0879119485616684 1.3596919775009155
-0.1688857078552246 -0.06129826232790947 0.20053637027740479
-0.03357179835438728 -0.09828053414821625 0.8406826257705688
0.12504130601882935 -0.09905432909727097 0.14148640632629395
0.07497560977935791 -0.16619491577148438 1.16964590549469
0.04192648082971573 -0.09526334702968597 1.59163498878479
0.14059962332248688 -0.0973266065120697 0.7887424230575562
0.12828843295574188 0.023860670626163483 1.38259756565094
0.133070707321167 0.040332067757844925 1.3541556596755981
0.11745382100343704 -0.043134063482284546 0.0475316122174263
-0.08520995080471039 -0.47242558002471924 1.118058681488037
-0.07560229301452637 -0.4504287838935852 1.0875605344772339
-0.08010907471179962 -0.45827406644821167 1.092812180519104
-0.08548235893249512 -0.44819629192352295 1.0996466875076294
-0.08968394249677658 -0.46976029872894287 1.105228066444397
-0.0810667872428894 -0.465251624584198 1.1168797016143799
0.0023537962697446346 -0.3618146479129791 1.0726078748703003
-0.009233633987605572 -0.3624730706214905 1.0707792043685913
-0.011354593560099602 -0.3820650577545166 1.0801942348480225
-0.019799791276454926 -0.38777875900268555 1.0845645666122437
0.07004671543836594 -0.25641384720802307 0.986791729927063
0.06498345732688904 -0.26099663972854614 1.0060455799102783
0.06784418970346451 -0.2673163414001465 0.9820809960365295
-0.0229210052639246 -0.3766353130340576 1.0393431186676025
-0.028010239824652672 -0.38831210136413574 1.0558199882507324
-0.02125859074294567 -0.40471768379211426 1.107513427734375
-0.019632764160633087 -0.3972964882850647 1.0963815450668335
0.04528740793466568 -0.2907160520553589 0.9711834192276001
0.038653597235679626 -0.29619744420051575 0.9921669960021973
0.043194469064474106 -0.31806910037994385 1.061128854751587
0.04198918864130974 -0.31215205788612366 1.0537562370300293
-0.060365840792655945 -0.45434996485710144 1.1255673170089722
-0.06481721252202988 -0.4433617889881134 1.0812060832977295
0.06894683837890625 -0.2690993547439575 0.971514880657196
0.06135484203696251 -0.2729377746582031 0.9671582579612732
0.19591623544692993 -0.14343714714050293 1.026330828666687
0.19042475521564484 -0.15033289790153503 1.0260696411132812
0.1937641203403473 -0.14347968995571136 1.0057003498077393
-0.04233253747224808 -0.42363715171813965 1.1061277389526367
-0.0529470294713974 -0.43930527567863464 1.111899733543396
0.06762456148862839 -0.27136218547821045 0.9660768508911133
0.06476768851280212 -0.2737770676612854 0.9566639065742493
-0.10245268791913986 -0.49297672510147095 1.0696358680725098
-0.10413191467523575 -0.5010197758674622 1.0826064348220825
0.2098371684551239 -0.13319571316242218 1.0187180042266846
0.20378397405147552 -0.14021193981170654 1.0316189527511597
0.2044495791196823 -0.13357597589492798 1.0116896629333496
0.19730708003044128 -0.1407165825366974 1.003807544708252
-0.11379823088645935 -0.5213786363601685 1.1375668048858643
-0.12028496712446213 -0.5364285111427307 1.1518315076828003
-0.1228901743888855 -0.5359469056129456 1.1335526704788208
0.008234740234911442 -0.3423038125038147 1.008712649345398
0.0038677453994750977 -0.35588496923446655 1.012830138206482
-0.012143704108893871 -0.3696804940700531 1.0055019855499268
-0.0027110902592539787 -0.3670060336589813 1.0069971084594727
0.20289263129234314 -0.14873681962490082 1.0354514122009277
0.20789101719856262 -0.13627523183822632 1.0057291984558105
-0.027269361540675163 -0.42079484462738037 1.121181607246399
-0.020063379779458046 -0.42201295495033264 1.1240297555923462
-0.03769194334745407 -0.4302463233470917 1.124605417251587
-0.04574546962976456 -0.4464792013168335 1.1315135955810547
0.03267799690365791 -0.31799089908599854 0.9909529685974121
0.02395923063158989 -0.3296659290790558 0.9889320135116577
0.020294222980737686 -0.32802218198776245 0.9957900047302246
0.21074527502059937 -0.13860580325126648 1.0112171173095703
0.20316588878631592 -0.14808931946754456 1.0338371992111206
0.20015665888786316 -0.1484391987323761 1.0067739486694336
0.07397164404392242 -0.2570461332798004 0.9240630269050598
0.07059293240308762 -0.26041877269744873 0.9181852340698242
0.07145268470048904 -0.2648226022720337 0.9428181648254395
0.07167628407478333 -0.267795205116272 0.9325916171073914
0.06987877190113068 -0.262035071849823 0.9275176525115967
-0.01408952847123146 -0.3889875113964081 1.0030810832977295
-0.015216891653835773 -0.3782661557197571 0.9969016313552856
-0.016837459057569504 -0.38267722725868225 0.986330509185791
-0.022708730772137642 -0.38322699069976807 0.989334762096405
0.2005138248205185 -0.14845068752765656 1.0169564485549927
-0.11591899394989014 -0.5430542230606079 1.1577765941619873
-0.12204335629940033 -0.5406855940818787 1.1412999629974365
-0.12054052203893661 -0.5531290769577026 1.1565812826156616
-0.12948623299598694 -0.5509694814682007 1.161367416381836
-0.12482456862926483 -0.5350772142410278 1.1255323886871338
0.09168078005313873 -0.2702851891517639 0.9829642176628113
0.0745404064655304 -0.2757425606250763 0.9715731739997864
-0.08691377192735672 -0.4854993522167206 1.0630351305007935
-0.10551594197750092 -0.5032927989959717 1.0751034021377563
-0.10935897380113602 -0.515678882598877 1.0920329093933105
0.05907214805483818 -0.3206974267959595 1.0576813220977783
0.04845470190048218 -0.33179330825805664 1.0623362064361572
0.04428001865744591 -0.34306758642196655 1.0594143867492676
-0.018943026661872864 -0.42206642031669617 1.1236695051193237
-0.02283378131687641 -0.42821967601776123 1.1163268089294434
-0.049576301127672195 -0.46180659532546997 1.1318906545639038
-0.010896896943449974 -0.4007575511932373 1.1041195392608643
-0.061978138983249664 -0.4665510058403015 1.0749391317367554
-0.08527544885873795 -0.48904290795326233 1.078987956047058
0.06171981990337372 -0.31980931758880615 1.053846836090088
-0.012429626658558846 -0.41606903076171875 1.0886117219924927
0.0006397087126970291 -0.4019290506839752 1.080651044845581
-0.018446270376443863 -0.4252707064151764 1.0967891216278076
-0.10424869507551193 -0.5238224267959595 1.1264578104019165
-0.09851755946874619 -0.5152756571769714 1.1135895252227783
-0.020667077973484993 -0.40316295623779297 1.0388379096984863
-0.01730971783399582 -0.4077889025211334 1.0515248775482178
-0.028553586453199387 -0.41910845041275024 1.059167504310608
-0.021878104656934738 -0.4234614074230194 1.0678269863128662
0.02370603010058403 -0.36678311228752136 1.0646311044692993
-0.0034421831369400024 -0.3897300362586975 1.0785273313522339
-0.051797766238451004 -0.4614621698856354 1.1143476963043213
-0.06168973445892334 -0.48037052154541016 1.112130880355835
-0.07180958986282349 -0.4786928594112396 1.1186491250991821
-0.05142779275774956 -0.4588610827922821 1.0877646207809448
-0.05622566118836403 -0.4656409025192261 1.0840575695037842
0.008701888844370842 -0.3835976719856262 1.034110426902771
-0.004480993375182152 -0.39517974853515625 1.03997802734375
0.0036955829709768295 -0.3733808994293213 1.018067479133606
-0.004012878984212875 -0.39238375425338745 1.0295382738113403
-0.015119446441531181 -0.39792507886886597 1.0407472848892212
0.019014891237020493 -0.3687365651130676 1.0416940450668335
0.02937285602092743 -0.3615691065788269 1.0425583124160767
0.026305213570594788 -0.34918609261512756 1.0140794515609741
0.026957795023918152 -0.3582402467727661 1.0300939083099365
-0.06265705823898315 -0.4727296233177185 1.090194582939148
