-0.11585728079080582 -0.25175827741622925 0.5486688613891602
-0.14773978292942047 -0.2647184729576111 0.01601332798600197
-0.18767790496349335 -0.27001774311065674 0.007542525418102741
-0.10115747153759003 -0.03607575222849846 1.5788654088974
-0.0964474156498909 -0.07452736794948578 1.5361067056655884
-0.024408429861068726 -0.22090160846710205 0.9045480489730835
-0.0917506217956543 0.08592076599597931 0.8437036871910095
-0.16398923099040985 -0.29354292154312134 0.27710214257240295
-0.14062291383743286 -0.26925885677337646 0.18874433636665344
-0.14740929007530212 -0.13979768753051758 0.13471056520938873
-0.07761186361312866 -0.04870488867163658 1.3002185821533203
-0.08509701490402222 -0.05974062159657478 1.2559270858764648
-0.040410373359918594 -0.18247269093990326 1.2998666763305664
-0.10399368405342102 -0.13831369578838348 0.64106285572052
-0.08656907826662064 -0.18434149026870728 0.7572965621948242
-0.06013523042201996 -0.12622645497322083 0.820240318775177
-0.1297064870595932 -0.2608262896537781 0.15517014265060425
-0.13681508600711823 -0.2959323823451996 0.07394605875015259
-0.09622713923454285 -0.1746264100074768 1.519770622253418
-0.07626046985387802 -0.05913321673870087 1.3690820932388306
-0.04621782526373863 -0.04132729396224022 1.308173418045044
-0.08561457693576813 -0.25143563747406006 0.5712400078773499
-0.06412553042173386 -0.23306763172149658 0.5705228447914124
-0.10100508481264114 -0.14812372624874115 0.5028252601623535
-0.07060330361127853 -0.1578350067138672 1.4804826974868774
-0.050495654344558716 -0.10833486914634705 1.4487383365631104
-0.09287018328905106 -0.052023109048604965 1.4184012413024902
-0.07288385927677155 -0.1825394630432129 0.5133455991744995
-0.05838295444846153 -0.008005104959011078 1.7980821132659912
-0.08838082104921341 -0.21280263364315033 1.667651653289795
-0.015942152589559555 -0.19305923581123352 0.9939496517181396
-0.05203166976571083 -0.12189844995737076 1.4699530601501465
-0.025403806939721107 -0.151007741689682 1.4518499374389648
-0.049860455095767975 -0.13334617018699646 1.4374898672103882
-0.026464419439435005 -0.20200151205062866 1.5976990461349487
-0.07006239891052246 -0.20347349345684052 1.5385682582855225
-0.03021961636841297 -0.08443842828273773 1.48479163646698
-0.05722742900252342 -0.16837824881076813 0.6292897462844849
0.00016186758875846863 -0.04989294335246086 1.8221447467803955
-0.041904907673597336 0.06639031320810318 1.7189583778381348
-0.011579381301999092 -0.22065597772598267 1.5443155765533447
-0.03096170350909233 -0.20205354690551758 1.4850163459777832
-0.011573215946555138 -0.09064644575119019 1.4506999254226685
-0.002310311421751976 -0.20130696892738342 1.4859199523925781
0.01844191551208496 -0.058129407465457916 1.4300949573516846
-0.004767820239067078 -0.045406680554151535 1.2997738122940063
-0.007637191563844681 0.010473132133483887 1.794128179550171
0.01267310231924057 -0.09191395342350006 1.4897217750549316
0.011561955325305462 -0.14479650557041168 1.4693821668624878
0.022201253101229668 0.03838929533958435 1.7496458292007446
0.013446038588881493 -0.033740781247615814 1.8024786710739136
0.01093172188848257 -0.13961657881736755 1.443049669265747
0.05710768699645996 -0.15764778852462769 1.5090253353118896
0.017052754759788513 -0.11311653256416321 1.4551458358764648
0.0656716525554657 -0.08551712334156036 0.5736707448959351
0.040714994072914124 -0.0488460436463356 1.5228006839752197
0.10162892937660217 -0.07314612716436386 0.4949927031993866
0.041664425283670425 -0.2019747495651245 1.246333360671997
0.08092860877513885 -0.057020269334316254 1.275856375694275
0.08016877621412277 -0.05071388930082321 1.1507034301757812
0.14621026813983917 0.14222529530525208 0.12526528537273407
0.1745297610759735 0.16347232460975647 0.12391716241836548
0.12727655470371246 0.20283013582229614 0.21722286939620972
0.05594981089234352 -0.17627090215682983 1.2396161556243896
0.047559790313243866 -0.1948632150888443 1.1653916835784912
0.05999528244137764 -0.13766831159591675 0.7091364860534668
0.12553775310516357 0.1884937584400177 0.1703939139842987
0.06874078512191772 -0.03146205097436905 1.7579107284545898
0.05163931846618652 -0.19889071583747864 1.678556203842163
0.043716177344322205 -0.18367747962474823 1.5870637893676758
0.04524759575724602 -0.19053350389003754 1.5373643636703491
0.08993078768253326 -0.15528617799282074 0.8533552885055542
0.12494361400604248 -0.03204435855150223 1.7892649173736572
0.04692676290869713 -0.048170946538448334 1.578094720840454
0.04827602207660675 -0.07180167734622955 1.550063967704773
0.1284044235944748 0.07940255850553513 0.3840970993041992
0.12485980987548828 0.11522408574819565 0.3397890031337738
0.1434592604637146 0.217448890209198 0.21020713448524475
0.06410584598779678 -0.054010238498449326 1.8508760929107666
0.09712176769971848 -0.07788341492414474 1.4383896589279175
0.09588482230901718 -0.21476849913597107 0.8450266122817993
0.07658129930496216 -0.12753628194332123 0.8374288082122803
0.12256994098424911 -0.18892931938171387 0.8369026184082031
0.08961459994316101 -0.04125133901834488 0.7321115732192993
0.19814811646938324 0.14971643686294556 0.12788468599319458
0.08077464997768402 -0.04328595846891403 1.770587682723999
0.07755371928215027 -0.14976245164871216 1.137799859046936
0.08852562308311462 -0.1711379885673523 1.253044605255127
0.09364984929561615 -0.19087107479572296 1.2440869808197021
0.1340140551328659 -0.18154504895210266 0.906744658946991
0.08277259767055511 -0.12487003207206726 1.6022555828094482
0.07780952751636505 -0.03956759348511696 1.58784019947052
0.0801306888461113 -0.06854979693889618 1.5764224529266357
0.09037424623966217 -0.0848010703921318 1.5756508111953735
0.10304829478263855 -0.09885427355766296 1.5523030757904053
0.12789183855056763 -0.06562218815088272 0.6337506771087646
0.12341241538524628 -0.1318700909614563 0.6489084959030151
0.11837588995695114 -0.13933858275413513 1.3935281038284302
0.12798231840133667 -0.059433694928884506 1.3607079982757568
0.08436226844787598 -0.06534875929355621 1.3708453178405762
0.09339207410812378 -0.07509655505418777 1.3396191596984863
0.11125384271144867 -0.11878646165132523 0.8066676259040833
0.1896984577178955 0.19427490234375 0.19663342833518982
0.20554004609584808 0.1830061674118042 0.18406939506530762
0.09440620988607407 -0.04846053943037987 1.7225788831710815
0.1301705241203308 -0.08123353123664856 1.4135079383850098
0.19333186745643616 0.04439429193735123 0.3518499732017517
0.11915262043476105 -0.022833555936813354 1.694015383720398
0.0873345285654068 0.0015202686190605164 1.6962603330612183
0.10302558541297913 -0.02766827680170536 1.660020351409912
0.21150659024715424 0.13566988706588745 0.21577434241771698
0.22247011959552765 0.15906280279159546 0.1483020782470703
0.19548727571964264 0.12091700732707977 0.13645407557487488
0.162490576505661 -0.007166686467826366 0.941798210144043
0.1423995941877365 -0.01261213980615139 0.8402474522590637
0.12815916538238525 -0.053389471024274826 1.7874590158462524
0.1625487208366394 0.04374902695417404 0.8464914560317993
0.18251261115074158 0.0075299739837646484 0.9058070182800293
0.1653759479522705 -0.07054316252470016 1.3540844917297363
0.1856512874364853 -0.09140703827142715 1.3294717073440552
0.13531683385372162 -0.13572469353675842 1.3572254180908203
0.19230088591575623 -0.05595368891954422 1.3018141984939575
0.18117746710777283 -0.05009637400507927 1.279331088066101
0.23692987859249115 -0.1393326073884964 1.2236319780349731
0.22152981162071228 -0.098542720079422 1.2837653160095215
0.2358565330505371 -0.025790367275476456 1.2460997104644775
0.2646055817604065 0.017005033791065216 1.1776783466339111
0.2949948310852051 0.01445849984884262 1.193512201309204
0.2875697612762451 -0.03963769972324371 1.2261550426483154
0.28613096475601196 -0.10293948650360107 1.2176249027252197
0.31982487440109253 0.027533605694770813 1.139231562614441
0.3804176151752472 -0.05484141409397125 1.161394715309143
0.3748490512371063 -0.016950003802776337 1.1574287414550781
0.35299956798553467 0.016290657222270966 1.1423676013946533
0.37621229887008667 -0.10617005079984665 1.1161831617355347
0.380339115858078 -0.043181322515010834 1.1067850589752197
0.36767101287841797 -0.01584535837173462 1.1041547060012817
0.4752129912376404 -0.015520744025707245 0.9802265167236328
0.3734804391860962 -0.07178828865289688 1.0938555002212524
0.38620927929878235 -0.07549411058425903 1.0578433275222778
0.4198385179042816 -0.00030507147312164307 1.027632236480713
0.38818368315696716 -0.049883753061294556 1.0407453775405884
0.4029911458492279 -0.07885856926441193 1.0293906927108765
0.42758241295814514 -0.04212372004985809 1.0097438097000122
0.4532891511917114 -0.03425993025302887 1.0068646669387817
0.4245110750198364 -0.08890438079833984 0.991176426410675
0.4426795542240143 -0.05892636999487877 0.9945988655090332
0.43394988775253296 -0.07375073432922363 0.9975314140319824
0.47707080841064453 -0.014531895518302917 0.9575962424278259
0.4493081867694855 -0.07888125628232956 0.9796380996704102
0.44583025574684143 -0.019685886800289154 0.9744327068328857
0.474420964717865 -0.04868564009666443 0.9560742378234863
0.4864982068538666 -0.035794682800769806 0.9672081470489502
-0.34731173515319824 -0.0023130238987505436 1.0548102855682373
-0.34670156240463257 -0.0727531686425209 1.0259860754013062
-0.32674723863601685 -0.05073518306016922 1.0284006595611572
-0.35570028424263 -0.11367517709732056 1.057154893875122
-0.27555039525032043 -0.0027245860546827316 1.057145357131958
-0.32238614559173584 -0.1082843616604805 1.0447604656219482
-0.18564273416996002 -0.04406416416168213 1.238032341003418
-0.19517990946769714 -0.10569500923156738 1.1955634355545044
-0.17959341406822205 -0.09362678229808807 0.9521260261535645
-0.1868063360452652 -0.011144869029521942 0.9071253538131714
-0.1384705752134323 0.04997521638870239 0.9069899916648865
-0.17312335968017578 0.15133731067180634 1.2553939819335938
-0.17189188301563263 0.16144585609436035 1.1879711151123047
-0.17868319153785706 0.19409732520580292 1.1545305252075195
-0.1627906858921051 -0.009411564096808434 0.9455016851425171
-0.21366719901561737 -0.06459838151931763 1.7657136917114258
-0.13601085543632507 -0.06815476715564728 1.3661834001541138
-0.15651831030845642 -0.04609161987900734 1.3002159595489502
-0.102241650223732 0.22586530447006226 1.0428428649902344
-0.13786281645298004 0.24174349009990692 0.9521511793136597
-0.2191154807806015 -0.215566486120224 0.12225739657878876
-0.22596199810504913 -0.26424533128738403 0.07260824739933014
-0.18195271492004395 -0.06801236420869827 1.7465159893035889
-0.16746222972869873 -0.05248238518834114 1.686950445175171
-0.12643587589263916 -0.178203746676445 1.2258572578430176
-0.12611491978168488 -0.18908685445785522 1.1937590837478638
-0.13052687048912048 -0.2106933891773224 1.183957815170288
-0.15395450592041016 0.08546394854784012 1.3905762434005737
-0.1415783166885376 0.0804368332028389 1.3855658769607544
-0.10328075289726257 -0.18087662756443024 1.2458059787750244
-0.12663191556930542 -0.0829830914735794 1.2142565250396729
-0.19246666133403778 -0.2534271776676178 0.1818946897983551
-0.19792737066745758 -0.21422265470027924 0.20446977019309998
-0.11177307367324829 0.14172101020812988 1.2466038465499878
-0.1414523422718048 -0.11060991883277893 1.4733563661575317
-0.1408216655254364 -0.10413602739572525 1.4473004341125488
-0.12599849700927734 -0.09969544410705566 1.423514723777771
-0.14172175526618958 -0.09798616915941238 1.4240878820419312
-0.1380673050880432 -0.11420062184333801 1.4061684608459473
-0.1317032128572464 -0.13773375749588013 0.7915400862693787
-0.14638477563858032 -0.10933614522218704 0.766749382019043
-0.10762914270162582 0.290669322013855 1.0522924661636353
-0.10865320265293121 0.27589553594589233 1.109223484992981
-0.0941748097538948 -0.1684068739414215 1.2458655834197998
-0.12363233417272568 -0.10411138087511063 0.8546344041824341
-0.1940639615058899 -0.1493755578994751 0.13676562905311584
-0.20065566897392273 -0.1448974460363388 0.0966542512178421
-0.13825374841690063 -0.18905290961265564 0.8535606861114502
-0.12671558558940887 0.2127750813961029 1.2265123128890991
-0.1350044310092926 -0.18625938892364502 1.662632942199707
-0.12350355088710785 -0.057665564119815826 1.56070876121521
-0.11426686495542526 0.051538798958063126 1.531017541885376
-0.10276255011558533 0.004402317106723785 1.5872704982757568
-0.12534549832344055 -0.00047971680760383606 1.561309576034546
-0.12279175966978073 0.03923868387937546 1.477176547050476
-0.07260134816169739 0.08893190324306488 1.5723698139190674
-0.1030251681804657 -0.10203365981578827 1.5124547481536865
-0.0974951833486557 0.044503260403871536 0.967456042766571
-0.1408989578485489 -0.06062904745340347 1.8535349369049072
-0.1524357795715332 -0.06878291070461273 1.8476855754852295
-0.15303254127502441 -0.08198979496955872 1.8347175121307373
-0.03223571181297302 0.05277929827570915 1.458024024963379
-0.11412544548511505 0.0993971899151802 1.43973970413208
-0.1319146752357483 -0.20336319506168365 0.055826976895332336
-0.077682726085186 0.16649585962295532 1.3705910444259644
-0.09268783032894135 -0.18349823355674744 1.5694607496261597
-0.11291306465864182 -0.23374585807323456 0.3973497450351715
-0.06590025126934052 0.018545452505350113 1.5230079889297485
-0.0731787160038948 -0.04621477425098419 1.5099214315414429
-0.06084350496530533 0.11349866539239883 1.4872066974639893
-0.04368095099925995 0.05278217792510986 0.8427314758300781
-0.11977136880159378 -0.17826877534389496 0.34380215406417847
-0.04822026193141937 0.28107866644859314 0.9514164924621582
-0.0374893844127655 0.04346432536840439 1.0353871583938599
-0.07021263986825943 -0.19517704844474792 1.2419087886810303
-0.06922050565481186 -0.16524583101272583 1.1504095792770386
-0.10738485306501389 -0.20718717575073242 0.32616403698921204
-0.09237799048423767 -0.22586791217327118 0.26959994435310364
-0.12177039682865143 -0.18048901855945587 0.2641531229019165
-0.06154277175664902 -0.010709907859563828 1.5448243618011475
-0.04750553518533707 -0.19431819021701813 0.7025508880615234
-0.07627610862255096 -0.14264678955078125 0.6381833553314209
-0.04729490727186203 0.297885537147522 1.097926139831543
-0.041072968393564224 0.3089776933193207 1.0039570331573486
-0.015549820847809315 -0.2002318799495697 1.1694774627685547
-0.11570413410663605 -0.20180517435073853 0.13843485713005066
-0.04007672891020775 0.25214719772338867 0.9960982799530029
-0.044391002506017685 0.21799656748771667 1.0361793041229248
0.009506195783615112 0.012793509289622307 1.5321862697601318
-0.05669209361076355 -0.16389575600624084 1.393743634223938
-0.01900320127606392 0.19201324880123138 1.3457196950912476
0.022176183760166168 0.05808541178703308 1.4435200691223145
0.005597393959760666 -0.011134859174489975 1.5359866619110107
0.02192986011505127 0.25553321838378906 1.0044296979904175
0.04359643533825874 0.25601115822792053 0.9542024731636047
0.00719880498945713 -0.17668674886226654 1.3840248584747314
0.012342473492026329 0.046495888382196426 1.0285314321517944
0.005275576375424862 -0.19780701398849487 1.1118592023849487
0.0663871020078659 0.1710348129272461 1.3690301179885864
0.036240026354789734 -0.04018591344356537 1.3187403678894043
0.05312330275774002 0.10834316909313202 1.4908870458602905
0.02890409529209137 0.04674883931875229 1.489345669746399
0.05184604227542877 -0.0316816121339798 1.2252403497695923
0.0396847128868103 0.10141538828611374 0.9107705354690552
0.019167732447385788 -0.0844276025891304 1.7874776124954224
0.11740505695343018 0.14585158228874207 0.14934000372886658
0.12192563712596893 0.16795723140239716 0.13536715507507324
0.10461021959781647 0.17144161462783813 0.1993505209684372
0.0012614410370588303 -0.21489517390727997 1.6724907159805298
0.059921130537986755 -0.0611400231719017 0.6950929164886475
0.09581506997346878 0.053123123943805695 1.457378625869751
0.06218429654836655 -0.11586879193782806 1.517174243927002
0.11015385389328003 -0.11173208802938461 1.4483561515808105
0.05789566785097122 -0.07285381853580475 1.4270752668380737
0.10521651059389114 0.04221677780151367 0.4318928122520447
0.12762345373630524 0.03298424929380417 0.26383069157600403
0.1381957232952118 0.1315678209066391 0.2981795072555542
0.10210836678743362 0.25546348094940186 1.0115749835968018
0.0869879424571991 0.2920364737510681 0.9765582084655762
0.09371527284383774 -0.14329399168491364 0.7219456434249878
0.10231111943721771 -0.052985165268182755 0.6424460411071777
0.02643745392560959 -0.13741543889045715 1.776885986328125
0.07390522956848145 -0.13732756674289703 1.7328356504440308
0.11554471403360367 -0.10809603333473206 0.5264558792114258
0.03960954025387764 -0.07551297545433044 1.8008091449737549
0.07053357362747192 -0.08481935411691666 1.7487449645996094
0.09530891478061676 -0.07882364839315414 1.1410173177719116
0.09868253767490387 -0.06549547612667084 1.1097743511199951
0.09228655695915222 -0.1435297131538391 1.0923820734024048
0.06517461687326431 -0.1809864044189453 1.6684162616729736
0.07721264660358429 -0.10507909208536148 1.5510650873184204
0.07062287628650665 -0.15308678150177002 1.5545896291732788
0.14902670681476593 0.25049903988838196 0.9655020833015442
0.1092456579208374 -0.14127904176712036 1.2886220216751099
0.12728284299373627 -0.1981012523174286 1.2286252975463867
0.11220275610685349 -0.11357107758522034 1.2424108982086182
0.18598811328411102 0.15359611809253693 0.2558087706565857
0.1704680174589157 0.07556535303592682 0.21431168913841248
0.19092468917369843 0.09042982757091522 0.2052067518234253
0.08418680727481842 -0.05849572643637657 1.7706881761550903
0.12303035706281662 -0.15974894165992737 1.282865047454834
0.17893706262111664 0.018563929945230484 0.46802979707717896
0.15667395293712616 -0.05259939283132553 0.4874159097671509
0.18814334273338318 0.030501477420330048 0.41539350152015686
0.12818482518196106 -0.1291966587305069 1.4360644817352295
0.11197878420352936 -0.12513035535812378 1.4318969249725342
0.1359049528837204 -0.09205160290002823 1.401456594467163
0.1188698261976242 0.07091306149959564 0.9067098498344421
0.11796426773071289 -0.1140022724866867 0.8350012302398682
0.20902813971042633 0.09039995074272156 0.31661295890808105
0.218001589179039 0.061914876103401184 0.30746155977249146
0.14420485496520996 -0.08056657761335373 1.3973357677459717
0.15528617799282074 0.13739465177059174 1.2712476253509521
0.15740039944648743 0.17321601510047913 1.245362639427185
0.14391139149665833 -0.24009187519550323 1.1060512065887451
0.16515667736530304 -0.05181032046675682 0.9723403453826904
0.16774654388427734 -0.11325661838054657 0.962233304977417
0.19651442766189575 -0.01896040141582489 1.2343616485595703
0.30264735221862793 -0.0678652673959732 1.0907992124557495
0.2973836660385132 -0.01162169873714447 1.0962786674499512
0.32183223962783813 -0.13194060325622559 1.136987328529358
-0.33090728521347046 -0.010474341921508312 1.0249404907226562
-0.35645559430122375 -0.0740237906575203 0.9900453090667725
-0.2601199746131897 -0.11128008365631104 1.1049467325210571
-0.2740529477596283 -0.1346796303987503 1.150892734527588
-0.2205866426229477 -0.07389727234840393 1.1309617757797241
-0.20734459161758423 -0.029970886185765266 1.1656434535980225
-0.19299748539924622 -0.15085723996162415 0.8702536821365356
-0.17379626631736755 0.23132386803627014 0.9973869323730469
-0.17545466125011444 0.19524644315242767 1.110366940498352
-0.13697564601898193 -0.2539626955986023 1.072509527206421
-0.13902035355567932 -0.160791277885437 0.9564658403396606
-0.2076183408498764 -0.22758717834949493 0.2851649820804596
-0.1852586418390274 -0.2733010947704315 0.3027448058128357
-0.1390518695116043 -0.15564407408237457 0.4899216592311859
-0.14904743432998657 -0.19505244493484497 0.860306441783905
-0.1317426562309265 -0.17791306972503662 0.6225675344467163
-0.12843500077724457 -0.18640419840812683 0.6916955709457397
-0.11872952431440353 -0.12515446543693542 0.6732795834541321
-0.10386247932910919 -0.011298894882202148 1.1096794605255127
-0.09510885179042816 -0.07905733585357666 1.1306538581848145
-0.08821184933185577 0.2521961033344269 1.189392328262329
-0.11489029228687286 -0.01741190068423748 0.8308462500572205
-0.14207464456558228 -0.28254616260528564 0.3176472783088684
-0.10269936919212341 -0.04301527887582779 1.2200982570648193
-0.08574315160512924 -0.03730205446481705 1.1452772617340088
-0.128847137093544 -0.24996115267276764 0.449800968170166
-0.14056845009326935 -0.07883032411336899 1.7677216529846191
-0.1392073780298233 -0.11763335764408112 1.7566454410552979
-0.08965353667736053 -0.1514066606760025 1.771787405014038
-0.10193170607089996 -0.19280247390270233 1.7308704853057861
-0.11554855108261108 -0.18548350036144257 1.6251742839813232
-0.11848201602697372 -0.23900997638702393 0.3449993133544922
-0.052298031747341156 -0.16905447840690613 0.7561180591583252
-0.09568381309509277 -0.25434720516204834 0.27779486775398254
-0.11411257088184357 -0.28077396750450134 0.28433963656425476
-0.1268569827079773 -0.19054001569747925 0.22902357578277588
-0.05930451303720474 0.06737863272428513 0.9591720104217529
-0.09113000333309174 -0.06178026646375656 1.8133633136749268
-0.10679798573255539 -0.0775202214717865 1.800540804862976
0.016659636050462723 0.18971368670463562 1.1687533855438232
-0.0873587429523468 0.18374167382717133 1.1706838607788086
-0.006547878496348858 0.16180264949798584 1.2322704792022705
0.018834693357348442 -0.05066528916358948 1.2629438638687134
-0.005168848671019077 0.25104227662086487 1.224589228630066
0.006118119694292545 0.22855423390865326 1.0419650077819824
0.0633346289396286 0.2887742221355438 1.1371104717254639
0.013238595798611641 0.06855794787406921 1.6889405250549316
0.04780733957886696 0.22056537866592407 1.049649715423584
0.049607813358306885 -0.2180965393781662 0.8977674245834351
0.094239242374897 0.05811329558491707 0.2963595986366272
0.11310096830129623 0.08225777000188828 0.2509203255176544
0.05586317554116249 -0.12754037976264954 0.6769667267799377
0.04104595631361008 0.02343062125146389 1.0643947124481201
0.08085986971855164 -0.04488249123096466 0.5671714544296265
0.07942138612270355 0.13189207017421722 1.3035751581192017
0.08509476482868195 -0.15602841973304749 1.407379150390625
0.051716070622205734 0.05786707252264023 1.6493481397628784
0.05545831099152565 -0.02211664617061615 1.6189463138580322
0.05718325078487396 -0.0007846169173717499 1.5918858051300049
0.03291967883706093 -0.07123518735170364 1.8510915040969849
0.08942858874797821 -0.1596839874982834 1.3288627862930298
0.14619842171669006 0.0070314668118953705 0.528350293636322
0.11285251379013062 0.02066495642066002 0.5284500122070312
0.14710946381092072 0.07963825762271881 0.4050412178039551
0.1719692051410675 0.08744356036186218 0.38024818897247314
0.10199092328548431 -0.09653415530920029 1.5404884815216064
0.08866729587316513 -0.10819128155708313 1.5514483451843262
0.10368509590625763 -0.10124798119068146 1.5338807106018066
0.12284963577985764 -0.05524197593331337 0.7474281787872314
0.14022105932235718 -0.09529042989015579 0.6194655299186707
0.12623381614685059 0.03157452493906021 0.9457735419273376
0.128587543964386 -0.05766155198216438 1.081579327583313
0.1237604171037674 -0.11301217973232269 1.072455644607544
0.13016600906848907 -0.1409357488155365 1.0162029266357422
0.0975586473941803 -0.0552048496901989 1.6653976440429688
0.11255790293216705 -0.05764981359243393 1.5747910737991333
0.11944202333688736 -0.18004870414733887 1.214750051498413
0.11973123252391815 0.023796498775482178 1.5616816282272339
0.11144888401031494 -0.00930711254477501 1.6014450788497925
0.20612485706806183 0.17849105596542358 0.2034980207681656
0.21938936412334442 0.1641385853290558 0.17626117169857025
0.13322682678699493 0.012091297656297684 1.521874189376831
0.13753725588321686 0.035082925111055374 1.492836833000183
0.14794921875 0.04345129057765007 1.4468828439712524
0.1446572244167328 0.06580741703510284 1.4301625490188599
0.1377975344657898 -0.2501795291900635 1.1240229606628418
0.17116579413414001 -0.15021541714668274 0.8412876725196838
0.15358689427375793 -0.22539235651493073 1.145023226737976
0.1533007174730301 -0.25079411268234253 1.12650728225708
0.198873832821846 -0.10745155811309814 0.857139527797699
0.19939221441745758 -0.08632244169712067 0.8375370502471924
0.2097766399383545 -0.05136518180370331 0.8482792377471924
-0.2299671471118927 -0.13227033615112305 1.1680094003677368
-0.1579670011997223 -0.15336087346076965 1.2466421127319336
-0.17009247839450836 -0.14794884622097015 1.229681134223938
-0.1589527130126953 -0.14042341709136963 1.2397499084472656
-0.15276780724525452 -0.14239764213562012 1.2583246231079102
-0.2048933506011963 0.0016033686697483063 0.8380340933799744
-0.12374471127986908 -0.10659483075141907 1.2893459796905518
-0.13902981579303741 -0.06380130350589752 1.0834136009216309
-0.15369683504104614 0.02674224227666855 1.5681846141815186
-0.124532051384449 -0.10914263129234314 1.1973676681518555
-0.12788161635398865 -0.08819768577814102 1.148216724395752
-0.1302526593208313 0.0580112487077713 1.4624141454696655
-0.12597307562828064 0.0700967088341713 1.4129441976547241
-0.11702290922403336 -0.14382341504096985 1.047044277191162
-0.08450262248516083 -0.17240041494369507 1.0067986249923706
-0.125859797000885 -0.06465917825698853 0.7515915632247925
-0.0865381509065628 0.21217608451843262 1.2684565782546997
-0.09657636284828186 0.06765296310186386 1.664681077003479
-0.12419241666793823 -0.15264305472373962 0.09114402532577515
-0.1386985182762146 -0.13794450461864471 0.08375342935323715
-0.0893961563706398 0.02409793995320797 0.845440685749054
-0.014815052971243858 0.09866039454936981 0.8392536640167236
-0.06314810365438461 -0.020137012004852295 0.8273789882659912
-0.00025194883346557617 0.10788484662771225 1.3359066247940063
-0.03024393320083618 -0.11574915051460266 0.7639724016189575
-0.0386505126953125 -0.20573246479034424 1.6442859172821045
-0.015585904009640217 0.019415102899074554 0.8607995510101318
-0.0072227222844958305 -0.0219016894698143 0.8416918516159058
0.009031443856656551 -0.11509750038385391 0.8450846076011658
-0.07768017798662186 -0.16779784858226776 0.8578426241874695
0.0007702633738517761 -0.2271086722612381 0.8461369872093201
0.022557808086276054 -0.10753700137138367 0.8140073418617249
-0.00473990710452199 -0.1634415090084076 0.8572537899017334
0.002971125766634941 -0.038634419441223145 1.5093432664871216
0.017903681844472885 -0.03228612616658211 0.8351618647575378
0.022436898201704025 -0.048484206199645996 0.8099411129951477
0.013284865766763687 -0.02221096307039261 1.590207815170288
0.01750471442937851 -0.015335744246840477 1.562485933303833
0.03176436200737953 -0.11997882276773453 0.8322893381118774
0.12269188463687897 0.0643695741891861 0.8369243144989014
0.0967215746641159 0.08348162472248077 0.3111211061477661
0.04323943704366684 -0.03608904033899307 0.7966014742851257
0.06387780606746674 0.18597297370433807 1.2021585702896118
0.1233980655670166 0.0032438188791275024 0.400227427482605
0.12257040292024612 0.04587848484516144 0.35633790493011475
0.1384934037923813 0.020117558538913727 0.3602227568626404
0.13650767505168915 0.010342992842197418 0.2965492010116577
0.09872929751873016 0.03929230198264122 1.5332136154174805
0.0721234679222107 -0.012977619655430317 0.8341900706291199
0.09794409573078156 -0.03716374933719635 0.8102750778198242
0.10764903575181961 -0.08375777304172516 1.2536228895187378
0.15292857587337494 -0.02923600561916828 0.4357894957065582
0.09075295180082321 0.00465209037065506 1.6374859809875488
0.09371742606163025 -0.05737045779824257 1.3138816356658936
0.17006491124629974 0.017827950417995453 0.3632201850414276
0.08160831779241562 0.256166011095047 1.200622320175171
0.11117905378341675 -0.052105288952589035 1.2309232950210571
0.17994767427444458 0.12617367506027222 0.302071213722229
0.13278242945671082 0.2718287408351898 1.1104440689086914
0.1638493537902832 0.1189427375793457 0.32774028182029724
0.18030913174152374 0.015380769968032837 0.27466699481010437
0.13320520520210266 0.11577554792165756 1.3252806663513184
0.12092821300029755 -0.1213020384311676 1.4792073965072632
0.13196367025375366 -0.1072104200720787 1.4486626386642456
0.12036418914794922 -0.11854373663663864 1.4796442985534668
0.15104803442955017 -0.08102495968341827 1.4357517957687378
0.14238528907299042 -0.2020610272884369 1.1948739290237427
0.12722423672676086 -0.2140282839536667 1.1836655139923096
0.1523473709821701 0.16405446827411652 1.2227095365524292
0.17154069244861603 0.21594253182411194 1.1566932201385498
0.16715776920318604 0.21339668333530426 1.11968994140625
0.17004476487636566 -0.06870628148317337 1.268114447593689
0.16194775700569153 -0.11854368448257446 1.2593753337860107
0.15618650615215302 -0.17549316585063934 0.8549556136131287
0.17205514013767242 -0.14209464192390442 1.261960506439209
0.22853945195674896 -0.1244158148765564 1.1567997932434082
0.20977376401424408 -0.03986888751387596 1.1761362552642822
0.23177899420261383 -0.0855545923113823 1.1385939121246338
0.31210070848464966 -0.12178545445203781 1.1803600788116455
0.3428037166595459 -0.024597324430942535 1.0773463249206543
0.3449069857597351 -0.10889928042888641 1.0984935760498047
-0.1407766044139862 -0.25185132026672363 1.1156971454620361
-0.13837088644504547 -0.19015219807624817 1.1819465160369873
-0.1484074890613556 -0.1832456886768341 1.2045775651931763
-0.12928062677383423 -0.23637621104717255 1.1221044063568115
-0.1471620798110962 0.051038846373558044 1.494929552078247
-0.15304499864578247 0.04260038584470749 1.477130651473999
-0.16028012335300446 0.07259590178728104 1.43049955368042
-0.16401353478431702 -0.08116994798183441 1.7276685237884521
-0.15808427333831787 -0.11845511198043823 1.6408400535583496
-0.1761978268623352 -0.23737144470214844 0.34106895327568054
-0.13002867996692657 -0.06555988639593124 0.8355141878128052
-0.1282559037208557 -0.0965745747089386 0.8268401622772217
-0.15872898697853088 0.2560082972049713 0.9712232947349548
-0.08285525441169739 -0.15859246253967285 1.24122953414917
-0.11445417255163193 -0.038723159581422806 0.7995439767837524
-0.11222938448190689 -0.09387403726577759 1.7806649208068848
-0.07943499833345413 -0.12573368847370148 1.1307567358016968
-0.04080236330628395 -0.1856466829776764 1.123315453529358
-0.0897434800863266 0.2171739935874939 1.0904499292373657
-0.0021006104070693254 0.21826991438865662 1.087531328201294
-0.0645272359251976 -0.02136675827205181 1.1624913215637207
-0.05175258591771126 -0.11296086013317108 0.844521701335907
-0.036662790924310684 -0.19063982367515564 1.0664770603179932
-0.055157143622636795 0.02480984851717949 1.0592656135559082
-0.033423785120248795 -0.19324323534965515 1.746187686920166
0.02324596606194973 -0.10031448304653168 0.7466553449630737
-0.06632792204618454 0.1211748868227005 1.3033826351165771
0.11535141617059708 0.18538051843643188 0.1589619219303131
0.11295033991336823 0.3015539348125458 1.0401966571807861
0.07703761756420135 0.22400373220443726 1.1090278625488281
0.04621082916855812 0.3125246465206146 1.0537426471710205
0.0899844765663147 0.09539878368377686 0.8444253206253052
0.17790134251117706 0.20526739954948425 0.21789294481277466
0.11367592215538025 -0.03669457137584686 0.8320889472961426
0.15795519948005676 -0.0030833259224891663 0.4055277407169342
0.12739917635917664 -0.1448042094707489 1.3918735980987549
0.1341908872127533 -0.14284378290176392 1.3018980026245117
0.1947709321975708 0.002869410440325737 0.8419509530067444
0.199631005525589 -0.04526384547352791 0.906627893447876
0.35365983843803406 -0.06801747530698776 1.0767977237701416
-0.29018014669418335 -0.1347287893295288 1.112669825553894
-0.20162849128246307 -0.07726744562387466 0.9098291993141174
-0.21866950392723083 -0.07099276036024094 0.8540223836898804
-0.15943163633346558 0.054537732154130936 1.42501962184906
-0.16908273100852966 0.12640753388404846 1.257972240447998
-0.1444423943758011 -0.06260834634304047 1.5499892234802246
-0.1363903284072876 -0.05350925400853157 1.0463674068450928
-0.13391679525375366 -0.08476213365793228 1.0888266563415527
-0.145924910902977 -0.05777353793382645 1.5503038167953491
-0.13988502323627472 -0.07672268152236938 1.5376520156860352
-0.14396819472312927 -0.06794355809688568 1.5462501049041748
-0.1435656100511551 -0.07104727625846863 1.5492085218429565
-0.1462860107421875 -0.08570792526006699 1.537446141242981
-0.16722306609153748 -0.274541437625885 0.17994017899036407
-0.15269717574119568 -0.15897274017333984 1.6990646123886108
-0.0284500103443861 -0.02656177431344986 1.2196903228759766
-0.11987215280532837 -0.2515384256839752 0.0720406100153923
-0.043406400829553604 -0.04596717655658722 1.2609810829162598
-0.0014262439217418432 -0.022515760734677315 1.172380805015564
-0.047707803547382355 0.09573718160390854 0.9177331924438477
-0.04237598180770874 -0.09779569506645203 1.7978696823120117
-0.039077434688806534 -0.14643025398254395 0.7022949457168579
-0.038702547550201416 0.13707438111305237 1.264718770980835
0.021949172019958496 -0.19107043743133545 1.0101362466812134
-0.01454896666109562 -0.20783346891403198 1.2094310522079468
0.008990823291242123 0.19698093831539154 1.133827805519104
0.11439584940671921 0.12074421346187592 0.2719503939151764
0.07925812155008316 -0.17026913166046143 0.9881911277770996
0.12437975406646729 -0.16462409496307373 0.9588512778282166
0.0772256925702095 0.008926760405302048 1.5553691387176514
0.08646699786186218 -0.1632564663887024 1.1652380228042603
0.04530031234025955 -0.025396034121513367 1.1704628467559814
0.1014656275510788 -0.012550239451229572 1.075713872909546
0.08121125400066376 0.06480536609888077 0.9464744329452515
0.18644258379936218 0.1989694982767105 0.12829914689064026
0.1596970558166504 0.2045796513557434 0.13361887633800507
0.21200984716415405 0.19775956869125366 0.14788801968097687
0.19988752901554108 0.038085103034973145 0.2653881013393402
0.11777223646640778 -0.11766155809164047 1.4753689765930176
0.11814527213573456 -0.11859428882598877 1.4769176244735718
0.10892421752214432 -0.10445190966129303 1.323567271232605
0.13110095262527466 -0.12951380014419556 1.2956727743148804
0.1826431304216385 0.255354106426239 1.0462099313735962
0.18260732293128967 0.24283179640769958 0.9949058294296265
0.19208239018917084 0.24844323098659515 0.9916689991950989
0.35055047273635864 -0.011436693370342255 1.0870507955551147
0.3763831853866577 -0.0763026550412178 1.0491725206375122
0.4016823470592499 -0.09376613795757294 1.0322238206863403
-0.280177503824234 -0.04872337728738785 1.0486094951629639
-0.14995676279067993 -0.22008353471755981 1.1633213758468628
-0.1456766426563263 -0.23976479470729828 0.3712635636329651
-0.11128424108028412 0.2492598295211792 0.9437925815582275
-0.08967845886945724 -0.14247700572013855 1.0843067169189453
-0.03394765406847 -0.04091572389006615 0.8345825672149658
-0.05150572955608368 -0.042494021356105804 0.7884982824325562
-0.04519360139966011 -0.09252656996250153 0.8082347512245178
-0.004032511729747057 0.022207554429769516 1.1042181253433228
0.028124798089265823 -0.2078235000371933 0.8324851989746094
0.0906398594379425 0.020707305520772934 0.8500537872314453
0.09899355471134186 0.23003843426704407 1.0704585313796997
0.10522603988647461 -0.03528238460421562 1.5760271549224854
0.11316929757595062 -0.005619175732135773 1.551611065864563
0.18640506267547607 -0.11252337694168091 0.9068748950958252
-0.1549983024597168 -0.22572654485702515 1.1283549070358276
-0.15467365086078644 -0.005676258355379105 1.5835663080215454
-0.08334358036518097 0.2542811930179596 0.9952036142349243
-0.13696527481079102 0.0222623348236084 1.616085410118103
-0.1041954830288887 -0.012428369373083115 1.6026501655578613
-0.06534958630800247 -0.020305361598730087 1.5810480117797852
0.04971183091402054 -0.18721938133239746 1.065682053565979
0.07400009036064148 -0.16490797698497772 1.2484068870544434
0.13604170083999634 0.08461174368858337 0.2027229517698288
0.11354321241378784 -0.13332344591617584 1.2150368690490723
0.12249411642551422 -0.10707061737775803 1.1653482913970947
0.12785108387470245 0.06045067682862282 1.4513192176818848
0.10415959358215332 0.09530004113912582 1.4586007595062256
0.12312029302120209 -0.06152890622615814 1.1787242889404297
0.1170831173658371 -0.07557326555252075 0.819303035736084
0.10459255427122116 -0.20207449793815613 1.2138066291809082
0.13634337484836578 0.12707287073135376 1.3497711420059204
-0.1540217399597168 0.10654938966035843 1.3538459539413452
-0.13783994317054749 -0.16749678552150726 0.370943546295166
0.04029977694153786 -0.09960253536701202 0.7070778012275696
0.028307951986789703 -0.18961608409881592 1.7260925769805908
-0.17408885061740875 0.2340967208147049 1.0484838485717773
-0.14527644217014313 -0.14533084630966187 1.2620868682861328
-0.09517107158899307 -0.20185445249080658 0.4069651961326599
-0.0030223391950130463 0.12130071222782135 1.4888222217559814
0.13815318048000336 0.1952354907989502 0.13023510575294495
0.1053665429353714 -0.10171445459127426 1.533038854598999
0.10494957864284515 -0.10117100924253464 1.5309693813323975
0.1153787299990654 -0.10982556641101837 1.4311014413833618
0.19225895404815674 0.06402170658111572 0.24867701530456543
0.20434561371803284 0.0994696319103241 0.262891948223114
0.21806907653808594 -0.1456766128540039 1.2034454345703125
-0.17864426970481873 -0.15191540122032166 0.9277147650718689
-0.15729057788848877 0.08213599771261215 1.388378620147705
-0.1553305685520172 0.0795043483376503 1.3902782201766968
-0.1608027070760727 0.07623264193534851 1.3900829553604126
-0.1109280064702034 -0.22861890494823456 0.21812008321285248
-0.03274072706699371 -0.09349997341632843 0.8379669189453125
0.10998804122209549 0.11405811458826065 0.21776148676872253
0.2711547911167145 -0.14234541356563568 1.1601825952529907
0.08997702598571777 -0.1318311244249344 1.6788318157196045
0.13359040021896362 -0.09892360866069794 0.7733641862869263
0.14264199137687683 0.07198008894920349 1.4057387113571167
0.13817039132118225 0.10159562528133392 1.3660390377044678
0.11197580397129059 0.20229673385620117 0.19027504324913025
0.4006999135017395 -0.503360390663147 0.9114258885383606
0.3908521234989166 -0.45915889739990234 0.9018114805221558
0.39346960186958313 -0.4734889268875122 0.8993436098098755
0.38361456990242004 -0.47546595335006714 0.9065736532211304
0.3931181728839874 -0.50016188621521 0.9006521701812744
0.3960387110710144 -0.49215537309646606 0.9187927842140198
0.3921668827533722 -0.31538766622543335 0.9574564099311829
0.376555860042572 -0.3229931592941284 0.9491066932678223
0.39250779151916504 -0.3471352458000183 0.9478739500045776
0.39197835326194763 -0.35802334547042847 0.9469888210296631
0.372980535030365 -0.1150587871670723 0.9559826254844666
0.3689830005168915 -0.13744878768920898 0.9682132005691528
0.3734542429447174 -0.12879148125648499 0.943681001663208
0.38514673709869385 -0.3290969133377075 0.9096390008926392
0.3885542154312134 -0.34828343987464905 0.9171813130378723
0.3988230526447296 -0.39142876863479614 0.9583426713943481
0.3964325785636902 -0.37383586168289185 0.9524572491645813
0.3758033514022827 -0.16428184509277344 0.9107933044433594
0.3748244345188141 -0.180900439620018 0.9298425912857056
0.3942330479621887 -0.24003374576568604 0.9813455939292908
0.3858761191368103 -0.22899098694324493 0.9774206280708313
0.4054856598377228 -0.47514963150024414 0.9364010691642761
0.39570751786231995 -0.4445042610168457 0.8974098563194275
0.38206416368484497 -0.1211417019367218 0.9346641302108765
0.37673503160476685 -0.12995129823684692 0.9270806312561035
0.37853801250457764 0.06916695833206177 1.100264072418213
0.377612441778183 0.0547560453414917 1.0927934646606445
0.3769015967845917 0.07494750618934631 1.079222559928894
0.4013318419456482 -0.4190857410430908 0.9427281618118286
0.4027794599533081 -0.4459216594696045 0.9371111392974854
0.3809047043323517 -0.12381082028150558 0.9261841773986816
0.38134968280792236 -0.11887208372354507 0.918083906173706
0.3998813033103943 -0.5085287094116211 0.8541976809501648
0.4022252559661865 -0.5285513401031494 0.8559498190879822
0.382445365190506 0.08472805470228195 1.0982682704925537
0.3814225196838379 0.06648483872413635 1.1055197715759277
0.3773346245288849 0.0860738605260849 1.0919629335403442
0.38157665729522705 0.08005093038082123 1.0785585641860962
0.4090367257595062 -0.5817582607269287 0.8944923877716064
0.41596004366874695 -0.6043735146522522 0.8984526991844177
0.40969526767730713 -0.6008310317993164 0.8788822293281555
0.3875771760940552 -0.25373774766921997 0.9093781113624573
0.3969706594944 -0.2732347249984741 0.9022283554077148
0.3898630440235138 -0.2940136194229126 0.8873077630996704
0.39613357186317444 -0.2907140254974365 0.8855503797531128
0.3873886168003082 0.06208430230617523 1.1082817316055298
0.38129910826683044 0.09148139506578445 1.0881606340408325
0.40888160467147827 -0.41822534799575806 0.9590192437171936
0.41575267910957336 -0.4158707857131958 0.9608824849128723
0.405843049287796 -0.4352501928806305 0.9542574286460876
0.4157063961029053 -0.4581473767757416 0.9507579803466797
0.38753876090049744 -0.20318123698234558 0.9145121574401855
0.39113718271255493 -0.22060897946357727 0.9031462073326111
0.3858396112918854 -0.2260926365852356 0.9068045616149902
0.38718369603157043 0.08556508272886276 1.091605305671692
0.3909454345703125 0.05958633869886398 1.1033328771591187
0.38623708486557007 0.07528527081012726 1.0793282985687256
0.3812870383262634 -0.07840369641780853 0.8993109464645386
0.38075801730155945 -0.08425553143024445 0.8900438547134399
0.38083675503730774 -0.10480721294879913 0.9081681370735168
0.38498151302337646 -0.09455093741416931 0.9009467959403992
0.3765929937362671 -0.08920472860336304 0.8988201022148132
0.39753031730651855 -0.31609395146369934 0.870295524597168
0.3962239921092987 -0.2987746596336365 0.8730697631835938
0.39490437507629395 -0.2995128631591797 0.8586314916610718
0.3943747580051422 -0.3061075210571289 0.8576659560203552
0.3920045793056488 0.06718698889017105 1.0863056182861328
0.4220224618911743 -0.6156775951385498 0.9005831480026245
0.42275407910346985 -0.6050394773483276 0.884405791759491
0.42462682723999023 -0.621414303779602 0.8949396014213562
0.42177581787109375 -0.6284687519073486 0.89420086145401
0.4170638620853424 -0.5954146385192871 0.8724888563156128
0.4037468135356903 -0.1132669523358345 0.9509369730949402
0.39273205399513245 -0.12354706227779388 0.9309753179550171
0.40808960795402527 -0.48540082573890686 0.8531814813613892
0.4121522605419159 -0.5164245963096619 0.850551962852478
0.4131074547767639 -0.5441370010375977 0.8577576279640198
0.4100346565246582 -0.22224852442741394 0.9841217994689941
0.4067883789539337 -0.24542731046676636 0.9777684211730957
0.415973961353302 -0.2556290626525879 0.9678570628166199
0.42142295837402344 -0.40847358107566833 0.9654372930526733
0.418184757232666 -0.41774651408195496 0.9538056254386902
0.4206749498844147 -0.47690850496292114 0.9404051899909973
0.4103565812110901 -0.3742608428001404 0.9605511426925659
0.41585996747016907 -0.46019116044044495 0.8809515833854675
0.41531720757484436 -0.4989556074142456 0.8675954341888428
0.4152848720550537 -0.22043922543525696 0.9798166155815125
0.42450547218322754 -0.3801497220993042 0.9402767419815063
0.4227083623409271 -0.35767441987991333 0.9384757280349731
0.42453500628471375 -0.39836031198501587 0.9363216161727905
0.42557600140571594 -0.5651552081108093 0.8869300484657288
0.4243977963924408 -0.5505701303482056 0.8794100880622864
0.4061489999294281 -0.35287654399871826 0.8915685415267944
0.4196789264678955 -0.35737496614456177 0.9050268530845642
0.41292789578437805 -0.37973570823669434 0.902323842048645
0.42082202434539795 -0.38404351472854614 0.9102212190628052
0.415469765663147 -0.3002941906452179 0.9537162184715271
0.4170420467853546 -0.34179115295410156 0.945149302482605
0.42582160234451294 -0.46723103523254395 0.9210370779037476
0.4286949336528778 -0.490915983915329 0.9082298278808594
0.4221190810203552 -0.5023843050003052 0.9124212265014648
0.42425402998924255 -0.4476611614227295 0.899003803730011
0.4267444610595703 -0.457926869392395 0.8904359340667725
0.41427063941955566 -0.30955302715301514 0.9106506109237671
0.41555190086364746 -0.328750342130661 0.9048076868057251
0.41056594252586365 -0.29317036271095276 0.9000893831253052
0.4143221974372864 -0.31820619106292725 0.8986719250679016
0.41409891843795776 -0.3396179676055908 0.9022222757339478
0.41528230905532837 -0.289581835269928 0.9262081980705261
0.4203759431838989 -0.2735949754714966 0.9381569623947144
0.40620753169059753 -0.25486528873443604 0.9141732454299927
0.4154767096042633 -0.27057164907455444 0.9261715412139893
0.42648452520370483 -0.46991443634033203 0.8934330940246582
0.4312758445739746 -0.4939514696598053 0.8927731513977051
0.42285844683647156 -0.4832576513290405 0.8891088962554932
0.43821272253990173 -0.48448050022125244 0.8912708759307861
0.4147685468196869 -0.13365797698497772 0.9581134915351868
0.3806638717651367 -0.44738054275512695 0.9268525242805481
0.37785717844963074 -0.4595322608947754 0.9124537110328674
0.382271945476532 -0.3686663508415222 0.9368851184844971
0.38024193048477173 -0.3648233413696289 0.9342492818832397
0.3791818618774414 -0.3874559700489044 0.9374561905860901
0.380104660987854 -0.3717636466026306 0.9285380840301514
0.3782036006450653 -0.38921698927879333 0.93253493309021
0.3830203711986542 -0.32424336671829224 0.9289795756340027
0.383354514837265 -0.33619725704193115 0.925686240196228
0.3839759826660156 -0.29751646518707275 0.9333186149597168
0.3893006145954132 -0.38679003715515137 0.941031277179718
0.39869794249534607 -0.4674718677997589 0.8761235475540161
0.39052537083625793 -0.4931860864162445 0.8961635828018188
0.38772809505462646 -0.3594648241996765 0.9093483090400696
0.3971151113510132 -0.5225017070770264 0.8961489200592041
0.40078049898147583 -0.5461564660072327 0.886134684085846
0.39564400911331177 -0.5249760150909424 0.8846900463104248
0.4017772674560547 -0.5673387050628662 0.8904034495353699
0.38189980387687683 -0.11171604692935944 0.977839469909668
0.3950411081314087 -0.1886153519153595 1.0266237258911133
0.3914705514907837 -0.1951414942741394 1.0152921676635742
0.3973780572414398 -0.19957879185676575 1.0200790166854858
0.3826834559440613 -0.20271019637584686 0.9224247932434082
0.3748759627342224 0.07130487263202667 1.0659332275390625
0.38462716341018677 0.03647526353597641 1.099787712097168
0.3864251375198364 0.026598021388053894 1.0890142917633057
0.37852421402931213 0.032056987285614014 1.0817861557006836
0.40295740962028503 -0.32529574632644653 0.9616279006004333
0.4114267826080322 -0.4980129599571228 0.9429225921630859
0.40520524978637695 -0.5664604902267456 0.8669658899307251
0.3785759210586548 -0.0008253902196884155 1.0320090055465698
0.3883480727672577 -0.02989579737186432 1.0104379653930664
0.40385007858276367 -0.29844772815704346 0.9760832786560059
0.40362292528152466 -0.3069341778755188 0.9663745164871216
0.40295878052711487 -0.3535357117652893 0.9543132781982422
0.4123214781284332 -0.574216365814209 0.8676888346672058
0.4196292757987976 -0.6218627691268921 0.9048557877540588
0.4159846603870392 -0.630805492401123 0.9043076038360596
0.41685813665390015 -0.6195830702781677 0.8866156935691833
0.3865772783756256 -0.08204912394285202 0.9888061285018921
0.39328598976135254 -0.10733824223279953 0.9794743061065674
0.4113459289073944 -0.353069931268692 0.9523369073867798
0.3779851794242859 -0.11161097884178162 0.9567461013793945
0.407160222530365 -0.538537323474884 0.8532265424728394
0.40331050753593445 -0.14687958359718323 1.0593924522399902
0.40502214431762695 -0.1454312652349472 1.0551393032073975
0.402572900056839 -0.15266656875610352 1.0405269861221313
0.4087618589401245 -0.16440241038799286 1.0483529567718506
0.41091489791870117 -0.17810097336769104 1.0452404022216797
0.39467546343803406 -0.14641869068145752 1.0183682441711426
0.40295714139938354 -0.1490888148546219 1.0219038724899292
0.42288362979888916 -0.6335978507995605 0.9053828120231628
0.405515193939209 -0.36700162291526794 0.889354944229126
