-0.17274996638298035 -0.026598680764436722 1.255632996559143
0.14554622769355774 -0.0511942058801651 1.1721965074539185
0.13151344656944275 -0.07421120256185532 1.180794358253479
0.1455792635679245 -0.05892100930213928 1.1278587579727173
0.22870007157325745 -0.07349629700183868 1.2884132862091064
0.16856877505779266 -0.0921952873468399 1.2205848693847656
0.182437926530838 -0.06651350855827332 1.2370537519454956
0.2151978462934494 -0.056544095277786255 1.1713463068008423
0.224361851811409 -0.08535493910312653 1.1481345891952515
0.19400113821029663 -0.04051914066076279 1.0807406902313232
0.19874873757362366 -0.03749938681721687 1.04912269115448
0.19327808916568756 -0.05541234090924263 1.0776877403259277
0.20360460877418518 -0.05304953455924988 1.0513802766799927
0.23408982157707214 -0.03753560036420822 1.053942084312439
0.3404369354248047 -0.10207272320985794 1.4043999910354614
0.3203388452529907 -0.12420202046632767 1.3574442863464355
0.2705237865447998 -0.03453098237514496 1.020720362663269
0.256936252117157 -0.06306182593107224 1.0261552333831787
0.23344412446022034 -0.04949529469013214 1.0551443099975586
0.2584359049797058 -0.04294860363006592 1.0161716938018799
0.28374046087265015 -0.03376215323805809 0.9765142798423767
0.31460654735565186 -0.11159494519233704 1.266156792640686
0.35744404792785645 -0.056978922337293625 1.0823267698287964
0.2827715277671814 -0.07739783078432083 1.034533143043518
0.2905057370662689 -0.05772382766008377 1.0555249452590942
0.38318127393722534 -0.07527980208396912 1.2131534814834595
0.3381369113922119 -0.08202427625656128 1.0685181617736816
0.359524130821228 -0.04755411297082901 0.9945707321166992
0.3567132353782654 -0.04745296388864517 1.045339822769165
0.3510795831680298 -0.057887058705091476 1.0112128257751465
0.36752602458000183 -0.08917582035064697 1.0246741771697998
0.418201744556427 -0.08588165789842606 1.2485716342926025
0.3957325518131256 -0.07498578727245331 1.1345831155776978
0.38810014724731445 -0.10493388026952744 1.1481186151504517
0.46681079268455505 -0.13672679662704468 1.3572982549667358
0.39521604776382446 -0.059562020003795624 1.0223652124404907
0.48355555534362793 -0.1021304577589035 1.3408963680267334
0.47539132833480835 -0.09993206709623337 1.2813966274261475
0.5029527544975281 -0.12864887714385986 1.3136786222457886
0.4292858839035034 -0.04793647304177284 0.8229509592056274
0.5073317289352417 -0.12307384610176086 1.242494821548462
0.5246756076812744 -0.11407937854528427 1.2003264427185059
0.4882969260215759 -0.08047492057085037 1.1677088737487793
0.4794096350669861 -0.09968544542789459 1.0678198337554932
0.47702980041503906 -0.06484094262123108 1.0751692056655884
0.5167843103408813 -0.07809695601463318 1.1744498014450073
0.5150885581970215 -0.07244765758514404 1.1128333806991577
0.5262881517410278 -0.06982114911079407 1.0479758977890015
0.5613366365432739 -0.07667192071676254 1.1914585828781128
0.563389778137207 -0.09133754670619965 1.160308837890625
0.46082210540771484 -0.11153343319892883 0.6536605358123779
0.45306169986724854 -0.09580845385789871 0.5241185426712036
0.4732910692691803 -0.038862116634845734 0.5270161628723145
0.45189169049263 -0.05599289387464523 0.5578244924545288
0.5255980491638184 -0.0734262764453888 0.8552075624465942
0.5165668725967407 -0.06295926123857498 0.8173747658729553
0.5689780712127686 -0.05822974443435669 1.0377085208892822
0.5053820610046387 0.007735707797110081 0.5742454528808594
0.5071864128112793 -0.008260160684585571 0.636753261089325
0.5950000286102295 -0.04948610067367554 0.802967369556427
0.5933172106742859 -0.0481887012720108 0.7101467847824097
0.5469315648078918 -0.052935075014829636 0.7214268445968628
0.5878651142120361 -0.07128223776817322 0.7211960554122925
-0.6611902117729187 -0.0018370188772678375 0.8766819834709167
-0.6509323120117188 -0.022409100085496902 0.8799773454666138
-0.607029914855957 0.03553180769085884 1.2395652532577515
-0.6036945581436157 0.050119802355766296 1.2518560886383057
-0.598296046257019 0.03681424260139465 1.1976571083068848
-0.5873954892158508 0.012469828128814697 1.087817907333374
-0.5583044290542603 -0.0017088539898395538 1.1234391927719116
-0.5983489155769348 -0.019773807376623154 1.0400358438491821
-0.5595414042472839 -0.0053018126636743546 1.0384976863861084
-0.5474716424942017 -0.033463217318058014 1.163548469543457
-0.5357073545455933 -0.015727080404758453 1.3306242227554321
-0.5402623414993286 -0.00729949027299881 1.2954751253128052
-0.5188528299331665 -0.01555684581398964 0.8310572504997253
-0.5794934034347534 0.0043672919273376465 0.8042111396789551
-0.5530089735984802 0.001969084143638611 0.7262560129165649
-0.5095958709716797 0.0035618357360363007 1.3289610147476196
-0.5292325019836426 -0.01750858873128891 1.3756331205368042
-0.5429069995880127 -0.07222668081521988 0.8991873860359192
-0.5385734438896179 -0.08125364780426025 0.8757574558258057
-0.5510327816009521 -0.07425869256258011 0.7205140590667725
-0.5513689517974854 -0.08997954428195953 0.6678599715232849
-0.5150413513183594 -0.017171334475278854 1.0243899822235107
-0.515324056148529 -0.01693706214427948 1.475033164024353
-0.5111240148544312 -0.019907008856534958 1.0652683973312378
-0.5036417841911316 -0.006469324231147766 0.9946392774581909
-0.516921877861023 -0.05528575927019119 1.0884121656417847
-0.5195042490959167 -0.05790368467569351 1.0654075145721436
-0.4774370491504669 -0.01828247681260109 1.0718436241149902
-0.49902981519699097 -0.04833569377660751 1.1739118099212646
-0.4948055148124695 -0.022917520254850388 0.9413544535636902
-0.4958503246307373 -0.02770393341779709 0.8756049871444702
-0.5005230903625488 -0.007108055055141449 1.256991982460022
-0.466228187084198 -0.02163219079375267 1.1852082014083862
-0.4795130491256714 -0.047381289303302765 1.1456187963485718
-0.45153534412384033 -0.04004083201289177 1.512021541595459
-0.4843181371688843 -0.05269377678632736 1.324472427368164
-0.4363403916358948 -0.054761167615652084 1.2156420946121216
-0.4157394766807556 -0.06157730519771576 1.5584075450897217
-0.3894695043563843 -0.022103726863861084 1.4592220783233643
-0.43035709857940674 -0.051910340785980225 1.3485714197158813
-0.39976271986961365 -0.02470940165221691 1.1497530937194824
-0.4168345332145691 -0.04961368441581726 1.1602914333343506
-0.41418471932411194 -0.02005404606461525 1.353015422821045
-0.39844202995300293 -0.018152734264731407 1.282667875289917
-0.31422314047813416 -0.035267408937215805 1.5065208673477173
-0.353826105594635 -0.05347181856632233 1.3308155536651611
-0.3309103846549988 -0.054208483546972275 1.2393853664398193
-0.3181568384170532 -0.023889146745204926 1.2392922639846802
-0.32740354537963867 -0.02379726804792881 1.175365686416626
-0.2791752815246582 -0.05517977476119995 1.2640451192855835
-0.29966792464256287 -0.016534382477402687 1.1803443431854248
-0.3114576041698456 -0.027885835617780685 1.420386791229248
-0.2765146791934967 -0.05553840845823288 1.3721617460250854
-0.25477373600006104 -0.019330253824591637 1.164294719696045
-0.2275790423154831 -0.018369454890489578 1.1849677562713623
-0.16345740854740143 -0.04236334189772606 1.461601972579956
-0.20013155043125153 -0.05450385808944702 1.299335241317749
0.16846710443496704 -0.06519089639186859 1.0977392196655273
0.2238897979259491 -0.0858139842748642 1.3797060251235962
0.24207104742527008 -0.044460445642471313 1.1230497360229492
0.23283973336219788 -0.06805291026830673 1.107413411140442
0.21187354624271393 -0.03240828588604927 1.0627201795578003
0.31534767150878906 -0.0738198459148407 1.2034188508987427
0.2959558665752411 -0.0891297310590744 1.117456078529358
0.2947133183479309 -0.027298681437969208 0.9824942946434021
0.4185362160205841 -0.09568561613559723 1.321868658065796
0.3668169379234314 -0.09161368012428284 1.0533320903778076
0.48927369713783264 -0.09296544641256332 1.2401686906814575
0.42375698685646057 -0.03634773567318916 0.7392548322677612
0.4349924623966217 -0.021800044924020767 0.7227524518966675
0.4119411110877991 -0.01064988598227501 0.6194193959236145
0.4005444645881653 0.003088433528319001 0.5521115064620972
0.4011417031288147 -0.016598552465438843 0.5615906715393066
0.4903867542743683 -0.05733124911785126 0.9939099550247192
0.4275473356246948 0.0023037907667458057 0.6260011792182922
0.4137438237667084 0.013070870190858841 0.5572837591171265
0.44867610931396484 -0.0886756181716919 0.77675461769104
0.462430477142334 -0.1100153774023056 0.8179226517677307
0.4442555904388428 -0.11924642324447632 0.7884094715118408
0.4486384689807892 -0.08774904161691666 0.7278008460998535
0.46364182233810425 -0.0021017491817474365 0.6442422866821289
0.45161721110343933 0.0013034604489803314 0.5672280192375183
0.4970122277736664 -0.041450537741184235 0.7914668321609497
0.466076523065567 -0.0855717808008194 0.7680794596672058
0.48411598801612854 -0.08760950714349747 0.7116590738296509
0.4703061282634735 -0.1061771810054779 0.7693196535110474
0.4729977548122406 -0.11553236842155457 0.6967256665229797
0.4881274402141571 -0.08669809997081757 0.8379788994789124
0.5188860893249512 -0.07678952813148499 0.7824246287345886
0.4740978479385376 -0.05950550734996796 0.5623202919960022
0.45022326707839966 -0.07657700031995773 0.5039291977882385
0.47601211071014404 -0.010730300098657608 0.5262362957000732
0.5273064374923706 -0.05346524715423584 0.8603278994560242
0.48845675587654114 -0.032946549355983734 0.662111759185791
0.4816640615463257 -0.09373015910387039 0.617490291595459
0.49886617064476013 -0.08015262335538864 0.6115449666976929
0.5004491806030273 -0.04947596415877342 0.5401753187179565
0.5648217797279358 -0.04069400951266289 0.7896735668182373
0.5756933689117432 -0.036329369992017746 0.7577168941497803
0.5438040494918823 -0.03210896626114845 0.5937032699584961
0.5457311868667603 -0.047977861016988754 0.6112120747566223
0.5506807565689087 -0.05550859495997429 0.9538850784301758
0.624670147895813 -0.029268674552440643 0.9022719860076904
0.5921253561973572 -0.04794422537088394 0.8966284394264221
0.6367807388305664 -0.061633478850126266 1.0755912065505981
0.622276782989502 -0.05323377624154091 1.0364800691604614
0.6146484613418579 -0.04814175143837929 1.0330681800842285
0.6179797649383545 -0.06256148219108582 1.0149930715560913
0.6311742067337036 -0.040239568799734116 0.9552512764930725
0.6286402344703674 -0.05039946734905243 0.97137451171875
-0.6366826891899109 0.03223348781466484 1.0480161905288696
-0.6291268467903137 0.009422097355127335 1.0531374216079712
-0.633551836013794 -0.010546792298555374 1.0194039344787598
-0.5676302909851074 -0.04598519206047058 0.7033905982971191
-0.5739172101020813 -0.08726345002651215 0.6602864861488342
-0.5382183790206909 -0.07532957196235657 0.876529335975647
-0.5657620429992676 -0.07572375982999802 0.8292107582092285
-0.5503870248794556 -0.11264409124851227 0.8549094200134277
-0.5778485536575317 -0.0931866243481636 0.7592791318893433
-0.5470252633094788 -0.07740027457475662 0.7642227411270142
-0.5481212735176086 -0.10238686203956604 0.7234280705451965
-0.526461124420166 -0.06954418867826462 1.0130228996276855
-0.5229203104972839 -0.0902831107378006 0.9600864052772522
-0.5365524291992188 -0.07112880051136017 0.9702067375183105
-0.5414266586303711 -0.10663607716560364 0.7889813780784607
-0.538205087184906 -0.07971934974193573 0.7967905402183533
-0.5288687348365784 -0.10407255589962006 0.8825339078903198
-0.5417444705963135 -0.07646112143993378 0.8463841676712036
-0.5042784810066223 -0.00985540822148323 1.1645656824111938
-0.4751359820365906 -0.01759973168373108 1.0000416040420532
-0.4293052554130554 -0.037246592342853546 1.0194777250289917
-0.43028366565704346 -0.01707760989665985 1.0219424962997437
-0.4431573152542114 -0.05484772473573685 1.164079189300537
-0.41106942296028137 -0.036761969327926636 1.102263331413269
-0.4210125803947449 -0.01651223562657833 1.0515135526657104
-0.42054957151412964 -0.03339476138353348 1.0381139516830444
-0.32340967655181885 -0.05874008685350418 1.3794076442718506
-0.3637446165084839 -0.01964777521789074 1.1278339624404907
-0.33106523752212524 -0.05111001431941986 1.156424641609192
-0.33200836181640625 -0.014113151468336582 1.1247363090515137
-0.26061463356018066 -0.03395449370145798 1.1539185047149658
-0.2880608141422272 -0.016540156677365303 1.1335173845291138
-0.20403790473937988 -0.02906244620680809 1.2093597650527954
0.3748520016670227 -0.043409429490566254 0.9452353119850159
0.5314704179763794 -0.13150480389595032 1.385395884513855
0.4482424557209015 -0.044762466102838516 0.8939805030822754
0.3848211467266083 -0.028186772018671036 0.8905221223831177
0.4146353304386139 -0.05753632262349129 0.8740668892860413
0.41699904203414917 -0.041034214198589325 0.8698449730873108
0.4523112177848816 -0.07055054605007172 1.0601346492767334
0.44190675020217896 -0.08817628026008606 0.8830954432487488
0.4462873041629791 -0.08453492820262909 0.8286142349243164
0.44369280338287354 -0.1133071631193161 0.8433027863502502
0.44036686420440674 -0.10444824397563934 0.8169353604316711
0.4383280575275421 -0.07914204150438309 0.7720786333084106
0.4205896258354187 -0.042505379766225815 0.5884776711463928
0.4199724495410919 -0.03278442844748497 0.5433753728866577
0.44347333908081055 -0.021607672795653343 0.5306276082992554
0.48049771785736084 -0.05758370831608772 0.8648668527603149
0.48211485147476196 -0.04821818321943283 0.8308650851249695
0.4753490388393402 -0.09551262110471725 0.7938097715377808
0.4555070698261261 -0.0937625840306282 0.7583863139152527
0.44627705216407776 -0.1163574606180191 0.7218703031539917
0.5313893556594849 -0.11177216470241547 1.146501064300537
0.5270466208457947 -0.053276922553777695 0.790696382522583
0.5422097444534302 -0.04824186488986015 0.743972897529602
0.5550099015235901 -0.07495500892400742 0.9050425291061401
0.5394219160079956 -0.061010897159576416 0.5713139772415161
0.5197317004203796 -0.024104677140712738 0.5514411330223083
0.5520355701446533 -0.06825686991214752 0.7654447555541992
0.5473296642303467 -0.06787656247615814 0.7156553864479065
0.661534309387207 -0.04657338932156563 0.8818012475967407
0.6150515079498291 -0.07675924152135849 0.8412722945213318
0.6249971389770508 -0.05429309979081154 0.8402561545372009
0.6119009256362915 -0.05487625300884247 0.712647020816803
0.6084392070770264 -0.04677436500787735 0.7284653782844543
-0.6067712903022766 0.0347549244761467 1.2035951614379883
-0.6074712872505188 -0.02172897569835186 0.6685822606086731
-0.5632127523422241 -0.056627050042152405 0.9659684300422668
-0.5552871823310852 -0.07407885044813156 0.9317455291748047
-0.5657157301902771 -0.034874625504016876 1.0187944173812866
-0.48416563868522644 -0.03163587674498558 1.4507038593292236
-0.5382532477378845 -0.005341053009033203 1.0533795356750488
-0.5356435775756836 -0.01646796241402626 1.0176150798797607
-0.5396184921264648 -0.04494857415556908 0.6760743856430054
-0.5267561078071594 -0.01623440347611904 0.6778543591499329
-0.5111801028251648 -0.07311755418777466 0.9627900123596191
-0.5192763805389404 -0.08164352923631668 0.9111295342445374
-0.5109294652938843 -0.09094950556755066 0.9474737048149109
-0.4799710810184479 -0.04514120891690254 1.4006574153900146
-0.48007819056510925 -0.014639243483543396 1.299061894416809
-0.25876954197883606 -0.01406639814376831 1.2323817014694214
0.11871035397052765 -0.06595992296934128 1.220684289932251
0.11051022261381149 -0.081932432949543 1.225888729095459
0.18966081738471985 -0.07922609150409698 1.126745581626892
0.1631937175989151 -0.04506056755781174 1.0719295740127563
0.278434157371521 -0.060915060341358185 1.1485376358032227
0.3043985068798065 -0.04734961688518524 1.019680380821228
0.2941439747810364 -0.057279229164123535 1.0038763284683228
0.42179322242736816 -0.09804631769657135 1.108056902885437
0.4770549237728119 -0.11854523420333862 1.1697698831558228
0.441646933555603 -0.08885504305362701 1.0012097358703613
0.43768978118896484 -0.11037909239530563 0.729476273059845
0.4531686305999756 -0.08478091657161713 0.6861633658409119
0.44332265853881836 -0.10033947974443436 0.6399203538894653
0.441486120223999 -0.07209834456443787 0.5982101559638977
0.5090624094009399 -0.08117654174566269 0.9152880907058716
0.467708021402359 -0.08838221430778503 0.5200696587562561
-0.6168780326843262 -0.004175398498773575 1.0392299890518188
-0.5021899342536926 -0.04385776072740555 0.8215591907501221
-0.5036782026290894 -0.04443446546792984 0.7683539390563965
-0.4558374583721161 -0.045620933175086975 1.5449206829071045
-0.36258694529533386 -0.02325141616165638 1.1140016317367554
-0.3591528534889221 -0.019036157056689262 1.0849487781524658
-0.3310997486114502 -0.028263229876756668 1.1048833131790161
-0.26751381158828735 -0.01481123361736536 1.137020230293274
-0.14687873423099518 -0.040065065026283264 1.275609016418457
-0.1496969312429428 -0.05964126065373421 1.2740072011947632
0.40402692556381226 -0.11664620041847229 1.2448123693466187
0.4540572762489319 -0.12591533362865448 1.2787327766418457
0.48359745740890503 -0.054972801357507706 0.8937614560127258
0.45463383197784424 -0.036804936826229095 0.8310089707374573
0.476580947637558 -0.09672805666923523 0.990158200263977
0.43180903792381287 -0.06928279250860214 0.7195287942886353
0.5368372201919556 -0.08187023550271988 0.9519751071929932
0.5478909015655518 -0.0853903666138649 1.0360440015792847
0.592221736907959 -0.06752703338861465 0.8731576800346375
0.5768080949783325 -0.0678805485367775 0.8129358887672424
0.5510513186454773 -0.06969871371984482 0.6545239686965942
0.4842432737350464 -0.07285095751285553 0.5787544250488281
0.5567363500595093 -0.04778403788805008 0.6493505835533142
-0.5903736352920532 -0.050031937658786774 0.6800702214241028
-0.5547541379928589 -0.023209132254123688 0.6742295026779175
-0.5433298349380493 -0.07654082030057907 0.8716330528259277
-0.5566319823265076 -0.06669348478317261 0.7273766398429871
-0.5257551670074463 -0.06048490107059479 0.7114623188972473
-0.47864580154418945 -0.04620767757296562 1.0162043571472168
-0.27023741602897644 -0.04559619724750519 1.236422061920166
-0.27944543957710266 -0.036185964941978455 1.1840277910232544
-0.29305434226989746 -0.024196092039346695 1.1615675687789917
-0.23362648487091064 -0.048017650842666626 1.2229962348937988
-0.23351269960403442 -0.045415084809064865 1.1549532413482666
-0.23711788654327393 -0.028144098818302155 1.147035837173462
0.16718092560768127 -0.03120359405875206 1.0816845893859863
0.4323002099990845 -0.08170106261968613 0.931931734085083
0.4749967157840729 -0.09830636531114578 0.9167772531509399
0.4760814309120178 -0.09991444647312164 0.8714137673377991
0.5347176790237427 -0.08224698901176453 0.7013874650001526
-0.6179274916648865 -0.023445071652531624 0.771754801273346
-0.6203732490539551 -0.041380129754543304 0.7335853576660156
-0.6187939643859863 -0.028735604137182236 0.7305039763450623
-0.5562741756439209 -0.007455423474311829 0.942770779132843
-0.5187689065933228 -0.06378389149904251 0.884880781173706
-0.5086366534233093 -0.07753594219684601 0.9275928139686584
-0.18963393568992615 -0.04737359285354614 1.237200379371643
-0.11212968826293945 -0.0619879886507988 1.3529760837554932
-0.10426015406847 -0.051023732870817184 1.3441190719604492
0.11854802072048187 -0.09305143356323242 1.2329950332641602
0.3385419547557831 -0.15343618392944336 1.5180567502975464
0.4748133420944214 -0.11937559396028519 1.4277713298797607
0.5082564949989319 -0.1384144127368927 1.429168462753296
0.5320132970809937 -0.1221003532409668 1.354223608970642
0.5988517999649048 -0.07216237485408783 1.1042205095291138
0.6358861327171326 -0.07133876532316208 1.1312453746795654
0.6103017330169678 -0.043042611330747604 1.0845502614974976
0.6174300312995911 -0.062245193868875504 1.0619382858276367
0.6434884071350098 -0.048537109047174454 1.0770114660263062
-0.6283470988273621 0.032772064208984375 1.1411869525909424
-0.6224063038825989 0.04591172933578491 1.1266298294067383
-0.5712903141975403 0.02709534391760826 1.367294192314148
-0.5577411651611328 0.027798153460025787 1.3485010862350464
-0.5854410529136658 0.0039034225046634674 0.7154192924499512
-0.5864259004592896 -0.0019927509129047394 0.6727140545845032
-0.570771336555481 -0.07458395510911942 0.7684977054595947
-0.5589123964309692 -0.011834859848022461 0.8940039873123169
-0.5253304839134216 -0.003248736262321472 1.0992885828018188
-0.4334758520126343 -0.048049550503492355 1.5852729082107544
0.19091862440109253 -0.05272377282381058 1.13666570186615
0.31061580777168274 -0.0871029645204544 1.3243051767349243
0.3334827721118927 -0.053760677576065063 1.0229313373565674
0.3576461672782898 -0.0638679563999176 1.14656400680542
0.36494016647338867 -0.05101820454001427 0.945060670375824
0.376306414604187 -0.04911794513463974 0.8939860463142395
0.3948590159416199 -0.08448193222284317 0.9614650011062622
0.42533567547798157 -0.03967863321304321 0.6880432367324829
0.4341511130332947 -0.046785932034254074 0.6741780638694763
0.47564226388931274 -0.0949086993932724 0.7166588306427002
0.5691753625869751 -0.0548388846218586 0.8795664310455322
0.5372492074966431 -0.02447195164859295 0.6786028146743774
-0.6055367588996887 -0.03812282159924507 0.6968955397605896
-0.5840945243835449 -0.026980102062225342 0.6537575721740723
-0.3479693531990051 -0.005921144038438797 1.0877363681793213
-0.27208876609802246 -0.007831264287233353 1.159083604812622
-0.21600793302059174 -0.03897180035710335 1.1956827640533447
0.5187489986419678 -0.030850686132907867 0.7129459977149963
0.4910815954208374 -0.020207980647683144 0.49659794569015503
0.5057917237281799 -0.026417864486575127 0.5076286196708679
-0.5508320927619934 -0.0776260495185852 0.9092841744422913
-0.5166236162185669 -0.05093947798013687 0.8366390466690063
-0.5211014151573181 -0.06458903849124908 0.7912660837173462
0.5372753143310547 -0.10892742872238159 1.2758673429489136
0.5039321184158325 -0.00220516137778759 0.5062879920005798
0.6010751128196716 -0.062417805194854736 0.7747055888175964
-0.24752584099769592 -0.022102944552898407 1.3082044124603271
0.6000451445579529 -0.06030651181936264 0.8646746873855591
-0.49390697479248047 -0.040875304490327835 0.9079852104187012
0.4386211037635803 -0.08319006860256195 0.5417826771736145
0.5878797769546509 -0.0571339875459671 0.8543208837509155
-0.5569186806678772 -0.09488867968320847 0.8727085590362549
-0.33019721508026123 -0.025413967669010162 0.8892444968223572
-0.3366679549217224 -0.0243605338037014 0.9008488059043884
-0.32803580164909363 -0.055817004293203354 0.8926284313201904
-0.33801791071891785 -0.05541309714317322 0.9001398682594299
-0.3039477467536926 -0.03823994845151901 0.9682168960571289
-0.31173065304756165 -0.041072722524404526 0.9429083466529846
-0.2928522527217865 -0.01485040970146656 0.9226693511009216
-0.2833556830883026 -0.005587919615209103 0.9649385213851929
-0.30832618474960327 -0.06519988924264908 0.9425528645515442
-0.3212129473686218 -0.08989015221595764 0.9207594394683838
-0.2792820930480957 -0.038401417434215546 1.040521264076233
-0.30032554268836975 -0.09455803036689758 0.9271906614303589
-0.3013354241847992 -0.05163751170039177 0.9383925199508667
-0.30150070786476135 -0.0955096185207367 0.9677671790122986
-0.28980928659439087 -0.06443269550800323 0.9715115427970886
-0.2576709985733032 -0.013332800939679146 1.0232006311416626
-0.2795196771621704 -0.054089099168777466 0.975479006767273
-0.286847323179245 -0.07791376113891602 0.9940923452377319
-0.28628283739089966 -0.06553780287504196 1.0290278196334839
-0.28973454236984253 -0.03487906605005264 1.0746548175811768
-0.30426472425460815 -0.09098996967077255 1.049222469329834
-0.23504142463207245 -0.0018334442283958197 1.12492036819458
-0.2398705929517746 0.010548458434641361 1.0816738605499268
-0.2854047417640686 -0.05688810721039772 1.1053695678710938
-0.20430266857147217 0.010736305266618729 1.0795074701309204
-0.23829007148742676 -0.07572044432163239 1.1682207584381104
-0.27664512395858765 -0.1195300742983818 1.101552128791809
-0.2014874517917633 0.010830940678715706 1.1253880262374878
-0.17173168063163757 -0.010078955441713333 1.1411488056182861
-0.18163633346557617 -0.0314166434109211 1.1945058107376099
-0.15484973788261414 -0.03389740735292435 1.2022514343261719
-0.17984558641910553 -0.1304798126220703 1.2463877201080322
-0.23213638365268707 -0.1271890550851822 1.162245512008667
-0.15493130683898926 -0.055149346590042114 1.2452179193496704
-0.19222435355186462 -0.08273446559906006 1.2319746017456055
-0.15318293869495392 -0.0746060311794281 1.2811928987503052
-0.1452600061893463 -0.09406347572803497 1.3182530403137207
-0.1461530327796936 -0.1438218057155609 1.3093204498291016
-0.18025189638137817 -0.15815900266170502 1.1946041584014893
-0.10694960504770279 -0.11367262154817581 1.7052632570266724
-0.08798763155937195 -0.011416004970669746 1.4324126243591309
-0.13403375446796417 0.06399406492710114 0.8446130752563477
-0.17768922448158264 0.01280023343861103 0.8341005444526672
-0.14905309677124023 -0.08266974985599518 0.8438668251037598
-0.19087323546409607 -0.11147136986255646 0.8286763429641724
-0.09900985658168793 -0.08825500309467316 1.622894287109375
-0.11104937642812729 -0.13060562312602997 1.7234973907470703
-0.08479591459035873 -0.11485394090414047 1.6774591207504272
-0.07028157263994217 -0.0771285891532898 1.6399567127227783
-0.08618545532226562 -0.08895346522331238 1.5893303155899048
-0.12009051442146301 -0.0161917582154274 1.0427031517028809
-0.16304364800453186 -0.05686212703585625 0.992519736289978
-0.16970978677272797 -0.12265922129154205 0.9724413752555847
-0.09127406775951385 -0.09952758997678757 1.5243418216705322
-0.14639951288700104 -0.0942690446972847 -0.014173835515975952
-0.15121500194072723 -0.1780015230178833 -0.012439414858818054
-0.15400409698486328 -0.19253253936767578 0.018485456705093384
-0.1104111522436142 -0.14438959956169128 1.3646427392959595
-0.10223712772130966 -0.08987759053707123 1.3335041999816895
-0.09872570633888245 -0.10807324945926666 1.3073269128799438
-0.1219598799943924 -0.1539953500032425 1.3477725982666016
-0.10980717837810516 -0.18013867735862732 1.2949247360229492
-0.12695348262786865 -0.07191051542758942 0.42567843198776245
-0.11876694858074188 -0.09759435057640076 0.33939290046691895
-0.12688656151294708 -0.04563256725668907 0.27832722663879395
-0.13368970155715942 -0.07310876250267029 0.305398553609848
-0.08197616785764694 -0.10216173529624939 1.6504279375076294
-0.10506555438041687 -0.13942363858222961 1.2660701274871826
-0.11528247594833374 -0.1336595118045807 1.2287187576293945
-0.11355923116207123 -0.1690993458032608 1.2439930438995361
-0.13836002349853516 -0.18462929129600525 1.23390531539917
-0.11406253278255463 -0.033625245094299316 0.20800264179706573
-0.09054158627986908 -0.16129598021507263 1.5056575536727905
-0.07911975681781769 -0.0934329628944397 1.52517831325531
-0.08652087301015854 -0.12299928069114685 1.5121865272521973
-0.10622799396514893 -0.10919222980737686 0.5268601775169373
-0.02724059298634529 -0.12695153057575226 1.7298837900161743
-0.11039730906486511 -0.1671341508626938 1.1857582330703735
-0.10923662781715393 -0.0820126011967659 1.165078043937683
-0.08913464844226837 -0.14914970099925995 0.7175813913345337
-0.03336618095636368 -0.0750020369887352 1.6960399150848389
-0.08731666952371597 -0.17520514130592346 1.3660504817962646
-0.08939570188522339 -0.1259613335132599 0.8338658809661865
-0.1346004605293274 -0.1349274218082428 0.8521941304206848
-0.12449559569358826 -0.20000678300857544 0.9036422967910767
-0.10242361575365067 -0.21698471903800964 0.845095157623291
-0.12632253766059875 -0.21482987701892853 0.058509357273578644
0.0022679194808006287 -0.05598122626543045 1.6978516578674316
-0.022519009187817574 -0.11545757949352264 1.717517614364624
-0.0993824303150177 -0.13265950977802277 1.425676703453064
-0.07694807648658752 -0.15969637036323547 1.464933156967163
-0.09168632328510284 -0.022927816957235336 0.2780154049396515
-0.1050705760717392 -0.03401140868663788 0.16648457944393158
-0.12304608523845673 -0.19287285208702087 0.09028685092926025
-0.09944649040699005 0.0035603782162070274 -0.015447733923792839
-0.07462345063686371 -0.10478787124156952 1.3137693405151367
-0.08365815132856369 -0.13494464755058289 0.5019174218177795
-0.07874716818332672 -0.20125249028205872 -0.015285874716937542
-0.1191580593585968 -0.21057859063148499 -0.021455414593219757
-0.04305830970406532 -0.10025355219841003 1.535759687423706
-0.05129306763410568 -0.1256195306777954 1.489579439163208
-0.030888929963111877 -0.21760788559913635 0.9082018733024597
-0.0846843495965004 0.08727969974279404 0.8561729192733765
-0.10906224697828293 -0.14958956837654114 0.2115357518196106
-0.07988080382347107 -0.12977474927902222 0.13091540336608887
-0.08102342486381531 0.000617198646068573 0.042018383741378784
-0.06620226055383682 -0.09243322908878326 1.2869333028793335
-0.08023518323898315 -0.10029919445514679 1.2453290224075317
-0.05023248866200447 -0.21412168443202972 1.2681410312652588
-0.08093515783548355 -0.057938069105148315 0.6278129816055298
-0.06906003504991531 -0.15145501494407654 0.7139407992362976
-0.04902242124080658 -0.12927547097206116 0.802114725112915
-0.06705982983112335 -0.12639354169368744 0.0982060432434082
-0.07210937142372131 -0.19545865058898926 0.060237087309360504
-0.07100003957748413 -0.20575445890426636 1.45065438747406
-0.05508362874388695 -0.10310645401477814 1.3475565910339355
-0.03615676239132881 -0.0894145518541336 1.293318510055542
-0.05430980771780014 -0.13662880659103394 0.5275315642356873
-0.03427004814147949 -0.11677837371826172 0.5304974913597107
-0.06916668266057968 -0.019993025809526443 0.46894851326942444
-0.050917018204927444 -0.1903131753206253 1.4228579998016357
-0.027815837413072586 -0.14951133728027344 1.4088897705078125
-0.058149658143520355 -0.100383460521698 1.3921425342559814
-0.041574422270059586 -0.056637078523635864 0.4775492548942566
0.019397206604480743 -0.10141927748918533 1.7229903936386108
-0.05559953674674034 -0.25658878684043884 1.566880702972412
-0.03567924723029137 -0.1923331320285797 0.9731442928314209
-0.028858911246061325 -0.1609574407339096 1.4223580360412598
-0.014218216761946678 -0.18717393279075623 1.4019495248794556
-0.03297102078795433 -0.1708710789680481 1.3949275016784668
-0.010228076949715614 -0.2450050562620163 1.503429651260376
-0.05070943012833595 -0.23496200144290924 1.4570388793945312
-0.0032299011945724487 -0.1339777708053589 1.439379096031189
-0.03271006792783737 -0.0754680410027504 0.6086559295654297
0.061057187616825104 -0.14276224374771118 1.7293232679367065
0.04105651006102562 -0.038439199328422546 1.6744680404663086
-0.0054516177624464035 -0.25588181614875793 1.4531601667404175
-0.023104365915060043 -0.23166826367378235 1.41347336769104
0.0067369211465120316 -0.1379362791776657 1.4119120836257935
0.0010220156982541084 -0.2352215051651001 1.4131858348846436
0.03486202284693718 -0.11576443910598755 1.3939998149871826
-0.001591019332408905 -0.09708749502897263 1.2821284532546997
0.0634135752916336 -0.09066806733608246 1.7192367315292358
0.03169967979192734 -0.14381200075149536 1.439126968383789
0.020207740366458893 -0.18775001168251038 1.4175177812576294
0.0894647017121315 -0.06985136866569519 1.686671257019043
0.07202038168907166 -0.1304464042186737 1.7143069505691528
0.016305482015013695 -0.18338677287101746 1.4049267768859863
0.06056727468967438 -0.20604413747787476 1.4362831115722656
0.028572166338562965 -0.1625584363937378 1.4142372608184814
0.025528494268655777 -0.09294155240058899 0.553814172744751
0.06585495173931122 -0.11717232316732407 1.4729444980621338
0.05376671254634857 -0.12261909991502762 0.4684000015258789
0.0046865930780768394 -0.24825887382030487 1.2210091352462769
0.0635850727558136 -0.12641094624996185 1.2459169626235962
0.05259306728839874 -0.10801577568054199 1.1417561769485474
0.06825749576091766 -0.27321183681488037 0.05455183982849121
0.09768977761268616 -0.2886589765548706 0.026542648673057556
0.0681438073515892 -0.0766616091132164 -0.01206121314316988
0.01830095238983631 -0.2281576693058014 1.2136671543121338
0.007305890321731567 -0.2322995662689209 1.1332327127456665
0.032107461243867874 -0.14258956909179688 0.6957899928092957
0.060105714946985245 -0.17008018493652344 -0.0414920300245285
0.11410538852214813 -0.12908366322517395 1.6731584072113037
0.06199418753385544 -0.2588876783847809 1.5652439594268799
0.05116477608680725 -0.2354862093925476 1.4919835329055786
0.04666534811258316 -0.23469561338424683 1.4496684074401855
0.08199901878833771 -0.15895262360572815 0.8444840908050537
0.1631496548652649 -0.13880586624145508 1.6943395137786865
0.07659902423620224 -0.12299975752830505 1.5180002450942993
0.07133019715547562 -0.13931694626808167 1.488257884979248
0.0730840265750885 -0.05881703644990921 0.2718818783760071
0.06631357222795486 -0.05190395936369896 0.20881225168704987
0.085363008081913 -0.07884249091148376 -0.04084065183997154
0.11511995643377304 -0.15455301105976105 1.7473857402801514
0.09185723960399628 -0.1444358378648758 1.3811131715774536
0.08775678277015686 -0.2182106077671051 0.8381658792495728
0.06445223838090897 -0.1315060555934906 0.8271039724349976
0.11289969831705093 -0.19335398077964783 0.8253322839736938
0.06430866569280624 -0.04147704690694809 0.7158843874931335
0.11849671602249146 -0.2859925925731659 0.04463699087500572
0.12503650784492493 -0.13984200358390808 1.6813124418258667
0.037835750728845596 -0.1952769160270691 1.1122567653656006
0.041145071387290955 -0.2393181324005127 1.23085355758667
0.03928496316075325 -0.2588791251182556 1.224746823310852
0.13139048218727112 -0.1914544701576233 0.895117998123169
0.09686550498008728 -0.19210614264011383 1.516219139099121
0.10496632754802704 -0.11958679556846619 1.5284744501113892
0.10106578469276428 -0.14297521114349365 1.510675311088562
0.10553079843521118 -0.15635351836681366 1.5040839910507202
0.11003359407186508 -0.1677316427230835 1.479128122329712
0.09277431666851044 -0.06868875026702881 0.608778715133667
0.08939215540885925 -0.1352515071630478 0.6276699900627136
0.09409967064857483 -0.21256040036678314 1.3540728092193604
0.10290522873401642 -0.1695096492767334 1.3047475814819336
0.07066856324672699 -0.16091889142990112 1.3285579681396484
0.07201939821243286 -0.16961631178855896 1.3006579875946045
0.094908207654953 -0.11995021253824234 0.7908650636672974
0.12908676266670227 -0.12397494912147522 -0.03638960048556328
0.1423519402742386 -0.16715243458747864 -0.0356653667986393
0.12870554625988007 -0.14213605225086212 1.6380298137664795
0.11183454096317291 -0.15388476848602295 1.351113200187683
0.13296088576316833 -0.11173281818628311 0.25691965222358704
0.15113836526870728 -0.12115456163883209 1.6175841093063354
0.12899962067604065 -0.09811732918024063 1.628003716468811
0.13506247103214264 -0.1198967695236206 1.589080572128296
0.143094003200531 -0.14750725030899048 0.05844946205615997
0.14792972803115845 -0.2520729899406433 0.02011214941740036
0.11862633377313614 -0.26312339305877686 0.07254870980978012
0.1685788631439209 -0.019137293100357056 0.9289276599884033
0.13477398455142975 -0.016828276216983795 0.8220899701118469
0.16130518913269043 -0.15491719543933868 1.6875883340835571
0.15852603316307068 0.03615627437829971 0.8290983438491821
0.1860772967338562 -0.002512585837393999 0.8855982422828674
0.12565438449382782 -0.18805110454559326 1.2905439138412476
0.12688761949539185 -0.21965569257736206 1.2700291872024536
0.09862614423036575 -0.222088024020195 1.3248753547668457
0.12242128700017929 -0.20524561405181885 1.2315828800201416
0.10571572184562683 -0.2048124372959137 1.2142391204833984
0.10709576308727264 -0.2929311990737915 1.191407561302185
0.12951107323169708 -0.2476789951324463 1.2245157957077026
0.12678541243076324 -0.2209923267364502 1.1540396213531494
0.1156817153096199 -0.22319142520427704 1.0727214813232422
0.14339785277843475 -0.22813144326210022 1.0791982412338257
0.15239574015140533 -0.24553775787353516 1.131670594215393
0.14048367738723755 -0.28436774015426636 1.157584309577942
0.13737575709819794 -0.24510370194911957 1.0271893739700317
0.18261873722076416 -0.29727703332901 1.069736123085022
0.179182231426239 -0.27526065707206726 1.050085186958313
0.16059789061546326 -0.2548932135105133 1.0279344320297241
0.15190386772155762 -0.3405412435531616 1.0627350807189941
0.15687069296836853 -0.30586692690849304 1.031517505645752
0.15133900940418243 -0.28657275438308716 1.0186996459960938
0.1941194087266922 -0.33473750948905945 0.9210140705108643
0.14304305613040924 -0.324726939201355 1.0312840938568115
0.14512354135513306 -0.3391837179660797 1.0052884817123413
0.17241109907627106 -0.3024182915687561 0.9522693157196045
0.1441085785627365 -0.32434070110321045 0.9823467135429382
0.14654676616191864 -0.3493190407752991 0.9827781915664673
0.1639389991760254 -0.33565157651901245 0.9546245336532593
0.17969036102294922 -0.33441266417503357 0.9493132829666138
0.14947068691253662 -0.3657814860343933 0.9575670957565308
0.16525818407535553 -0.3509056866168976 0.9490422010421753
0.15807953476905823 -0.3568894863128662 0.9570250511169434
0.19051574170589447 -0.33879050612449646 0.9032019972801208
0.1638445407152176 -0.36867755651474 0.9444514513015747
0.17283634841442108 -0.33162468671798706 0.919222354888916
0.1829662322998047 -0.3596571087837219 0.9146408438682556
0.19501984119415283 -0.3512236177921295 0.9179393649101257
-0.2592445909976959 -0.015532948076725006 1.0470339059829712
-0.27134114503860474 -0.07502979040145874 1.015458583831787
-0.24932819604873657 -0.05705876648426056 1.0211853981018066
-0.2900853753089905 -0.11068037897348404 1.037992238998413
-0.19834958016872406 -0.02242901176214218 1.0560861825942993
-0.26056599617004395 -0.11082307249307632 1.030739426612854
-0.142449289560318 -0.07368262112140656 1.221436619758606
-0.16208456456661224 -0.12595658004283905 1.1763355731964111
-0.18556839227676392 -0.09811078757047653 0.9386274814605713
-0.19056379795074463 -0.015369921922683716 0.9065678119659424
-0.13838165998458862 0.05118340253829956 0.910004198551178
-0.0738125741481781 0.05136900767683983 1.32660973072052
-0.07601675391197205 0.060675960034132004 1.2756028175354004
-0.07540567219257355 0.0878903940320015 1.2578431367874146
-0.16715528070926666 -0.011202909052371979 0.9423637390136719
-0.12027394771575928 -0.13030922412872314 1.6941102743148804
-0.1095479279756546 -0.10591031610965729 1.3473107814788818
-0.1264933943748474 -0.0820641964673996 1.2811658382415771
-0.021546470001339912 0.10833679139614105 1.1710703372955322
-0.05142993852496147 0.12335827946662903 1.1048665046691895
-0.1541113704442978 -0.080489881336689 0.05223836004734039
-0.16022558510303497 -0.16123339533805847 0.03398583456873894
-0.09759780019521713 -0.13683946430683136 1.6755024194717407
-0.0888485461473465 -0.11934144794940948 1.6271030902862549
-0.12751948833465576 -0.19750794768333435 1.2074229717254639
-0.1277189552783966 -0.20573312044143677 1.1781482696533203
-0.13500845432281494 -0.22440284490585327 1.1666778326034546
-0.0659409910440445 -0.0019492525607347488 1.41401207447052
-0.056790418922901154 -0.006270118057727814 1.4089690446853638
-0.10977167636156082 -0.20345425605773926 1.2246296405792236
-0.12775631248950958 -0.11750549077987671 1.202526569366455
-0.13210411369800568 -0.11557129770517349 0.11893895268440247
-0.13839584589004517 -0.07184943556785583 0.13656532764434814
-0.027340508997440338 0.0401785783469677 1.3151352405548096
-0.1037902757525444 -0.1464768797159195 1.434061050415039
-0.104985311627388 -0.13827960193157196 1.4143569469451904
-0.09574396908283234 -0.13665908575057983 1.3939683437347412
-0.10878385603427887 -0.13237127661705017 1.394075870513916
-0.1125989630818367 -0.14614808559417725 1.3766759634017944
-0.11805832386016846 -0.12812073528766632 0.7591760754585266
-0.13197831809520721 -0.09082202613353729 0.7466105222702026
-0.011148135177791119 0.15568512678146362 1.1917405128479004
-0.00969858281314373 0.14402876794338226 1.2343307733535767
-0.10177657753229141 -0.19498777389526367 1.224923849105835
-0.11792305111885071 -0.11631764471530914 0.8399869203567505
-0.1287413388490677 -0.009210783988237381 0.04253691807389259
-0.13178430497646332 -0.018345527350902557 -0.0056601520627737045
-0.1334833949804306 -0.1898326873779297 0.8390637040138245
-0.02913356013596058 0.09573028981685638 1.314441204071045
-0.09093654900789261 -0.22975116968154907 1.5718612670898438
-0.06875932961702347 -0.11483623832464218 1.516502857208252
-0.03877301886677742 -0.029128771275281906 1.5180511474609375
-0.03500993922352791 -0.07034140825271606 1.5538551807403564
-0.056788697838783264 -0.07024835050106049 1.531738519668579
-0.052224136888980865 -0.035120535641908646 1.4696943759918213
0.006962219253182411 -0.009902682155370712 1.5610816478729248
-0.06500179320573807 -0.14432694017887115 1.463751196861267
-0.097231924533844 0.044433608651161194 0.9713075757026672
-0.05278680473566055 -0.14208221435546875 1.7644141912460327
-0.062316276133060455 -0.14754459261894226 1.7576708793640137
-0.06840348243713379 -0.155557781457901 1.743802785873413
0.025668984279036522 -0.03912173956632614 1.4615603685379028
-0.029609955847263336 0.0059868041425943375 1.4541507959365845
-0.06253495812416077 -0.1096537783741951 -0.01847851648926735
0.012590883299708366 0.05373307690024376 1.4132405519485474
-0.06508688628673553 -0.21976974606513977 1.4889384508132935
-0.07027138024568558 -0.09812989085912704 0.34747621417045593
-0.007266521453857422 -0.05945620685815811 1.506556510925293
-0.030588634312152863 -0.10304153710603714 1.4727699756622314
0.018138175830245018 0.01109160017222166 1.4943411350250244
-0.03539754077792168 0.051072560250759125 0.856096625328064
-0.07482783496379852 -0.03432625159621239 0.2986513376235962
0.025410372763872147 0.14659874141216278 1.1068421602249146
-0.03136073797941208 0.02275513857603073 1.0488115549087524
-0.08614315837621689 -0.21974247694015503 1.214223861694336
-0.09669268876314163 -0.19277553260326385 1.1268306970596313
-0.05970302224159241 -0.06264153867959976 0.2768545150756836
-0.03890426456928253 -0.07611002773046494 0.21595387160778046
-0.0702894926071167 -0.028213750571012497 0.21171678602695465
-0.00937739573419094 -0.080712229013443 1.5126105546951294
-0.027543187141418457 -0.13124790787696838 0.6677749752998352
-0.05304357782006264 -0.05940152332186699 0.6258625388145447
0.04067092388868332 0.15619081258773804 1.22532057762146
0.03847420588135719 0.16691604256629944 1.1531950235366821
-0.04931460693478584 -0.2293115109205246 1.1388307809829712
-0.05157439783215523 -0.06635886430740356 0.07179022580385208
0.02700786665081978 0.12382704019546509 1.1349226236343384
0.020647211000323296 0.09596744924783707 1.1613154411315918
0.0529637448489666 -0.07340940833091736 1.5080468654632568
-0.050695374608039856 -0.1967405080795288 1.3549542427062988
0.06266593933105469 0.06639473885297775 1.3967289924621582
0.06818348914384842 -0.03931519389152527 1.448991298675537
0.04488332197070122 -0.08602418005466461 1.500146746635437
0.0758136436343193 0.121650330722332 1.138820767402649
0.0879928320646286 0.1205136775970459 1.09706449508667
0.0014524944126605988 -0.21492144465446472 1.347576379776001
0.020053012296557426 0.02172834612429142 1.0457732677459717
-0.028794581070542336 -0.22692614793777466 1.0779995918273926
0.1255023032426834 0.04542896896600723 1.4060864448547363
0.03539421409368515 -0.10061882436275482 1.2931277751922607
0.10580340027809143 -0.0035025132820010185 1.490092158317566
0.07216059416532516 -0.047425609081983566 1.4831081628799438
0.03810466453433037 -0.08933332562446594 1.2104071378707886
0.04665996506810188 0.09370475262403488 0.920059323310852
0.0654832273721695 -0.16995887458324432 1.6898173093795776
0.04297299310564995 -0.21684104204177856 0.03884062170982361
0.04941371828317642 -0.2520855665206909 0.008125709369778633
0.03996950015425682 -0.12566563487052917 0.02402126044034958
0.01885456219315529 -0.26542022824287415 1.5618722438812256
0.030318424105644226 -0.06314842402935028 0.681095540523529
0.12405610829591751 -0.04751686006784439 1.450358510017395
0.07173799723386765 -0.17270296812057495 1.451024055480957
0.10019540786743164 -0.17337213456630707 1.3889203071594238
0.06021816283464432 -0.1417025476694107 1.3858011960983276
0.054433513432741165 -0.06365655362606049 0.3429625332355499
0.056750502437353134 -0.1679009199142456 0.19568786025047302
0.07735191285610199 -0.07387959212064743 0.14228016138076782
0.1357254534959793 0.11670995503664017 1.1384251117706299
0.12954705953598022 0.14445742964744568 1.11860191822052
0.06723153591156006 -0.1483759880065918 0.7050413489341736
0.06788184493780136 -0.05375785380601883 0.6195186376571655
0.0620083287358284 -0.213675856590271 1.6678564548492432
0.09735807776451111 -0.21516579389572144 1.6247562170028687
0.0710650309920311 -0.13789165019989014 0.5140547752380371
0.08623887598514557 -0.16444899141788483 1.7016977071762085
0.10634471476078033 -0.17084889113903046 1.65301513671875
0.06259177625179291 -0.1337071657180786 1.1290148496627808
0.07119724154472351 -0.11566725373268127 1.1086502075195312
0.0607168972492218 -0.18325775861740112 1.0776927471160889
0.07621206343173981 -0.2439192831516266 1.5592337846755981
0.08890514075756073 -0.169602170586586 1.4786392450332642
0.07767938822507858 -0.2093372642993927 1.4699621200561523
0.16871178150177002 0.11038035154342651 1.0999362468719482
0.06282106786966324 -0.22603142261505127 1.26407790184021
0.05559921637177467 -0.2787936329841614 1.214162826538086
0.07366309314966202 -0.18522289395332336 1.210143804550171
0.12125061452388763 -0.08990035206079483 0.08001455664634705
0.10040531307458878 -0.18810302019119263 0.11966689676046371
0.11827188730239868 -0.18718746304512024 0.09967323392629623
0.123508982360363 -0.15364226698875427 1.677532434463501
0.06673876196146011 -0.24919110536575317 1.2646868228912354
0.13128021359443665 -0.06724491715431213 0.37940850853919983
0.10969893634319305 -0.11188116669654846 0.4412682056427002
0.13456204533576965 -0.09045883268117905 0.3230750560760498
0.10903821885585785 -0.1921926885843277 1.3752808570861816
0.09577544033527374 -0.1880064457654953 1.3766666650772095
0.11018230020999908 -0.1663406491279602 1.3399611711502075
0.12514930963516235 0.062340009957551956 0.8988643288612366
0.10672661662101746 -0.11761197447776794 0.8196401000022888
0.1462959349155426 -0.09143446385860443 0.1888067126274109
0.1526440680027008 -0.12307606637477875 0.20133492350578308
0.11934736371040344 -0.16969384253025055 1.3366665840148926
0.18049205839633942 0.013974050059914589 1.3168504238128662
0.18729275465011597 0.043527595698833466 1.302964448928833
0.03872381150722504 -0.3244202733039856 1.1012510061264038
0.1662253737449646 -0.07201507687568665 0.9652879238128662
0.16859665513038635 -0.12853913009166718 0.9485803842544556
0.09658115357160568 -0.20619279146194458 1.156111717224121
0.09355214238166809 -0.30777135491371155 1.0430554151535034
0.09741508960723877 -0.27051129937171936 1.0198378562927246
0.12357776612043381 -0.33617544174194336 1.1037131547927856
-0.24421821534633636 -0.0220994483679533 1.0217663049697876
-0.27610132098197937 -0.07413774728775024 0.9817618727684021
-0.21235772967338562 -0.1215670108795166 1.0896735191345215
-0.23376145958900452 -0.14195533096790314 1.1278252601623535
-0.17120935022830963 -0.09417971968650818 1.1190862655639648
-0.15161830186843872 -0.05649225413799286 1.1545268297195435
-0.18811818957328796 -0.15647664666175842 0.848331093788147
-0.07634767144918442 0.11890187859535217 1.141251802444458
-0.07920264452695847 0.08890089392662048 1.2241700887680054
-0.14783822000026703 -0.25691261887550354 1.0622459650039673
-0.1467621624469757 -0.16100239753723145 0.9402198791503906
-0.15575411915779114 -0.08211787045001984 0.2234339863061905
-0.13374795019626617 -0.13127833604812622 0.23863589763641357
-0.1066487580537796 -0.028858607634902 0.4515276253223419
-0.1452873945236206 -0.19577819108963013 0.8434965014457703
-0.10616298019886017 -0.08592070639133453 0.5925948619842529
-0.10757992416620255 -0.1235785037279129 0.6530693769454956
-0.09780073910951614 -0.06232272833585739 0.6600818037986755
-0.100909024477005 -0.04609636589884758 1.108564019203186
