-0.033242639154195786 0.17038142681121826 1.2320966720581055
-0.15689826011657715 -0.09523183852434158 1.5764942169189453
-0.12340700626373291 0.012374978512525558 1.5042307376861572
-0.08616645634174347 0.09219549596309662 1.4817771911621094
-0.08876901119947433 0.05809127539396286 1.5341567993164062
-0.10946179926395416 0.058821938931941986 1.5088591575622559
-0.09384387731552124 0.07647818326950073 1.429726481437683
-0.04236100986599922 0.1105775460600853 1.5262467861175537
-0.11708299070596695 -0.020917318761348724 1.4562112092971802
-0.08426472544670105 0.0437176413834095 0.9686388969421387
-0.13341833651065826 0.01764683425426483 1.7669636011123657
-0.14130368828773499 0.012514553964138031 1.7604162693023682
-0.14857077598571777 0.0024630948901176453 1.7472834587097168
-0.013543060049414635 0.05628817901015282 1.4259681701660156
-0.06268283724784851 0.10749497264623642 1.4026620388031006
-0.19904552400112152 -0.08404335379600525 0.038918860256671906
-0.01146327517926693 0.14290505647659302 1.3536500930786133
-0.12453765422105789 -0.09623818099498749 1.4918278455734253
-0.17156347632408142 -0.05996616184711456 0.3915573060512543
-0.05530310794711113 0.05565745756030083 1.4803577661514282
-0.08043789118528366 0.017576485872268677 1.459832787513733
-0.020355138927698135 0.11681350320577621 1.4509525299072266
-0.03242560848593712 0.05018575116991997 0.8526257276535034
-0.1803121119737625 0.0020421461667865515 0.3428715467453003
0.04624784737825394 0.16195078194141388 1.0073217153549194
-0.030326751992106438 0.033549319952726364 1.0284242630004883
-0.11070892959833145 -0.15336644649505615 1.2363090515136719
-0.1050279438495636 -0.15380099415779114 1.1405121088027954
-0.16875669360160828 -0.026187798008322716 0.3200783431529999
-0.1539829969406128 -0.040568046271800995 0.2578905522823334
-0.18445207178592682 0.008374221622943878 0.25337255001068115
-0.06123325228691101 0.038463424891233444 1.4952342510223389
-0.08725015819072723 -0.10340197384357452 0.6836517453193665
-0.1130606159567833 -0.02959541603922844 0.6559053659439087
0.049885883927345276 0.1997441053390503 1.1326627731323242
0.056223899126052856 0.19372010231018066 1.0535718202590942
-0.06070215627551079 -0.18781346082687378 1.164518117904663
-0.18179839849472046 -0.06771031022071838 0.12213071435689926
0.043926965445280075 0.14667347073554993 1.0416817665100098
0.03295707330107689 0.1248650997877121 1.0758756399154663
0.003756590187549591 0.03362102806568146 1.489698886871338
-0.09216717630624771 -0.09180378913879395 1.3694441318511963
0.03988716006278992 0.14485256373882294 1.3381123542785645
0.030741095542907715 0.04665224999189377 1.416656255722046
-0.006485439836978912 0.026876632124185562 1.4885292053222656
0.0895872563123703 0.13514555990695953 1.0526443719863892
0.10712507367134094 0.12403459846973419 1.0086586475372314
-0.03178801387548447 -0.10882410407066345 1.365096092224121
0.013874035328626633 0.031060246750712395 1.0266828536987305
-0.03416135534644127 -0.20260244607925415 1.0953953266143799
0.09689827263355255 0.11485577374696732 1.3620606660842896
0.009690430015325546 -0.0258218701928854 1.2820802927017212
0.06480300426483154 0.08901543915271759 1.4575085639953613
0.03033525124192238 0.046848930418491364 1.4565575122833252
0.0224471278488636 -0.042718395590782166 1.1967134475708008
0.04588465392589569 0.09198334068059921 0.9168747663497925
-0.011993061751127243 -0.03407540172338486 1.70320463180542
0.12345943599939346 -0.12113039940595627 0.0768960490822792
0.11623037606477737 -0.13382284343242645 0.050288327038288116
0.11787141859531403 -0.06058614328503609 0.086917445063591
-0.049438249319791794 -0.1416376531124115 1.579410433769226
0.06639505922794342 -0.06236661225557327 0.7107380032539368
0.08436796814203262 0.030635222792625427 1.4269336462020874
0.019238794222474098 -0.0604311004281044 1.4538495540618896
0.056601230055093765 -0.047877900302410126 1.4044638872146606
0.01856590248644352 -0.019570041447877884 1.3840973377227783
0.11232182383537292 -0.03966650739312172 0.3892783522605896
0.1330426186323166 -0.12864050269126892 0.2342894971370697
0.13076485693454742 -0.0421472042798996 0.1933702975511551
0.14936372637748718 0.12101646512746811 1.0596892833709717
0.14586594700813293 0.14596815407276154 1.031001329421997
0.10310916602611542 -0.1458006203174591 0.7378846406936646
0.10924515128135681 -0.05209089070558548 0.6549559831619263
-0.015610557049512863 -0.07989160716533661 1.686860203742981
0.024862049147486687 -0.09209573268890381 1.645473837852478
0.12523619830608368 -0.1303938329219818 0.5477300882339478
0.010183099657297134 -0.027916915714740753 1.7170727252960205
0.03366151824593544 -0.04421679675579071 1.6674621105194092
0.05643889307975769 -0.10444308817386627 1.1310211420059204
0.06231166422367096 -0.09324169158935547 1.1057746410369873
0.051916852593421936 -0.16339829564094543 1.0871504545211792
0.006751611828804016 -0.1269758939743042 1.5783854722976685
0.032768573611974716 -0.061567001044750214 1.4842172861099243
0.021749339997768402 -0.10104501992464066 1.4796390533447266
0.18676908314228058 0.09994449466466904 1.0239938497543335
0.04693271219730377 -0.10670063644647598 1.279564619064331
0.054135676473379135 -0.16727682948112488 1.2427560091018677
0.05887003242969513 -0.11385005712509155 1.2252466678619385
0.17036543786525726 -0.028638720512390137 0.1458616852760315
0.18409593403339386 -0.11283800005912781 0.17045752704143524
0.19841746985912323 -0.10040847957134247 0.1557908058166504
0.04787319526076317 -0.02569844201207161 1.692500114440918
0.05432476848363876 -0.11634211242198944 1.2824194431304932
0.18597154319286346 -0.04195331037044525 0.43044137954711914
0.1657906025648117 -0.09600797295570374 0.48430219292640686
0.1936701536178589 -0.057629913091659546 0.3729958236217499
0.06790201365947723 -0.06470561772584915 1.3971006870269775
0.05486774444580078 -0.06238202378153801 1.3940366506576538
0.07428234070539474 -0.053710829466581345 1.3546217679977417
0.11804632097482681 0.0617249459028244 0.9226482510566711
0.12705391645431519 -0.117316335439682 0.862551748752594
0.19831858575344086 -0.0460028201341629 0.24690701067447662
0.21468313038349152 -0.07637665420770645 0.2549998164176941
0.07717559486627579 -0.03736550360918045 1.3467525243759155
0.15944457054138184 0.051101937890052795 1.2811527252197266
0.17170248925685883 0.07587457448244095 1.2609226703643799
0.05823951214551926 -0.23632842302322388 1.141980767250061
0.14739012718200684 -0.06815110146999359 0.9934585094451904
0.1490335613489151 -0.1250411570072174 0.9862570762634277
0.09555661678314209 -0.047918450087308884 1.176743745803833
0.09777399897575378 -0.16214534640312195 1.0786850452423096
0.11797705292701721 -0.12735745310783386 1.0573617219924927
0.10225950181484222 -0.1889350712299347 1.1459230184555054
-0.28719621896743774 -0.05364026874303818 1.0529043674468994
-0.29913246631622314 -0.10819017142057419 1.0368404388427734
-0.23532867431640625 -0.09531915187835693 1.1284332275390625
-0.24741286039352417 -0.09597703069448471 1.173980712890625
-0.2126048356294632 -0.06586048007011414 1.1393444538116455
-0.20845022797584534 -0.027766959741711617 1.1580801010131836
-0.18863457441329956 -0.15077979862689972 0.8725170493125916
-0.0585627555847168 0.16060487926006317 1.0403307676315308
-0.07175666838884354 0.14930790662765503 1.1352065801620483
-0.17150335013866425 -0.22093769907951355 1.10725998878479
-0.13933125138282776 -0.15818876028060913 0.9493356943130493
-0.2669684588909149 -0.04344729334115982 0.27784037590026855
-0.24545902013778687 -0.09231870621442795 0.2924298048019409
-0.19430933892726898 0.011056648567318916 0.49622395634651184
-0.14814522862434387 -0.1907086968421936 0.8519529700279236
-0.1740819215774536 -0.048354048281908035 0.637980580329895
-0.16441407799720764 -0.09207114577293396 0.6904534101486206
-0.14616607129573822 -0.0360640212893486 0.6979243755340576
-0.10222221910953522 -0.022771241143345833 1.0883675813674927
-0.11599789559841156 -0.07896353304386139 1.1091772317886353
0.008083969354629517 0.18735793232917786 1.2050824165344238
-0.11157064139842987 -0.01997925341129303 0.8551920652389526
-0.20150214433670044 -0.10381439328193665 0.3047194480895996
-0.11625087261199951 -0.02926158346235752 1.189583659172058
-0.09446242451667786 -0.04327036812901497 1.1202837228775024
-0.18555937707424164 -0.08157286792993546 0.44460439682006836
-0.13722215592861176 -0.001737784594297409 1.6872791051864624
-0.1450137346982956 -0.035086411982774734 1.672174334526062
-0.11078083515167236 -0.0716829001903534 1.6801137924194336
-0.13048513233661652 -0.10422755777835846 1.638803243637085
-0.14406593143939972 -0.09722722321748734 1.5422520637512207
-0.17944428324699402 -0.06200909987092018 0.3368554711341858
-0.08016256988048553 -0.11662782728672028 0.7332334518432617
-0.15746824443340302 -0.07073409855365753 0.26542654633522034
-0.17584000527858734 -0.09972696751356125 0.27182042598724365
-0.19274014234542847 -0.01862703263759613 0.20117373764514923
-0.045263875275850296 0.06373356282711029 0.958724319934845
-0.09363487362861633 0.0057291388511657715 1.7304493188858032
-0.11132720857858658 -0.003328230232000351 1.7174737453460693
0.0702352300286293 0.11011210829019547 1.1912574768066406
-0.006588894408196211 0.1293560415506363 1.1849071979522705
0.04509887099266052 0.10213495045900345 1.2409095764160156
-0.008590314537286758 -0.04255281016230583 1.2322818040847778
0.0693240836262703 0.1712677925825119 1.2382344007492065
0.07504857331514359 0.12330526113510132 1.0812711715698242
0.12942075729370117 0.17561547458171844 1.1674385070800781
0.01653200387954712 0.08800893276929855 1.6315627098083496
0.10382457822561264 0.10655408352613449 1.0915958881378174
0.03823559731245041 -0.2176361382007599 0.9017465710639954
0.09915824979543686 -0.09017130732536316 0.25237584114074707
0.1291409134864807 -0.10335152596235275 0.19218066334724426
0.06437434256076813 -0.1296100914478302 0.693537712097168
0.032333336770534515 0.001211447292007506 1.063544511795044
0.0905468687415123 -0.04807841405272484 0.5637531876564026
0.09981659054756165 0.06895903497934341 1.3036694526672363
0.03698422759771347 -0.07426931709051132 1.3890578746795654
0.046165116131305695 0.07129435241222382 1.5962116718292236
0.03279261291027069 0.008198156952857971 1.5594184398651123
0.03811027482151985 0.024256549775600433 1.5393767356872559
0.003895275294780731 -0.02303650975227356 1.7625762224197388
0.03473927453160286 -0.0968904122710228 1.3278924226760864
0.155278742313385 -0.019187666475772858 0.49535608291625977
0.12327519059181213 -0.006492245942354202 0.49079859256744385
0.15084704756736755 -0.0162198543548584 0.34027451276779175
0.1733773648738861 -0.021119415760040283 0.31139570474624634
0.05635623633861542 -0.05996385216712952 1.4752087593078613
0.04414663836359978 -0.06843244284391403 1.4840573072433472
0.05654728785157204 -0.06260938197374344 1.4687687158584595
0.12812650203704834 -0.05232454836368561 0.7626517415046692
0.14776235818862915 -0.09530583769083023 0.6328834295272827
0.11792121082544327 0.021609265357255936 0.9633666276931763
0.09362688660621643 -0.08352985978126526 1.0865211486816406
0.08543485403060913 -0.1366579830646515 1.0738208293914795
0.09663403034210205 -0.15971344709396362 1.0234382152557373
0.05936485901474953 -0.02719993144273758 1.5942192077636719
0.07099863886833191 -0.030858807265758514 1.5152326822280884
0.048991166055202484 -0.16003510355949402 1.224050521850586
0.09585265815258026 0.03647511452436447 1.506892442703247
0.08102997392416 0.008402284234762192 1.5447285175323486
0.20085856318473816 -0.03113509714603424 0.08039774000644684
0.21403442323207855 -0.07759121060371399 0.06831486523151398
0.10387567430734634 0.015703372657299042 1.4732552766799927
0.11226031184196472 0.027933381497859955 1.4448033571243286
0.12259341776371002 0.017747387290000916 1.4135818481445312
0.12569443881511688 0.029193252325057983 1.4001710414886475
0.056306373327970505 -0.2380337119102478 1.1603983640670776
0.17343074083328247 -0.15884193778038025 0.8758144974708557
0.06856471300125122 -0.21548378467559814 1.1721148490905762
0.064904123544693 -0.24074842035770416 1.161381721496582
0.20064106583595276 -0.11444798111915588 0.8951418995857239
0.20270156860351562 -0.09149423986673355 0.8758510947227478
0.21203097701072693 -0.05663790553808212 0.8860419392585754
-0.21938762068748474 -0.08972743898630142 1.1811726093292236
-0.17964637279510498 -0.09176212549209595 1.2449495792388916
-0.18770599365234375 -0.09179450571537018 1.229548692703247
-0.17945697903633118 -0.08382454514503479 1.2350685596466064
-0.17363160848617554 -0.08432666957378387 1.252280354499817
-0.19435086846351624 0.001843385398387909 0.8793464303016663
-0.14802663028240204 -0.05305509641766548 1.2707463502883911
-0.14605064690113068 -0.06518508493900299 1.0601987838745117
-0.12626563012599945 0.087050661444664 1.5141897201538086
-0.147821307182312 -0.08559365570545197 1.1799217462539673
-0.14792759716510773 -0.07916350662708282 1.1265192031860352
-0.09447432309389114 0.08934009075164795 1.4137073755264282
-0.07793290913105011 0.08269410580396652 1.3784096240997314
-0.13570579886436462 -0.1400611400604248 1.0219547748565674
-0.1016245037317276 -0.16488589346408844 0.984075665473938
-0.13536812365055084 -0.028678786009550095 0.7832992672920227
-0.0020871274173259735 0.16535302996635437 1.2690693140029907
-0.06937238574028015 0.10724528133869171 1.6071357727050781
-0.1873134970664978 -0.03453308716416359 0.06551448255777359
-0.20130109786987305 -0.018702663481235504 0.0563061386346817
-0.08057209849357605 0.02435167506337166 0.8614813685417175
0.0013832338154315948 0.09359186887741089 0.8497352600097656
-0.06562796235084534 -0.02240661531686783 0.8403732776641846
0.033624060451984406 0.0715932548046112 1.3265516757965088
-0.05044856667518616 -0.08158130943775177 0.759387731552124
-0.0820402279496193 -0.12899434566497803 1.5546317100524902
-0.00702502578496933 0.01412661001086235 0.8682602643966675
-0.005950412712991238 -0.027686165645718575 0.8469691276550293
0.015698201954364777 -0.11934088170528412 0.8517048358917236
-0.07779788970947266 -0.1623516082763672 0.8524327874183655
-0.00869024358689785 -0.22332820296287537 0.8449753522872925
0.034250982105731964 -0.11140941828489304 0.8300726413726807
-0.01010658498853445 -0.15949833393096924 0.8563029766082764
-0.016479242593050003 0.010613448917865753 1.4567968845367432
0.02729642204940319 -0.038186803460121155 0.8436679244041443
0.03192674368619919 -0.050714872777462006 0.8258620500564575
-0.0026958175003528595 0.01608237624168396 1.5342034101486206
0.0020070411264896393 0.023671388626098633 1.510707974433899
0.043162014335393906 -0.12494489550590515 0.8462225198745728
0.12965843081474304 0.05556326359510422 0.8574695587158203
0.10031232237815857 -0.061814241111278534 0.2503374218940735
0.05230763182044029 -0.03585001081228256 0.815265417098999
0.10450170934200287 0.10110732913017273 1.2188777923583984
0.12908236682415009 -0.0890103429555893 0.3760932981967926
0.12639175355434418 -0.07305603474378586 0.3149471879005432
0.14252731204032898 -0.094329833984375 0.33167707920074463
0.139724001288414 -0.13327230513095856 0.27544939517974854
0.08389969170093536 0.052259285002946854 1.4773240089416504
0.08015462756156921 -0.017581798136234283 0.8495455384254456
0.10622043907642365 -0.03642135113477707 0.829364538192749
0.06057686358690262 -0.08663269877433777 1.229569911956787
0.1602802276611328 -0.10314646363258362 0.42528265714645386
0.06686171889305115 0.026818905025720596 1.5798923969268799
0.047715287655591965 -0.045001424849033356 1.2762298583984375
0.1734059900045395 -0.09372739493846893 0.33219632506370544
0.1336817592382431 0.1558341085910797 1.2220056056976318
0.07040657103061676 -0.06963161379098892 1.2035682201385498
0.16032013297080994 -0.032279714941978455 0.20445062220096588
0.17737281322479248 0.14189811050891876 1.145013451576233
0.15762688219547272 -0.021779684349894524 0.2406863421201706
0.18366096913814545 -0.13418325781822205 0.2522192597389221
0.13443031907081604 0.04734595865011215 1.3258787393569946
0.06455583870410919 -0.04708195477724075 1.4309844970703125
0.07150326669216156 -0.04715679585933685 1.4005041122436523
0.06303098052740097 -0.04469270259141922 1.4320118427276611
0.08604149520397186 -0.04441119730472565 1.3804699182510376
0.06463271379470825 -0.1821066439151764 1.2108819484710693
0.05006004124879837 -0.19259950518608093 1.2051631212234497
0.16438277065753937 0.0650695413351059 1.2405972480773926
0.19422659277915955 0.09437210112810135 1.1861101388931274
0.1891816258430481 0.0907151848077774 1.1533886194229126
0.07206162810325623 -0.06422804296016693 1.2325408458709717
0.06172015517950058 -0.09427892416715622 1.2482678890228271
0.15730074048042297 -0.1839284598827362 0.8857762813568115
0.06977782398462296 -0.10380972921848297 1.2600739002227783
0.06214209645986557 -0.13384225964546204 1.160724401473999
0.08505325019359589 -0.08017946779727936 1.1364386081695557
0.07067457586526871 -0.11762033402919769 1.1275558471679688
0.11501216888427734 -0.16465653479099274 1.1767500638961792
0.13984698057174683 -0.16412152349948883 1.0476088523864746
0.10978758335113525 -0.19995909929275513 1.1030858755111694
-0.17396265268325806 -0.20675155520439148 1.14454984664917
-0.16611355543136597 -0.1430998146533966 1.1921544075012207
-0.1735299527645111 -0.12941333651542664 1.2123576402664185
-0.16315248608589172 -0.19489970803260803 1.1474504470825195
-0.11144670844078064 0.09482021629810333 1.4429466724395752
-0.11585765331983566 0.08304232358932495 1.4267699718475342
-0.11127636581659317 0.09899098426103592 1.3853645324707031
-0.15949976444244385 0.0015321671962738037 1.6515816450119019
-0.16410060226917267 -0.030503757297992706 1.5680780410766602
-0.23729389905929565 -0.059070490300655365 0.33479544520378113
-0.13147617876529694 -0.06870846450328827 0.8510646820068359
-0.13399957120418549 -0.093250572681427 0.8326573371887207
-0.044161684811115265 0.17167003452777863 1.0201773643493652
-0.11692146956920624 -0.12025334686040878 1.2311928272247314
-0.11777953803539276 -0.030833765864372253 0.8286678791046143
-0.11522690206766129 -0.018885917961597443 1.6959645748138428
-0.11032869666814804 -0.12238189578056335 1.114692211151123
-0.07931817322969437 -0.18294619023799896 1.1095761060714722
-0.001014186069369316 0.1452171504497528 1.119175910949707
0.06662310659885406 0.12526100873947144 1.1193066835403442
-0.07184965908527374 -0.031055325642228127 1.135743260383606
-0.053873393684625626 -0.11521795392036438 0.8455860018730164
-0.06562595069408417 -0.18888184428215027 1.043692708015442
-0.051448382437229156 0.013494361191987991 1.048220157623291
-0.07177639752626419 -0.11798762530088425 1.6510370969772339
0.03358125314116478 -0.10221019387245178 0.7651722431182861
-0.010332288220524788 0.09198123216629028 1.2953267097473145
0.11358881741762161 -0.09250128269195557 0.04466038942337036
0.1680227518081665 0.15779125690460205 1.0882296562194824
0.12614749372005463 0.11523650586605072 1.14003586769104
0.12414737790822983 0.18388643860816956 1.0976135730743408
0.0985773429274559 0.08484761416912079 0.8591337203979492
0.17203813791275024 -0.003534354269504547 0.0678190365433693
0.12154950201511383 -0.038815323263406754 0.8557308316230774
0.16307683289051056 -0.09454230964183807 0.3839911222457886
0.06629585474729538 -0.06970666348934174 1.370140552520752
0.05682571232318878 -0.09479835629463196 1.2974928617477417
0.19722770154476166 -0.0024478938430547714 0.877092182636261
0.19431515038013458 -0.05358228087425232 0.94170081615448
0.12720054388046265 -0.18954232335090637 1.06683349609375
-0.2565297484397888 -0.10892936587333679 1.1438624858856201
-0.19311119616031647 -0.0820930078625679 0.9322961568832397
-0.21023029088974 -0.0727904811501503 0.881200909614563
-0.11406444013118744 0.0853646993637085 1.3800432682037354
-0.08502650260925293 0.11390350759029388 1.2529597282409668
-0.14286616444587708 0.015131313353776932 1.4942643642425537
-0.13970519602298737 -0.05593964830040932 1.0281567573547363
-0.14652960002422333 -0.08628401160240173 1.0653798580169678
-0.1416338086128235 0.017693329602479935 1.4945756196975708
-0.14158034324645996 0.004791274666786194 1.4816844463348389
-0.14377300441265106 0.011856283992528915 1.490429401397705
-0.1443684995174408 0.008133336901664734 1.4918442964553833
-0.15055423974990845 -0.0026137828826904297 1.481613039970398
-0.22973138093948364 -0.1180238127708435 0.18417631089687347
-0.16561676561832428 -0.06543895602226257 1.61551034450531
-0.0451069176197052 -0.023221198469400406 1.1895607709884644
-0.19302576780319214 -0.13400200009346008 0.06152903288602829
-0.06353582441806793 -0.028124945238232613 1.2295154333114624
-0.018858643248677254 -0.03725298121571541 1.1477246284484863
-0.03511615842580795 0.09204798191785812 0.9210913181304932
-0.06072354316711426 -0.03478167951107025 1.7113864421844482
-0.07137170433998108 -0.06718209385871887 0.698397159576416
0.014332096092402935 0.09271280467510223 1.2657861709594727
-0.005468953400850296 -0.1928868591785431 0.9952520132064819
-0.06186336278915405 -0.18338431417942047 1.208617091178894
0.06900044530630112 0.1128353402018547 1.1588687896728516
0.11940836161375046 -0.06616319715976715 0.18057391047477722
0.0506134107708931 -0.18083930015563965 0.9861253499984741
0.10342681407928467 -0.17514383792877197 0.973377525806427
0.05736953765153885 0.026019368320703506 1.5072264671325684
0.03503018245100975 -0.17210154235363007 1.1586413383483887
0.018693672493100166 -0.047092411667108536 1.1480762958526611
0.07836650311946869 -0.038419801741838455 1.0809171199798584
0.07901494950056076 0.055276479572057724 0.9558128714561462
0.1628570556640625 -0.12415533512830734 0.016559386625885963
0.13918530941009521 -0.11775767803192139 0.014129307121038437
0.19107170403003693 -0.09919343143701553 0.024200867861509323
0.2010129690170288 -0.1124081239104271 0.23649589717388153
0.06259650737047195 -0.04582317918539047 1.428375482559204
0.06323568522930145 -0.04664173722267151 1.431033730506897
0.04903314262628555 -0.06450456380844116 1.2985525131225586
0.05558688938617706 -0.08992542326450348 1.2846322059631348
0.20958976447582245 0.10975301265716553 1.0929195880889893
0.20744553208351135 0.09009527415037155 1.0497592687606812
0.21647800505161285 0.09251829981803894 1.0464404821395874
0.15088790655136108 -0.15790614485740662 1.0515189170837402
0.12397947907447815 -0.2120981514453888 1.048893928527832
0.12841300666332245 -0.23755937814712524 1.0432860851287842
-0.25034353137016296 -0.07213211059570312 1.0741803646087646
-0.17914874851703644 -0.16848459839820862 1.182404637336731
-0.20518916845321655 -0.0635814368724823 0.36504507064819336
-0.010540297254920006 0.14899078011512756 0.9975582361221313
-0.11676288396120071 -0.14157547056674957 1.0626816749572754
-0.035588473081588745 -0.04441627860069275 0.8392086625099182
-0.060153450816869736 -0.03173162788152695 0.8044157028198242
-0.055817294865846634 -0.08451154083013535 0.806435227394104
-0.010916133411228657 -0.0006741685792803764 1.0940430164337158
0.022436168044805527 -0.2067035585641861 0.8345155715942383
0.09619855880737305 0.012894636020064354 0.8654587268829346
0.14106613397598267 0.11113527417182922 1.1098814010620117
0.07073693722486496 -0.011813078075647354 1.5192878246307373
0.08368297666311264 0.007852669805288315 1.5009194612503052
0.18166828155517578 -0.12199388444423676 0.9412289261817932
-0.18315909802913666 -0.18156534433364868 1.1527973413467407
-0.13546665012836456 0.058209240436553955 1.52861750125885
0.01479897927492857 0.1559521108865738 1.0423177480697632
-0.11473412066698074 0.07958164811134338 1.5605050325393677
-0.09560521692037582 0.04534420743584633 1.5472183227539062
-0.06741567701101303 0.03323471546173096 1.5272808074951172
0.012771829962730408 -0.19783827662467957 1.0534415245056152
0.021356958895921707 -0.14557810127735138 1.243727684020996
0.15885338187217712 -0.11812007427215576 0.15477436780929565
0.059861280024051666 -0.13907882571220398 1.2035739421844482
0.07525837421417236 -0.1298641562461853 1.152535319328308
0.10957895219326019 0.03639237955212593 1.4116408824920654
0.10004657506942749 0.06614901125431061 1.4261462688446045
0.08235529810190201 -0.09036572277545929 1.1594111919403076
0.12588855624198914 -0.0760202556848526 0.8397989273071289
0.037474438548088074 -0.17507484555244446 1.2314324378967285
0.1376325935125351 0.06090717762708664 1.3447415828704834
-0.08538500964641571 0.10789253562688828 1.3318254947662354
-0.19718635082244873 0.011426659300923347 0.3719354271888733
0.047701045870780945 -0.1028263047337532 0.7240594029426575
-0.023109205067157745 -0.12779349088668823 1.6338610649108887
-0.05861947312951088 0.17237326502799988 1.082054853439331
-0.16745620965957642 -0.08511786162853241 1.2552199363708496
-0.15472368896007538 -0.028426919132471085 0.4037308096885681
0.02587808668613434 0.10895051807165146 1.455761432647705
0.12134861946105957 -0.1250295341014862 0.023950297385454178
0.060055527836084366 -0.06344553828239441 1.4663326740264893
0.057936713099479675 -0.06229155883193016 1.465673804283142
0.05926433950662613 -0.0528688058257103 1.3886871337890625
0.19426770508289337 -0.09816053509712219 0.20587411522865295
0.19220209121704102 -0.06336677074432373 0.19080869853496552
0.07179944962263107 -0.12906616926193237 1.208374261856079
-0.17090147733688354 -0.15491729974746704 0.9284758567810059
-0.09551617503166199 0.09579260647296906 1.3577516078948975
-0.09610804170370102 0.09273746609687805 1.3589812517166138
-0.1008654311299324 0.09253664314746857 1.358972191810608
-0.17400819063186646 -0.059857096523046494 0.2032458633184433
-0.0340869203209877 -0.09804864227771759 0.8413472175598145
0.12913449108600616 -0.09621797502040863 0.1442440003156662
0.076901875436306 -0.15834982693195343 1.1718437671661377
0.040027983486652374 -0.08954276144504547 1.5952467918395996
0.14223206043243408 -0.09726735949516296 0.7912493944168091
0.1267784833908081 0.02786075323820114 1.382811188697815
0.13188117742538452 0.044203247874975204 1.3538029193878174
0.12056630849838257 -0.03901231288909912 0.05211210995912552
-0.08578357100486755 -0.46642231941223145 1.1213818788528442
-0.07591206580400467 -0.443916916847229 1.0909392833709717
-0.08041196316480637 -0.4520874619483948 1.096274971961975
-0.08582836389541626 -0.4421258866786957 1.1027841567993164
-0.09026586264371872 -0.4637957215309143 1.1087183952331543
-0.08129054307937622 -0.45879703760147095 1.1204500198364258
0.0032152561470866203 -0.3549540042877197 1.0759623050689697
-0.008358432911336422 -0.35565873980522156 1.073868989944458
-0.010793374851346016 -0.3753206133842468 1.0833375453948975
-0.01933804154396057 -0.3810136318206787 1.0875869989395142
0.07261494547128677 -0.24896299839019775 0.989611804485321
0.06733942031860352 -0.2539958953857422 1.0089503526687622
0.06994912028312683 -0.2600254714488983 0.9846945405006409
-0.022177679464221 -0.3700350522994995 1.0423407554626465
-0.027414122596383095 -0.3816128969192505 1.0587058067321777
-0.021160343661904335 -0.3981725573539734 1.1109319925308228
-0.019256677478551865 -0.3905186057090759 1.0994532108306885
0.04700625687837601 -0.2838243842124939 0.9735842943191528
0.04056660458445549 -0.28910160064697266 0.9949792623519897
0.044686682522296906 -0.31124550104141235 1.0641862154006958
0.04340861737728119 -0.3049951195716858 1.0568147897720337
-0.060733452439308167 -0.44796839356422424 1.1289846897125244
-0.06507650762796402 -0.4372299313545227 1.0842663049697876
0.07116668671369553 -0.2621363699436188 0.9743511080741882
0.06352990865707397 -0.2658979892730713 0.9700561761856079
0.200190931558609 -0.13564766943454742 1.029526948928833
0.19430743157863617 -0.14279747009277344 1.0292503833770752
0.19799835979938507 -0.13590703904628754 1.008952260017395
-0.042010627686977386 -0.4171690344810486 1.1094721555709839
-0.05314607918262482 -0.4328847825527191 1.1153473854064941
0.06964364647865295 -0.2644044756889343 0.9687411785125732
0.06702783703804016 -0.26661258935928345 0.9593538045883179
-0.10328514873981476 -0.48684483766555786 1.0729074478149414
-0.10518576949834824 -0.49521833658218384 1.085985541343689
0.2138580083847046 -0.12581947445869446 1.0219589471817017
0.20786705613136292 -0.13274641335010529 1.0349321365356445
0.20854304730892181 -0.12619751691818237 1.0149153470993042
0.2015421986579895 -0.13341215252876282 1.0070109367370605
-0.11485569179058075 -0.5155197381973267 1.140960454940796
-0.12151721864938736 -0.5305852293968201 1.155194878578186
-0.12429769337177277 -0.5300629734992981 1.1370577812194824
0.009574293158948421 -0.33539721369743347 1.0116686820983887
0.004963885992765427 -0.34911614656448364 1.0155094861984253
-0.011180822737514973 -0.3629987835884094 1.0085875988006592
-0.0019805850461125374 -0.36069661378860474 1.0096262693405151
0.20696628093719482 -0.14114782214164734 1.038906455039978
0.21208742260932922 -0.1288543939590454 1.0090882778167725
-0.02715090475976467 -0.41446274518966675 1.1245166063308716
-0.020109908655285835 -0.41565850377082825 1.1271915435791016
-0.037658609449863434 -0.4237273037433624 1.1278830766677856
-0.045803241431713104 -0.44015583395957947 1.134962797164917
0.034349940717220306 -0.31094905734062195 0.9937045574188232
0.025404151529073715 -0.3228958249092102 0.9916629195213318
0.021774809807538986 -0.3211517632007599 0.998344898223877
0.21485117077827454 -0.13119444251060486 1.0146015882492065
0.20726177096366882 -0.14062437415122986 1.0372635126113892
0.20413416624069214 -0.14080461859703064 1.0099329948425293
0.07655161619186401 -0.24987934529781342 0.9267434477806091
0.07313595712184906 -0.25348085165023804 0.9207582473754883
0.07366080582141876 -0.2579768896102905 0.9455004930496216
0.07403171062469482 -0.26061609387397766 0.9352044463157654
0.07238975912332535 -0.2548780143260956 0.9302009344100952
-0.0137161985039711 -0.3822953701019287 1.0059159994125366
-0.014461875893175602 -0.3715406656265259 0.9996596574783325
-0.016143623739480972 -0.37595701217651367 0.9891324043273926
-0.021836360916495323 -0.3768412172794342 0.992027997970581
0.20470508933067322 -0.1411181092262268 1.0199309587478638
-0.11748422682285309 -0.5374836325645447 1.161346435546875
-0.1232452541589737 -0.5350284576416016 1.1447863578796387
-0.12206477671861649 -0.5473564863204956 1.160220980644226
-0.13099966943264008 -0.5453850030899048 1.1647624969482422
-0.12618695199489594 -0.5295199155807495 1.1290329694747925
0.09416958689689636 -0.2633979022502899 0.9857167601585388
0.07692275941371918 -0.268804669380188 0.9742365479469299
-0.0874786525964737 -0.47941064834594727 1.0661706924438477
-0.10605254769325256 -0.4971786141395569 1.078186273574829
-0.11036324501037598 -0.5099118947982788 1.0952144861221313
0.060706328600645065 -0.31353747844696045 1.0610308647155762
0.04971468448638916 -0.32463765144348145 1.0655076503753662
0.045743316411972046 -0.3362693786621094 1.062591552734375
-0.018630415201187134 -0.41574686765670776 1.1270266771316528
-0.02271515689790249 -0.42188599705696106 1.1196544170379639
-0.050024013966321945 -0.45554256439208984 1.1352264881134033
-0.010178077965974808 -0.3940523862838745 1.107501745223999
-0.06266674399375916 -0.4604325592517853 1.0782814025878906
-0.08600789308547974 -0.4831271767616272 1.0822124481201172
0.06346234679222107 -0.31286823749542236 1.0570167303085327
-0.011758310720324516 -0.4097099304199219 1.091955304145813
0.0008982326835393906 -0.39548930525779724 1.0837035179138184
-0.01826295629143715 -0.4190450608730316 1.09993314743042
-0.10518508404493332 -0.5180062055587769 1.1298521757125854
-0.09939359128475189 -0.5096527338027954 1.116860270500183
-0.020305298268795013 -0.39697685837745667 1.0416861772537231
-0.016803795471787453 -0.40159517526626587 1.0547668933868408
-0.028274938464164734 -0.4125922620296478 1.0621116161346436
-0.021653030067682266 -0.4170140027999878 1.070920467376709
0.024700351059436798 -0.3602626919746399 1.0680233240127563
-0.002431228756904602 -0.3831717371940613 1.0817147493362427
-0.052085068076848984 -0.45552706718444824 1.1174094676971436
-0.06211637705564499 -0.47425559163093567 1.115462303161621
-0.07253199815750122 -0.472841739654541 1.1218363046646118
-0.051687438040971756 -0.4528396427631378 1.0907773971557617
-0.056633953005075455 -0.4596223831176758 1.087110161781311
0.009513679891824722 -0.3770103454589844 1.0370886325836182
-0.0036359336227178574 -0.3885650336742401 1.0429425239562988
0.004425048362463713 -0.36686068773269653 1.0210143327713013
-0.003167722374200821 -0.38569706678390503 1.0324581861495972
-0.014318082481622696 -0.3914148807525635 1.0437639951705933
0.020061850547790527 -0.3623504638671875 1.0445923805236816
0.030673405155539513 -0.3549262285232544 1.0457013845443726
0.02739652246236801 -0.3423982858657837 1.0170471668243408
0.02807324007153511 -0.35163602232933044 1.0332967042922974
-0.06265196949243546 -0.4667710065841675 1.093440294265747
-0.0694393441081047 -0.4799017310142517 1.1036158800125122
-0.06966296583414078 -0.4721817076206207 1.0956013202667236
-0.05923893302679062 -0.47902101278305054 1.0996423959732056
0.09442739933729172 -0.2756013870239258 1.0009050369262695
-0.06439720839262009 -0.42560040950775146 1.106572151184082
-0.07656131684780121 -0.43500030040740967 1.1006933450698853
-0.030381731688976288 -0.3834826350212097 1.0825824737548828
-0.031168796122074127 -0.3824331760406494 1.0782291889190674
-0.04135808348655701 -0.391764760017395 1.088640570640564
-0.036380887031555176 -0.3871884346008301 1.0780484676361084
-0.03886124864220619 -0.3946142792701721 1.087652564048767
-0.008518187329173088 -0.3632553219795227 1.0560600757598877
-0.019394874572753906 -0.36813443899154663 1.0592576265335083
-0.0006829602643847466 -0.35032153129577637 1.0490241050720215
-0.037260137498378754 -0.3957078754901886 1.0933573246002197
-0.08032220602035522 -0.4563434422016144 1.0751351118087769
-0.08857831358909607 -0.4651287794113159 1.1002726554870605
-0.03438049554824829 -0.3877537250518799 1.0558068752288818
-0.10194786638021469 -0.4772128164768219 1.1180166006088257
-0.1109042540192604 -0.49685201048851013 1.1190595626831055
-0.09869931638240814 -0.48565107583999634 1.1073940992355347
-0.11620236188173294 -0.507877767086029 1.1327385902404785
0.08906934410333633 -0.2471833974123001 1.0058729648590088
0.08231589198112488 -0.2792242467403412 1.0787835121154785
0.07161834836006165 -0.28065919876098633 1.0732561349868774
0.07762832939624786 -0.2835157513618469 1.0806341171264648
0.0359455831348896 -0.3034958243370056 0.9983584880828857
0.18991264700889587 -0.13965074717998505 1.0000126361846924
0.1937762200832367 -0.14828473329544067 1.043431043624878
0.1849449872970581 -0.15750284492969513 1.038443922996521
0.18279486894607544 -0.15369993448257446 1.02971613407135
0.009465709328651428 -0.36437711119651794 1.0861636400222778
-0.06771327555179596 -0.4601275324821472 1.1439396142959595
-0.118746817111969 -0.5110219717025757 1.1118884086608887
0.15014801919460297 -0.1808445155620575 1.0016818046569824
0.13953043520450592 -0.20331016182899475 0.9980560541152954
0.021545372903347015 -0.3489518463611603 1.0872660875320435
0.011745697818696499 -0.35386523604393005 1.0820448398590088
-0.010845979675650597 -0.38059431314468384 1.0922833681106567
-0.12143538147211075 -0.519705593585968 1.113609790802002
-0.12421765178442001 -0.5379681587219238 1.167005181312561
-0.1253354698419571 -0.5435290336608887 1.1708650588989258
-0.13104091584682465 -0.5410921573638916 1.1523983478546143
0.10733987390995026 -0.23385348916053772 1.0026811361312866
0.0990281030535698 -0.24861150979995728 1.0068870782852173
-0.0007150359451770782 -0.38436174392700195 1.0912492275238037
0.08497899025678635 -0.24983316659927368 0.9883247017860413
-0.108626589179039 -0.5019466280937195 1.0879695415496826
0.11536289751529694 -0.2510991096496582 1.0895098447799683
0.11590735614299774 -0.25388824939727783 1.0853554010391235
0.10642903298139572 -0.2604812979698181 1.0772215127944946
0.10547937452793121 -0.2649416923522949 1.0889273881912231
0.0996766909956932 -0.2751445472240448 1.0916386842727661
0.09308691322803497 -0.26089751720428467 1.054002046585083
0.10241439938545227 -0.2621765732765198 1.0588665008544922
-0.12877406179904938 -0.5443956851959229 1.1723793745040894
-0.03559008985757828 -0.4033038914203644 1.0458648204803467
-0.03868219256401062 -0.41360658407211304 1.053521990776062
-0.0427861362695694 -0.4138413667678833 1.056509256362915
-0.02427155151963234 -0.3910072445869446 1.0278563499450684
0.1106032207608223 -0.2662166357040405 1.0862699747085571
0.10043110698461533 -0.2787437438964844 1.0895931720733643
0.07130198925733566 -0.27202215790748596 0.9620068669319153
0.11114447563886642 -0.26204586029052734 1.0853126049041748
0.10608262568712234 -0.2650878131389618 1.0778834819793701
-0.018106162548065186 -0.4054604768753052 1.115018606185913
0.0651911124587059 -0.2771872282028198 0.9354835152626038
0.06371258199214935 -0.2747691869735718 0.9290252327919006
0.051840901374816895 -0.28238996863365173 0.9226584434509277
0.04841490834951401 -0.2895837426185608 0.9287445545196533
0.10579133778810501 -0.2611549198627472 1.006500244140625
0.09154827147722244 -0.28566843271255493 1.0765997171401978
-0.029333187267184258 -0.42415207624435425 1.1067473888397217
-0.04293935000896454 -0.4409198462963104 1.1161181926727295
0.06550435721874237 -0.28479355573654175 0.9626928567886353
0.06498409062623978 -0.29049357771873474 0.9632818698883057
0.058791495859622955 -0.2846691608428955 0.9486097693443298
-0.038004107773303986 -0.44022446870803833 1.1088752746582031
-0.028915761038661003 -0.4275856614112854 1.0971527099609375
-0.03597436100244522 -0.4342346787452698 1.0822982788085938
-0.024350738152861595 -0.42325359582901 1.0767141580581665
-0.0945824533700943 -0.494284987449646 1.0985422134399414
-0.09035444259643555 -0.4979858100414276 1.1027424335479736
0.07710814476013184 -0.2849273085594177 0.979510486125946
0.08572623878717422 -0.29019224643707275 1.0265196561813354
0.07499518990516663 -0.30503594875335693 1.0251100063323975
0.07747714966535568 -0.299344927072525 1.015091061592102
0.06295247375965118 -0.3141113519668579 1.0303936004638672
0.052675895392894745 -0.31844401359558105 1.02391517162323
-0.04058416932821274 -0.44898316264152527 1.0932515859603882
-0.030503148213028908 -0.44043225049972534 1.0899795293807983
-0.0510624423623085 -0.4706651568412781 1.1089541912078857
0.006486881524324417 -0.3992285430431366 1.0734338760375977
-0.012180145829916 -0.418770432472229 1.0856480598449707
-0.0011721644550561905 -0.4012782573699951 1.0741808414459229
-0.013467967510223389 -0.4103025794029236 1.0726540088653564
-0.012958131730556488 -0.4173462390899658 1.079405665397644
-0.012294950895011425 -0.40648335218429565 1.0791347026824951
-0.015724092721939087 -0.4209165573120117 1.0799448490142822
-0.054452650249004364 -0.4815595746040344 1.1087075471878052
-0.05657370388507843 -0.4751463532447815 1.098187804222107
-0.07341106981039047 -0.4385892152786255 1.1122705936431885
-0.0879724994301796 -0.4531547427177429 1.1154412031173706
-0.07876681536436081 -0.4383140504360199 1.095937728881836
-0.08613857626914978 -0.45157527923583984 1.1071250438690186
0.0706871822476387 -0.26970481872558594 1.0606012344360352
0.06154652684926987 -0.2640717327594757 0.996342658996582
0.05304337665438652 -0.2717427611351013 0.9949325919151306
0.08450911194086075 -0.25131887197494507 1.033250093460083
-0.06042305752635002 -0.43481045961380005 1.1140755414962769
-0.056410953402519226 -0.4237365126609802 1.0861387252807617
0.03998028486967087 -0.29735010862350464 1.0233105421066284
0.03436698764562607 -0.30265164375305176 1.0124967098236084
0.05964510515332222 -0.28324633836746216 1.0557435750961304
0.053136974573135376 -0.29584503173828125 1.059617042541504
-0.049670979380607605 -0.41740882396698 1.0839991569519043
-0.06556199491024017 -0.44450637698173523 1.119341254234314
0.024785947054624557 -0.32110142707824707 1.0262001752853394
0.003831019625067711 -0.34129804372787476 1.041256308555603
0.0068419985473155975 -0.3386550545692444 1.0209674835205078
-0.043129660189151764 -0.4005124568939209 1.0706783533096313
-0.10547778010368347 -0.4992407560348511 1.1329349279403687
-0.12059483677148819 -0.5209991335868835 1.142026424407959
-0.11931702494621277 -0.5228735208511353 1.1254909038543701
0.09074071794748306 -0.26952141523361206 1.0882600545883179
0.06874224543571472 -0.2938663363456726 1.0858922004699707
0.03552968427538872 -0.3243125379085541 1.0707224607467651
0.021953005343675613 -0.34115251898765564 1.0794904232025146
0.0026933662593364716 -0.3501244783401489 1.018984079360962
0.06408748775720596 -0.305215984582901 1.0963584184646606
0.061802588403224945 -0.2910449802875519 1.0624231100082397
0.0583670437335968 -0.3054041862487793 1.0625959634780884
-0.07836057990789413 -0.47489261627197266 1.1458553075790405
-0.09173796325922012 -0.4924483299255371 1.1407909393310547
-0.04607313126325607 -0.4126695692539215 1.058455467224121
0.13211701810359955 -0.20996734499931335 1.0252702236175537
0.13858875632286072 -0.19924628734588623 1.023714303970337
-0.018160659819841385 -0.367922306060791 1.0029652118682861
0.03249644488096237 -0.3414732813835144 1.074072003364563
0.02827305532991886 -0.35160207748413086 1.0896514654159546
-0.07140958309173584 -0.4701637625694275 1.1452081203460693
-0.07074008136987686 -0.47755494713783264 1.142065405845642
-0.08417490869760513 -0.4850335121154785 1.1438062191009521
0.05214601382613182 -0.29204368591308594 0.9608193635940552
0.04497354105114937 -0.30168893933296204 0.9601244926452637
0.04030535742640495 -0.3007287085056305 0.960462212562561
0.04801948368549347 -0.28433191776275635 0.953591525554657
0.0525410920381546 -0.2867296040058136 0.9482049942016602
0.04803743585944176 -0.2879045009613037 0.9350956678390503
0.03397437557578087 -0.3042188882827759 0.9828602075576782
0.04598403722047806 -0.28430598974227905 0.9286868572235107
0.03766443580389023 -0.2912435531616211 0.9224933385848999
0.10477693378925323 -0.2547903060913086 1.0322022438049316
0.10140401124954224 -0.25873616337776184 1.033731460571289
0.09261131286621094 -0.2524985373020172 1.0023417472839355
0.08871954679489136 -0.27870407700538635 1.0833251476287842
0.08495047688484192 -0.286273717880249 1.0791937112808228
-0.018899044021964073 -0.4149366617202759 1.1384481191635132
-0.018600672483444214 -0.41011613607406616 1.138519287109375
-0.017372949048876762 -0.40426933765411377 1.1236968040466309
0.048206839710474014 -0.2941233515739441 0.9205882549285889
0.0470423623919487 -0.2803831994533539 0.9199436902999878
0.03899580240249634 -0.3056093156337738 0.9803637266159058
-0.064199298620224 -0.44907599687576294 1.0688711404800415
-0.0783069059252739 -0.4611661434173584 1.069514274597168
0.10619246959686279 -0.2686614990234375 1.061434030532837
0.11410103738307953 -0.24464678764343262 1.0295069217681885
-0.062323540449142456 -0.4707551896572113 1.1262664794921875
-0.009318187832832336 -0.369926393032074 1.0054036378860474
0.18256999552249908 -0.16669103503227234 1.003098487854004
0.1756288856267929 -0.17731337249279022 1.0035916566848755
-0.003925419878214598 -0.3759132921695709 1.0141979455947876
0.11940164119005203 -0.24286285042762756 1.0166680812835693
0.10995416343212128 -0.2554120719432831 1.0210552215576172
0.10612949728965759 -0.25326114892959595 1.0097626447677612
-0.04257059842348099 -0.4435301423072815 1.0895068645477295
0.08821750432252884 -0.269916832447052 0.9824284315109253
0.01261240802705288 -0.3632403016090393 1.0254594087600708
0.10403665900230408 -0.26904675364494324 1.0237491130828857
0.09530476480722427 -0.2800773084163666 1.027840495109558
0.09779107570648193 -0.2777705490589142 1.051917552947998
0.08518797159194946 -0.28863731026649475 1.0392982959747314
0.10699355602264404 -0.2632642686367035 1.0113095045089722
0.09787477552890778 -0.26409485936164856 0.9992205500602722
-0.03726305812597275 -0.44678860902786255 1.097982406616211
-0.015355388633906841 -0.36635684967041016 1.0758813619613647
-0.0231535192579031 -0.36336734890937805 1.0716551542282104
-0.024191787466406822 -0.3742098808288574 1.0838286876678467
-0.020035728812217712 -0.36161497235298157 1.0648753643035889
-0.03302473947405815 -0.3737333416938782 1.0763949155807495
-0.053913455456495285 -0.41409921646118164 1.1028540134429932
-0.059147559106349945 -0.4225141406059265 1.1103392839431763
-0.02884720452129841 -0.3833439350128174 1.0741900205612183
-0.03773137181997299 -0.39097219705581665 1.0665117502212524
-0.046821702271699905 -0.40726274251937866 1.0869855880737305
-0.04563295096158981 -0.4068201184272766 1.0977672338485718
0.047252871096134186 -0.28469085693359375 1.0194358825683594
0.07818213850259781 -0.26994335651397705 1.0738604068756104
0.09127980470657349 -0.2581392526626587 1.06005859375
0.10388599336147308 -0.22878605127334595 1.0234063863754272
0.10575233399868011 -0.22782893478870392 1.0134799480438232
-0.025836672633886337 -0.3882608115673065 1.0368094444274902
-0.00806468352675438 -0.3574569523334503 1.0254278182983398
-0.025193918496370316 -0.37693437933921814 1.0027326345443726
-0.01710277795791626 -0.3659195303916931 1.0283434391021729
0.18167749047279358 -0.16333898901939392 1.0377782583236694
0.19456590712070465 -0.14401698112487793 1.0162827968597412
0.1844290792942047 -0.15301448106765747 1.0226669311523438
0.18136724829673767 -0.15443238615989685 1.0125240087509155
0.1698717176914215 -0.15797209739685059 1.00771164894104
0.13234148919582367 -0.204483762383461 0.9998950958251953
0.12046252936124802 -0.21573728322982788 1.0017167329788208
0.10796506702899933 -0.25255221128463745 1.0878186225891113
-0.021827666088938713 -0.41191697120666504 1.1369394063949585
-0.049947746098041534 -0.44242140650749207 1.1330301761627197
-0.09125209599733353 -0.4732903838157654 1.0647549629211426
-0.08875977247953415 -0.47030365467071533 1.0683706998825073
0.057627975940704346 -0.2713954746723175 0.930199146270752
0.04651385545730591 -0.27908915281295776 0.9239034652709961
0.14469031989574432 -0.20876622200012207 1.0240082740783691
0.13439726829528809 -0.21763384342193604 1.0242469310760498
-0.022514905780553818 -0.4081462025642395 1.1407662630081177
0.019384577870368958 -0.3411986827850342 1.0089433193206787
0.011774626560509205 -0.35206329822540283 1.015764594078064
0.029531219974160194 -0.34854793548583984 1.0791244506835938
0.018093476071953773 -0.3567587733268738 1.0800062417984009
0.006542073097079992 -0.37080490589141846 1.0827510356903076
0.05937030166387558 -0.30657994747161865 0.9909391403198242
0.17242825031280518 -0.18590977787971497 1.015336275100708
0.1635269820690155 -0.19456562399864197 1.0043878555297852
-0.0928676575422287 -0.5017430782318115 1.1123636960983276
0.06283869594335556 -0.3171331286430359 1.0480668544769287
0.054647281765937805 -0.33098268508911133 1.0394582748413086
0.06263041496276855 -0.3057297468185425 1.004927635192871
0.06108934432268143 -0.30081382393836975 0.9792413115501404
0.04285843297839165 -0.3131900429725647 0.9981875419616699
0.07695545256137848 -0.29503893852233887 1.03410804271698
0.08618052303791046 -0.29446500539779663 1.0505881309509277
0.0771501287817955 -0.30148351192474365 1.0498976707458496
0.07256457209587097 -0.30696067214012146 1.0361487865447998
0.06429473310709 -0.2682214081287384 1.0367684364318848
0.07632073014974594 -0.24956807494163513 1.0161174535751343
0.0697520524263382 -0.2574484944343567 1.0266022682189941
0.06103518605232239 -0.2649103105068207 1.0155723094940186
-0.06975723057985306 -0.43446922302246094 1.0927554368972778
0.0562145859003067 -0.268091082572937 0.9837751388549805
-0.08160270005464554 -0.46719714999198914 1.125740647315979
0.025589294731616974 -0.31394463777542114 1.0107018947601318
0.1606370359659195 -0.1705993115901947 1.020456075668335
0.15134143829345703 -0.177814319729805 1.0143625736236572
0.15418438613414764 -0.1771973818540573 1.0064146518707275
0.06798090040683746 -0.29051584005355835 1.0633738040924072
