-0.8665066957473755 0.18976524472236633 1.1030386686325073
-0.8637489080429077 0.2509746551513672 1.0728403329849243
-0.8109036087989807 0.23284873366355896 1.0910872220993042
-0.8095513582229614 0.25410667061805725 1.100751280784607
-0.772310733795166 0.18216854333877563 1.1499664783477783
-0.5940554141998291 0.010968782007694244 1.5272221565246582
-0.6172109246253967 0.044998038560152054 1.577319860458374
-0.7075281143188477 0.20755714178085327 1.1521717309951782
-0.6460428237915039 0.1296953707933426 1.3094911575317383
-0.6854672431945801 0.1090577021241188 1.2914462089538574
-0.5024281144142151 -0.03161017596721649 1.6075265407562256
-0.5588445067405701 0.0220431350171566 1.4985837936401367
-0.5453940033912659 0.01282304897904396 1.6125726699829102
-0.6339375376701355 0.142862468957901 1.2067441940307617
-0.6170631647109985 0.16502101719379425 1.2341578006744385
-0.65141761302948 0.1671115756034851 1.1807544231414795
-0.6405313014984131 0.17789392173290253 1.1706907749176025
-0.5213979482650757 0.07655682414770126 1.4239393472671509
-0.5135217905044556 0.10491824150085449 1.3460620641708374
-0.37166887521743774 -0.01004062220454216 1.5135332345962524
-0.5188993215560913 0.18544426560401917 1.132430076599121
-0.4233914613723755 -0.008704204112291336 1.6104917526245117
-0.2721697688102722 -0.017466098070144653 1.4874427318572998
-0.3371497094631195 0.029907267540693283 1.4870632886886597
-0.2837928831577301 0.016259096562862396 1.4030349254608154
-0.2747204303741455 0.054311174899339676 1.4064364433288574
-0.2968274652957916 0.09513279050588608 1.2965736389160156
-0.28024208545684814 0.10357429087162018 1.2490544319152832
0.29323017597198486 0.07615245878696442 1.247759222984314
0.27229490876197815 0.043981634080410004 1.2492719888687134
0.3293594717979431 0.07367456704378128 1.2095839977264404
0.31298041343688965 0.029547225683927536 1.3957136869430542
0.28987884521484375 0.015687093138694763 1.303466558456421
0.2898319959640503 0.04720374941825867 1.3236944675445557
0.3779004216194153 0.06693276762962341 1.281590223312378
0.41423845291137695 0.03771448880434036 1.2690808773040771
0.41787096858024597 0.1050632894039154 1.1931270360946655
0.4459180533885956 0.11286618560552597 1.171042561531067
0.42203789949417114 0.08841679245233536 1.190803050994873
0.45312750339508057 0.09508640319108963 1.1748682260513306
0.484926700592041 0.11273255199193954 1.194637417793274
0.36953020095825195 -0.02586311288177967 1.5724425315856934
0.3883293569087982 -0.04737686365842819 1.5200170278549194
0.5483566522598267 0.12189491838216782 1.1888821125030518
0.5401365756988525 0.08832092583179474 1.1858566999435425
0.485970139503479 0.09733393043279648 1.194061279296875
0.5437834858894348 0.11335994303226471 1.18027663230896
0.5953928828239441 0.12901514768600464 1.1604909896850586
0.44252723455429077 -0.010213661938905716 1.4302566051483154
0.6128557920455933 0.08642058074474335 1.299338459968567
0.5702544450759888 0.06682049483060837 1.21109938621521
0.5536149740219116 0.08835472166538239 1.2310861349105835
0.5486475229263306 0.045570097863674164 1.4262892007827759
0.6143149137496948 0.05879741162061691 1.2787036895751953
0.6838763952255249 0.11852961033582687 1.2385163307189941
0.6370826959609985 0.10704649239778519 1.2716443538665771
0.6661953330039978 0.09665660560131073 1.2468441724777222
0.6835625171661377 0.057552702724933624 1.2669795751571655
0.5662585496902466 0.020794859156012535 1.4834716320037842
0.6227859258651733 0.05956423655152321 1.3714467287063599
0.6170596480369568 0.018792755901813507 1.3807647228240967
0.5563480854034424 -0.06208665296435356 1.6174030303955078
0.7044005393981934 0.0918341800570488 1.283825397491455
0.5730175971984863 -0.014180898666381836 1.6100527048110962
0.6052472591400146 0.006148434244096279 1.5535832643508911
0.6170875430107117 -0.042060814797878265 1.599498987197876
0.8876621723175049 0.14958539605140686 1.1571948528289795
0.6698319911956787 -0.02254326269030571 1.5366168022155762
0.7162810564041138 -0.0007179286330938339 1.510678768157959
0.6993778944015503 0.046811383217573166 1.4603304862976074
0.768308162689209 0.038840290158987045 1.3786801099777222
0.7509767413139343 0.08215172588825226 1.3824005126953125
0.7159188985824585 0.04971599578857422 1.4856234788894653
0.7572930455207825 0.06779921054840088 1.4374830722808838
0.8128315210342407 0.0819229781627655 1.3927181959152222
0.7402442097663879 0.04949314892292023 1.5270107984542847
0.7721913456916809 0.03763223811984062 1.5035488605499268
1.0624983310699463 0.10487550497055054 1.0426236391067505
1.1409156322479248 0.15858902037143707 0.9345571994781494
1.1429044008255005 0.23567989468574524 0.949786901473999
1.106253743171692 0.19620202481746674 0.9622544646263123
0.9573785066604614 0.11298482865095139 1.2425413131713867
0.9738568067550659 0.12902197241783142 1.206528663635254
0.8518751859664917 0.10560837388038635 1.4133903980255127
1.1167563199996948 0.2820720374584198 1.0065927505493164
1.075539231300354 0.2456519901752472 1.060502290725708
1.0474178791046143 0.16111713647842407 1.2445201873779297
1.1110502481460571 0.19500771164894104 1.1716281175613403
1.067264437675476 0.17157824337482452 1.150582194328308
1.1136257648468018 0.14881427586078644 1.1739848852157593
-1.1070293188095093 0.29379355907440186 1.0614476203918457
-1.0964471101760864 0.27213186025619507 1.0551685094833374
-0.8975554704666138 0.19041244685649872 1.3690721988677979
-0.8880789279937744 0.20790424942970276 1.378408670425415
-0.9084715843200684 0.21281737089157104 1.3261722326278687
-0.9397611618041992 0.2367769330739975 1.2170352935791016
-0.8881034851074219 0.21147045493125916 1.233630895614624
-0.9710598587989807 0.21544814109802246 1.1721805334091187
-0.9268515706062317 0.24003349244594574 1.1630545854568481
-0.8636866807937622 0.1589074730873108 1.2585893869400024
-0.782128632068634 0.10815541446208954 1.40408456325531
-0.7986620664596558 0.13460952043533325 1.3783059120178223
-0.9621687531471252 0.3256837725639343 0.9609376788139343
-1.0473378896713257 0.3546128571033478 0.9713077545166016
-1.047042965888977 0.38269171118736267 0.8888952732086182
-0.7490501999855042 0.13497692346572876 1.394343376159668
-0.7559061050415039 0.08977624773979187 1.4384642839431763
-0.9634169340133667 0.2291496992111206 1.0177664756774902
-0.9644899964332581 0.22602412104606628 0.9892793893814087
-1.047078251838684 0.3008899986743927 0.8657678365707397
-1.068499207496643 0.3089619278907776 0.8126437664031982
-0.880214273929596 0.24543547630310059 1.1260452270507812
-0.7194109559059143 0.05666065588593483 1.5370596647262573
-0.8609097599983215 0.223860964179039 1.1607791185379028
-0.8776288628578186 0.265625 1.1022881269454956
-0.8561115860939026 0.17226605117321014 1.1747041940689087
-0.8701189756393433 0.17516016960144043 1.1557798385620117
-0.8216462731361389 0.22803914546966553 1.1527482271194458
-0.801427960395813 0.14631924033164978 1.2435688972473145
-0.8932682275772095 0.2695663869380951 1.0465342998504639
-0.9169908165931702 0.2952004075050354 0.9906604290008545
-0.7665890455245972 0.15729515254497528 1.3244428634643555
-0.7532844543457031 0.17460326850414276 1.2431846857070923
-0.787714958190918 0.1611250638961792 1.2120697498321533
-0.6325725317001343 0.020490862429142 1.5628485679626465
-0.7184014320373535 0.07805245369672775 1.3721777200698853
-0.6958470344543457 0.12435455620288849 1.2498373985290527
-0.5799722671508789 -0.01735478639602661 1.604003667831421
-0.5622819662094116 0.06207558512687683 1.496442198753357
-0.6352295875549316 0.06849795579910278 1.3833438158035278
-0.6702926158905029 0.18498609960079193 1.178603172302246
-0.688152551651001 0.1487666368484497 1.1907989978790283
-0.6104917526245117 0.105567067861557 1.386109471321106
-0.6101698875427246 0.1301015168428421 1.3062684535980225
-0.43627846240997314 0.02760966867208481 1.5275242328643799
-0.5325047969818115 0.07412994652986526 1.3430315256118774
-0.525033712387085 0.10590296983718872 1.2399170398712158
-0.5011482238769531 0.13383284211158752 1.2402902841567993
-0.5387119650840759 0.160716712474823 1.1786363124847412
-0.43274956941604614 0.08722378313541412 1.2610327005386353
-0.49250227212905884 0.16562694311141968 1.177781581878662
-0.4441380500793457 0.0623825304210186 1.4339607954025269
-0.4036944508552551 0.04486702382564545 1.3797072172164917
-0.42708954215049744 0.1574559211730957 1.1543458700180054
-0.38124942779541016 0.14683790504932404 1.1741316318511963
-0.2313651293516159 0.016808975487947464 1.4893667697906494
-0.2987319827079773 0.05739971622824669 1.298959732055664
0.3815820813179016 0.06935958564281464 1.1952484846115112
0.2443486750125885 -0.0051653627306222916 1.484930396080017
0.4404154419898987 0.09351112693548203 1.255195140838623
0.45351701974868774 0.06425654143095016 1.2393765449523926
0.4478903114795685 0.11746254563331604 1.1876552104949951
0.47758400440216064 0.045656632632017136 1.370373010635376
0.5285504460334778 0.03781692311167717 1.2894904613494873
0.6010923385620117 0.13570566475391388 1.1711550951004028
0.5149020552635193 -0.002694491297006607 1.5481319427490234
0.6653158068656921 0.04980882257223129 1.2903690338134766
0.6469373106956482 0.01573212258517742 1.5224106311798096
0.9390807747840881 0.18103423714637756 1.0868791341781616
0.9570103883743286 0.19810017943382263 1.082608699798584
1.0103713274002075 0.23688805103302002 0.9878183007240295
1.0434967279434204 0.26591190695762634 0.9237607717514038
1.0451328754425049 0.24122488498687744 0.9302255511283875
0.8189585208892822 0.10547268390655518 1.3288908004760742
1.0128346681594849 0.25606468319892883 0.9998430609703064
1.0507746934890747 0.2809799015522003 0.9386370182037354
0.9528986811637878 0.10549373924732208 1.1334505081176758
0.9435975551605225 0.07314826548099518 1.1721632480621338
0.9510060548782349 0.06863972544670105 1.1391057968139648
0.9895849227905273 0.11990324407815933 1.0947352647781372
1.0333482027053833 0.2536851167678833 1.0370993614196777
1.0774435997009277 0.275460422039032 0.9658669233322144
0.9673078060150146 0.16744586825370789 1.1735255718231201
0.973067581653595 0.11525973677635193 1.1368234157562256
1.0321050882339478 0.12863977253437042 1.1026748418807983
0.9819400906562805 0.09111304581165314 1.141952395439148
1.0409554243087769 0.09525959193706512 1.0859876871109009
0.94194495677948 0.09776308387517929 1.2043031454086304
1.0057958364486694 0.12395262718200684 1.1799275875091553
1.1197086572647095 0.19794732332229614 0.9812625646591187
1.149529218673706 0.18566444516181946 0.9166660308837891
1.1322605609893799 0.26536911725997925 0.9509148001670837
0.9445395469665527 0.14328186213970184 1.2470837831497192
1.0513455867767334 0.20902936160564423 1.0683706998825073
1.1024165153503418 0.13967958092689514 1.0291690826416016
1.114831805229187 0.16472595930099487 1.0311282873153687
1.1550499200820923 0.22236275672912598 0.9760274887084961
1.0289461612701416 0.17212213575839996 1.2144289016723633
1.0573745965957642 0.18913225829601288 1.2001951932907104
1.14788818359375 0.2218230962753296 1.049169659614563
1.139932632446289 0.2092358022928238 1.0618702173233032
0.900362491607666 0.11618626117706299 1.3361140489578247
0.9923667907714844 0.17371203005313873 1.3407554626464844
0.9744388461112976 0.14625456929206848 1.3186601400375366
0.8823741674423218 0.10042060911655426 1.4831573963165283
0.8980215787887573 0.1089491918683052 1.4448192119598389
0.8945292830467224 0.11560513824224472 1.4373489618301392
0.9147007465362549 0.10166685283184052 1.422836184501648
0.9606730937957764 0.1429460197687149 1.3853925466537476
0.951853334903717 0.12572169303894043 1.3972967863082886
-1.0089266300201416 0.262084424495697 1.2148860692977905
-1.002902626991272 0.2356146275997162 1.2080929279327393
-1.0177634954452515 0.22999581694602966 1.1736253499984741
-1.0706113576889038 0.3361261188983917 0.8631196022033691
-1.1025506258010864 0.3105125427246094 0.8154374957084656
-0.9674079418182373 0.23543435335159302 0.994195282459259
-1.0169740915298462 0.24771399796009064 0.9649369716644287
-0.9916013479232788 0.19601838290691376 0.9685910940170288
-1.0656613111495972 0.2561776340007782 0.9059364795684814
-1.025142788887024 0.2827221155166626 0.9022509455680847
-1.044360637664795 0.2654041349887848 0.8573716282844543
-0.898902177810669 0.18169474601745605 1.1090971231460571
-0.9159660339355469 0.18057236075401306 1.0556905269622803
-0.929742693901062 0.19933223724365234 1.075900673866272
-1.0094873905181885 0.2322285771369934 0.9129121899604797
-1.0016298294067383 0.2633107304573059 0.9253258109092712
-0.9567886590957642 0.1957624852657318 0.9894405603408813
-0.9802542924880981 0.24257105588912964 0.9679545164108276
-0.8097645044326782 0.19080817699432373 1.2469662427902222
-0.8449128270149231 0.25987619161605835 1.0929166078567505
-0.7890481948852539 0.2340623438358307 1.0828758478164673
-0.783795177936554 0.25531005859375 1.0926624536514282
-0.726304829120636 0.14259788393974304 1.20638108253479
-0.714072048664093 0.1972786784172058 1.1418498754501343
-0.7548653483390808 0.24233512580394745 1.1130634546279907
-0.7617954611778259 0.23066504299640656 1.0967588424682617
-0.4739531874656677 0.04465113580226898 1.3943012952804565
-0.6134118437767029 0.19403040409088135 1.1448794603347778
-0.5518084764480591 0.14072763919830322 1.1572561264038086
-0.5646595358848572 0.1939360499382019 1.1312353610992432
-0.43690454959869385 0.14691205322742462 1.1435695886611938
-0.48057496547698975 0.17515376210212708 1.1276226043701172
-0.3394690454006195 0.12164530158042908 1.197244644165039
0.7411279082298279 0.12890717387199402 1.2133839130401611
0.5968512892723083 -0.0590343177318573 1.6814395189285278
0.8483241200447083 0.14400266110897064 1.2245168685913086
0.7892407178878784 0.1596669852733612 1.1821731328964233
0.8379897475242615 0.12899819016456604 1.186737298965454
0.8379229307174683 0.1530911773443222 1.1858090162277222
0.7378458976745605 0.07895244657993317 1.354872226715088
0.8661070466041565 0.09017257392406464 1.214881181716919
0.9106176495552063 0.10469613969326019 1.173543095588684
0.9069175124168396 0.06844034790992737 1.182611107826233
0.9216881990432739 0.07946868240833282 1.1602085828781128
0.9440104365348816 0.120411217212677 1.1228995323181152
1.049923300743103 0.20629645884037018 0.9656391143798828
1.0793774127960205 0.23233672976493835 0.9296255707740784
1.102238655090332 0.2508056163787842 0.9354449510574341
0.9018409848213196 0.13323643803596497 1.2218966484069824
0.9289698600769043 0.15009088814258575 1.193929672241211
0.9646350145339966 0.0951516330242157 1.1621770858764648
0.9736739993095398 0.10870721191167831 1.1219546794891357
1.000198483467102 0.08172224462032318 1.088896632194519
0.75944584608078 0.01670844294130802 1.472919225692749
0.9984690546989441 0.15004220604896545 1.1924809217453003
1.043054461479187 0.1751529425382614 1.165979266166687
0.9458650350570679 0.10131329298019409 1.2991223335266113
1.175321340560913 0.19700057804584503 1.0301305055618286
1.1559088230133057 0.250618577003479 1.0001778602600098
1.0429418087005615 0.14623284339904785 1.1886335611343384
1.0745644569396973 0.15552926063537598 1.147033452987671
1.0432285070419312 0.15677715837955475 1.348667860031128
1.042736291885376 0.12452296167612076 1.2891160249710083
1.0471675395965576 0.15454038977622986 1.2940828800201416
1.1303017139434814 0.17502476274967194 1.186247706413269
1.1087781190872192 0.19068501889705658 1.1911559104919434
-0.9112091660499573 0.19927814602851868 1.3322950601577759
-1.135867953300476 0.3725634813308716 0.8547030687332153
-0.9593665599822998 0.21190693974494934 1.086859107017517
-0.9655582904815674 0.2081296145915985 1.0487265586853027
-0.9412899017333984 0.21369285881519318 1.139167070388794
-0.6844701170921326 0.0511486753821373 1.5078198909759521
-0.8966988325119019 0.23747646808624268 1.1646902561187744
-0.904897928237915 0.2401396632194519 1.1273027658462524
-1.0540614128112793 0.35564085841178894 0.8265615701675415
-1.0329537391662598 0.3906971216201782 0.8325623869895935
-0.9018595814704895 0.2066529393196106 1.0579288005828857
-0.9335068464279175 0.2169552445411682 1.0170753002166748
-0.9059973955154419 0.19281873106956482 1.0425888299942017
-0.6883407235145569 0.05414487421512604 1.453035831451416
-0.7247138023376465 0.13306882977485657 1.3512475490570068
-0.41250500082969666 0.1397438943386078 1.2253658771514893
0.22596068680286407 0.04863205552101135 1.2789180278778076
0.2153235375881195 0.02582133747637272 1.281241774559021
0.3868214786052704 0.04901476204395294 1.2321717739105225
0.3884485065937042 0.10003404319286346 1.1705119609832764
0.4697261452674866 0.06606075167655945 1.3007429838180542
0.5917971134185791 0.1051473543047905 1.210551142692566
0.5969120264053345 0.09451739490032196 1.190812110900879
0.6808891296386719 0.035447366535663605 1.3701307773590088
0.6971874237060547 -0.003413604572415352 1.4559725522994995
0.7788608074188232 0.069338858127594 1.3039451837539673
0.9871846437454224 0.09177649766206741 1.0891016721725464
1.0182689428329468 0.1396697759628296 1.0626580715179443
1.053903341293335 0.11825384944677353 1.0227313041687012
1.0690041780471802 0.1696736067533493 0.9849807024002075
0.9026015400886536 0.0921483188867569 1.2797082662582397
1.1577064990997314 0.1698000282049179 0.9425898194313049
-0.9931809306144714 0.2310972809791565 1.186424732208252
-0.9479013085365295 0.3039238452911377 0.9405826926231384
-0.9750571846961975 0.32821550965309143 0.8923028707504272
-0.6333922147750854 0.009590290486812592 1.5976085662841797
-0.6107583045959473 0.19220855832099915 1.128551959991455
-0.6087837219238281 0.20320910215377808 1.0991743803024292
-0.5667797327041626 0.18189767003059387 1.1124181747436523
-0.45078057050704956 0.172597274184227 1.1285178661346436
-0.23115447163581848 0.07422562688589096 1.2730199098587036
-0.22996696829795837 0.05086688697338104 1.272169828414917
0.5635498762130737 -0.012946292757987976 1.471384882926941
0.591023325920105 -0.03100665658712387 1.5390279293060303
0.8857532143592834 0.13022027909755707 1.247004508972168
0.8982920050621033 0.16543585062026978 1.1783215999603271
0.8220745325088501 0.0598849318921566 1.3175954818725586
0.9748234152793884 0.14527763426303864 1.0759382247924805
0.8974974155426025 0.08591913431882858 1.3270493745803833
0.8471760153770447 0.06702189147472382 1.3983354568481445
0.9983019232749939 0.126570463180542 1.2975006103515625
1.0269358158111572 0.13637347519397736 1.2390544414520264
1.123236060142517 0.17148831486701965 1.1014567613601685
1.1222996711730957 0.17808596789836884 0.9980165362358093
1.1264395713806152 0.1963682770729065 1.1015526056289673
-1.1106511354446411 0.3358960449695587 0.8531051278114319
-1.0687389373779297 0.3794012665748596 0.8380012512207031
-0.9791743755340576 0.23030376434326172 0.9927235245704651
-1.0514068603515625 0.30271032452583313 0.8744130730628967
-1.0215113162994385 0.3205273449420929 0.8460672497749329
-0.8437522649765015 0.22037586569786072 1.1001777648925781
-0.4286288321018219 0.10392226278781891 1.2311793565750122
-0.45903101563453674 0.1331518441438675 1.1768702268600464
-0.48710596561431885 0.1595194786787033 1.1583564281463623
-0.37546151876449585 0.10013536363840103 1.21415376663208
-0.3959804177284241 0.12795403599739075 1.1421114206314087
-0.40578654408454895 0.14902013540267944 1.1353209018707275
0.383559912443161 0.11324562877416611 1.180716872215271
0.8220217823982239 0.08549273014068604 1.2427152395248413
0.8749665021896362 0.07176584750413895 1.2591428756713867
0.9105715155601501 0.08024641871452332 1.2237359285354614
1.0798861980438232 0.1431063413619995 1.1253154277801514
-1.104479193687439 0.3266294598579407 0.9474692344665527
-1.1241141557693481 0.31800389289855957 0.9106510281562805
-1.1235312223434448 0.33347025513648987 0.9131873250007629
-0.9612897634506226 0.27555325627326965 1.0788884162902832
-0.9428697824478149 0.24288621544837952 0.9953955411911011
-0.9114272594451904 0.21454808115959167 1.0258225202560425
-0.303905189037323 0.08751358836889267 1.229344129562378
-0.15345551073551178 0.011334680020809174 1.3715229034423828
-0.14283819496631622 0.026515567675232887 1.362813949584961
0.2187286764383316 0.011283248662948608 1.2905393838882446
0.31183817982673645 -0.11103984713554382 1.6956415176391602
0.5109938383102417 -0.0506855733692646 1.6848297119140625
0.545625627040863 -0.07286287099123001 1.7061214447021484
0.6144546866416931 -0.040195681154727936 1.6566789150238037
0.8340559005737305 0.0767509788274765 1.482944130897522
0.8478133082389832 0.06791141629219055 1.5262150764465332
0.851918637752533 0.11377903819084167 1.4743280410766602
0.8793436288833618 0.09632546454668045 1.4611589908599854
0.8845775723457336 0.11347750574350357 1.485811471939087
-0.9590139389038086 0.22389374673366547 1.2894890308380127
-0.9658406972885132 0.24530088901519775 1.2744736671447754
-0.80715012550354 0.13567908108234406 1.453500509262085
-0.794842004776001 0.14320030808448792 1.437113642692566
-1.0880366563796997 0.38604992628097534 0.8939439654350281
-1.1093183755874634 0.3966856598854065 0.8537258505821228
-1.0520585775375366 0.2779582738876343 0.9133523106575012
-0.9793900847434998 0.2948774993419647 1.0326578617095947
-0.8598386645317078 0.22285649180412292 1.200676441192627
-0.5962321758270264 -0.006977878510951996 1.6364675760269165
0.3747038245201111 0.0812106654047966 1.2396565675735474
0.3875805139541626 0.0062082260847091675 1.4739373922348022
0.6335586905479431 0.09732739627361298 1.2377394437789917
0.5669205784797668 0.06625130772590637 1.349438190460205
0.7353000044822693 0.11866767704486847 1.207519769668579
0.7867875099182129 0.13470354676246643 1.1792237758636475
0.761901319026947 0.0767790824174881 1.2391084432601929
0.9776769876480103 0.18969619274139404 1.046894907951355
1.0005395412445068 0.18085087835788727 1.040335774421692
1.021944284439087 0.11556827276945114 1.1024610996246338
0.9690623879432678 0.1416110247373581 1.288041591644287
1.0807242393493652 0.21737636625766754 1.1119606494903564
-1.1205179691314697 0.3425306975841522 0.8772811889648438
-1.1146998405456543 0.37758123874664307 0.8292372226715088
-0.5967779159545898 0.214573472738266 1.1012223958969116
-0.4548660218715668 0.17546586692333221 1.1527528762817383
-0.358556866645813 0.11854849755764008 1.1840569972991943
1.040818214416504 0.1951024979352951 1.124324083328247
1.1684486865997314 0.2610846161842346 0.9350905418395996
1.1775959730148315 0.2526523470878601 0.9544582366943359
-0.9666792154312134 0.2130313217639923 1.0269169807434082
-0.956609845161438 0.2816096842288971 0.9584890007972717
-0.9839552044868469 0.285532683134079 0.9180365800857544
0.6725322604179382 -0.011924676597118378 1.587483525276184
1.170019268989563 0.2790547311306 0.9516991972923279
1.0799659490585327 0.158710315823555 1.2265883684158325
-0.37471526861190796 0.0998760238289833 1.3072363138198853
1.0069689750671387 0.14223867654800415 1.295554280281067
-0.9075282216072083 0.2640710771083832 1.0140085220336914
1.1117219924926758 0.16756609082221985 0.9406239986419678
1.006476879119873 0.13717781007289886 1.2792035341262817
-0.9931868314743042 0.21056552231311798 0.992538332939148
-0.4095248579978943 -0.03325946256518364 0.8602517247200012
-0.4152398407459259 -0.030709054321050644 0.8729223608970642
-0.3989511728286743 -0.0653536468744278 0.8673322200775146
-0.4069594442844391 -0.06647060811519623 0.8767526149749756
-0.3706335127353668 -0.03773128613829613 0.9466593861579895
-0.37976357340812683 -0.04406729340553284 0.9200236201286316
-0.366824746131897 -0.011646391823887825 0.8948130011558533
-0.35592249035835266 0.0002535944804549217 0.937913179397583
-0.3699474632740021 -0.06775564700365067 0.9255604147911072
-0.3795957863330841 -0.10068725049495697 0.9052692651748657
-0.3400747776031494 -0.02712511457502842 1.0280170440673828
-0.35300537943840027 -0.10248507559299469 0.9126141667366028
-0.3646630346775055 -0.052961692214012146 0.9156389832496643
-0.3506956994533539 -0.09818252921104431 0.9585538506507874
-0.3451962471008301 -0.06330640614032745 0.9541707634925842
-0.32164469361305237 0.002957876306027174 1.0028518438339233
-0.33481335639953613 -0.05009474232792854 0.9587572813034058
-0.33907803893089294 -0.07695814967155457 0.9819505214691162
-0.3416581451892853 -0.061083562672138214 1.01816725730896
-0.3533068597316742 -0.018734121695160866 1.062828540802002
-0.35453444719314575 -0.08453579246997833 1.04523503780365
-0.29720187187194824 0.023963168263435364 1.11324143409729
-0.30874747037887573 0.03763630986213684 1.0622252225875854
-0.34227487444877625 -0.04080035164952278 1.099853754043579
-0.26510509848594666 0.03870346397161484 1.0598078966140747
-0.2815050184726715 -0.05445554852485657 1.1751230955123901
-0.3142256736755371 -0.11007950454950333 1.107090711593628
-0.26159965991973877 0.041125476360321045 1.1110100746154785
-0.22177566587924957 0.02329307049512863 1.1324743032455444
-0.22839917242527008 0.002991948276758194 1.1954582929611206
-0.19744360446929932 0.0007590949535369873 1.2046613693237305
-0.19937007129192352 -0.10382717847824097 1.2688674926757812
-0.2596870958805084 -0.10815577208995819 1.1766059398651123
-0.19266194105148315 -0.017514221370220184 1.2564634084701538
-0.22649700939655304 -0.052713893353939056 1.2474913597106934
-0.1830262988805771 -0.035787373781204224 1.2991249561309814
-0.16983278095722198 -0.053481575101614 1.338327169418335
-0.15953531861305237 -0.10902046412229538 1.3342554569244385
-0.192047119140625 -0.13711915910243988 1.214922547340393
-0.19803191721439362 -0.03130343556404114 1.7686508893966675
-0.16736465692520142 0.0749615728855133 1.4276456832885742
-0.1410057544708252 0.06047699600458145 0.8342455625534058
-0.1845678985118866 0.01356790866702795 0.8260847926139832
-0.15226027369499207 -0.07098974287509918 0.849272608757019
-0.19587749242782593 -0.10365839302539825 0.8418761491775513
-0.17862772941589355 -0.012449825182557106 1.670130968093872
-0.20179657638072968 -0.053403809666633606 1.7931478023529053
-0.16692419350147247 -0.03342704474925995 1.7386438846588135
-0.14932332932949066 0.007044602185487747 1.6857247352600098
-0.15804913640022278 -0.011849544942378998 1.6323390007019043
-0.12200479209423065 0.0014983657747507095 1.041832685470581
-0.1611606776714325 -0.051249146461486816 1.0002069473266602
-0.1608612984418869 -0.12187720835208893 0.9903466105461121
-0.1472500115633011 -0.03229399770498276 1.5612263679504395
-0.18319006264209747 -0.2775680124759674 0.03625921159982681
-0.1848907619714737 -0.3499324321746826 0.01578184962272644
-0.18267616629600525 -0.37082773447036743 0.03983505070209503
-0.12838082015514374 -0.10290111601352692 1.392328143119812
-0.12269175797700882 -0.04339016601443291 1.3485084772109985
-0.11089123785495758 -0.06446544080972672 1.3242491483688354
-0.13592927157878876 -0.11523127555847168 1.3756920099258423
-0.10994766652584076 -0.1457371562719345 1.3224153518676758
-0.1445808857679367 -0.21229654550552368 0.46067124605178833
-0.14009897410869598 -0.25606611371040344 0.384348064661026
-0.1496075987815857 -0.21908345818519592 0.31277352571487427
-0.1547296792268753 -0.23820601403713226 0.3462223708629608
-0.16152340173721313 -0.020946186035871506 1.704743504524231
-0.10747913271188736 -0.10151632875204086 1.2839164733886719
-0.11362890154123306 -0.09752048552036285 1.2438435554504395
-0.11023002117872238 -0.1399485170841217 1.2642143964767456
-0.1359841376543045 -0.16008003056049347 1.255900263786316
-0.14037078619003296 -0.2233644425868988 0.24633117020130157
-0.13165383040905 -0.10865931957960129 1.5604630708694458
-0.13725876808166504 -0.024831365793943405 1.5616116523742676
-0.136283740401268 -0.061237599700689316 1.5546678304672241
-0.12027439475059509 -0.22431546449661255 0.5649012327194214
-0.10463520884513855 -0.03654279559850693 1.804216742515564
-0.09572961181402206 -0.1357736885547638 1.2051905393600464
-0.10380193591117859 -0.04105249419808388 1.170950174331665
-0.09956027567386627 -0.18077822029590607 0.7579669952392578
-0.11984729021787643 0.02036384493112564 1.7513173818588257
-0.09898163378238678 -0.13624918460845947 1.400400161743164
-0.09535278379917145 -0.1166660338640213 0.8413413763046265
-0.13850437104701996 -0.1292358636856079 0.8641147613525391
-0.12377677112817764 -0.20241448283195496 0.9109443426132202
-0.10272246599197388 -0.21964100003242493 0.8519667387008667
-0.1528223156929016 -0.39831051230430603 0.07158439606428146
-0.07974252104759216 0.050679661333560944 1.7499194145202637
-0.09967110306024551 -0.02492659166455269 1.7885675430297852
-0.13247817754745483 -0.08557556569576263 1.4575440883636475
-0.10862526297569275 -0.11137307435274124 1.5136858224868774
-0.11136572808027267 -0.19849759340286255 0.3080560564994812
-0.1332002580165863 -0.2251598984003067 0.21379923820495605
-0.14742399752140045 -0.38678640127182007 0.11007285118103027
-0.14128293097019196 -0.18940266966819763 0.04902758449316025
-0.08574733138084412 -0.05743765830993652 1.3306121826171875
-0.09782249480485916 -0.2558513879776001 0.5468374490737915
-0.11138254404067993 -0.36283522844314575 0.010033038444817066
-0.15109433233737946 -0.3732392191886902 -0.0006305816932581365
-0.09411829710006714 -0.02588779851794243 1.576841950416565
-0.08958500623703003 -0.06447380036115646 1.5330018997192383
-0.024028230458498 -0.22065085172653198 0.9049609303474426
-0.09228958189487457 0.0852329283952713 0.8420928716659546
-0.1347687542438507 -0.3328745663166046 0.27304667234420776
-0.10902878642082214 -0.3212118446826935 0.18287263810634613
-0.11912374198436737 -0.19614097476005554 0.10217593610286713
-0.0736304223537445 -0.043793585151433945 1.2997382879257202
-0.08100654929876328 -0.05567985028028488 1.2560276985168457
-0.0358625091612339 -0.17663393914699554 1.3013970851898193
-0.09305661916732788 -0.1385566145181656 0.637715756893158
-0.07935504615306854 -0.1848536729812622 0.7543719410896301
-0.05675812065601349 -0.12725740671157837 0.819000244140625
-0.09791351854801178 -0.3183516263961792 0.14863936603069305
-0.10036361217498779 -0.3786158561706543 0.08281143009662628
-0.09235937893390656 -0.16451658308506012 1.5130374431610107
-0.07003340870141983 -0.05130105838179588 1.3681325912475586
-0.04157954454421997 -0.035470835864543915 1.3066928386688232
-0.06871050596237183 -0.25239455699920654 0.5712991952896118
-0.04569021612405777 -0.23254115879535675 0.5697511434555054
-0.08430010080337524 -0.15506179630756378 0.4892555773258209
-0.06404569745063782 -0.14908795058727264 1.4760555028915405
-0.044898129999637604 -0.09730055928230286 1.446978211402893
-0.08628042787313461 -0.04157629236578941 1.4159245491027832
-0.05469870939850807 -0.18731656670570374 0.5051059722900391
-0.055311065167188644 -0.0012263283133506775 1.7926766872406006
-0.0852276161313057 -0.20444124937057495 1.6585941314697266
-0.015693753957748413 -0.19231384992599487 0.9948915243148804
-0.0464165173470974 -0.11195924878120422 1.466731071472168
-0.020736688748002052 -0.1405661404132843 1.4482589960098267
-0.04394391551613808 -0.12337002158164978 1.4354745149612427
-0.023145096376538277 -0.19195294380187988 1.5872360467910767
-0.06576947867870331 -0.1949358880519867 1.5302958488464355
-0.02402033843100071 -0.07492803037166595 1.4808965921401978
-0.04469098895788193 -0.16717529296875 0.6278409361839294
0.003627859055995941 -0.043521683663129807 1.81440007686615
-0.034517206251621246 0.07428628206253052 1.7175936698913574
-0.006998635828495026 -0.2112129032611847 1.5359686613082886
-0.02542690560221672 -0.1924043893814087 1.4785079956054688
-0.006316637620329857 -0.08022493124008179 1.4491333961486816
0.0029935939237475395 -0.1913510262966156 1.4789958000183105
0.024739082902669907 -0.0479462668299675 1.4272485971450806
-0.0010490231215953827 -0.03954203426837921 1.2984066009521484
-0.001962173730134964 0.016483761370182037 1.7885260581970215
0.019066819921135902 -0.0833996906876564 1.485590934753418
0.016774768009781837 -0.1360422670841217 1.4647719860076904
0.027836529538035393 0.045039430260658264 1.7440043687820435
0.017535729333758354 -0.02824678085744381 1.7945008277893066
0.016175085678696632 -0.13071909546852112 1.4407293796539307
0.061054252088069916 -0.14836938679218292 1.501430869102478
0.02341054007411003 -0.10316546261310577 1.4527719020843506
0.05814098194241524 -0.04830542579293251 0.5649237036705017
0.04731619358062744 -0.039567604660987854 1.517571210861206
0.09173369407653809 -0.030588215216994286 0.48360997438430786
0.045131586492061615 -0.19931894540786743 1.2470241785049438
0.08508045971393585 -0.05100008100271225 1.2730762958526611
0.08208013325929642 -0.04844667762517929 1.1494616270065308
0.12273351848125458 0.19019702076911926 0.12200406193733215
0.15230776369571686 0.20958933234214783 0.11951476335525513
0.108822762966156 0.2541237771511078 0.18991129100322723
0.0601903572678566 -0.17270858585834503 1.2395424842834473
0.051651038229465485 -0.19307802617549896 1.1656334400177002
0.05655166506767273 -0.12134858220815659 0.6980118155479431
0.10477674007415771 0.23390135169029236 0.14676257967948914
0.07407505065202713 -0.02363898605108261 1.7503092288970947
0.0547335147857666 -0.19064143300056458 1.667533278465271
0.04660174250602722 -0.17524199187755585 1.5774896144866943
0.050748035311698914 -0.18126040697097778 1.5282256603240967
0.08971643447875977 -0.15720058977603912 0.8457158207893372
0.1284225583076477 -0.025377580896019936 1.7790138721466064
0.054023317992687225 -0.039626140147447586 1.572281837463379
0.0555431991815567 -0.06103653460741043 1.5437248945236206
0.11404766142368317 0.12947605550289154 0.3736969232559204
0.10911914706230164 0.16830003261566162 0.3298787474632263
0.12428771704435349 0.2671370804309845 0.181782528758049
0.06808081269264221 -0.04835469648241997 1.8412837982177734
0.10432535409927368 -0.06587830930948257 1.433482050895691
0.095215804874897 -0.2158222496509552 0.8390195369720459
0.07584568858146667 -0.1280089020729065 0.8308193683624268
0.12191865593194962 -0.19015814363956451 0.8284240961074829
0.08419743925333023 -0.026592707261443138 0.7331888675689697
0.17440401017665863 0.19817277789115906 0.12449203431606293
0.08355030417442322 -0.036841221153736115 1.7618553638458252
0.08010458946228027 -0.1477896273136139 1.1380679607391357
0.0912070944905281 -0.16880592703819275 1.253786325454712
0.09506462514400482 -0.18866464495658875 1.2449448108673096
0.13544754683971405 -0.18416260182857513 0.9017423987388611
0.08752802759408951 -0.11623496562242508 1.5933105945587158
0.0846884697675705 -0.030960535630583763 1.5806993246078491
0.08591486513614655 -0.05922195315361023 1.5704090595245361
0.09542183578014374 -0.07572145015001297 1.5676054954528809
0.10925081372261047 -0.08913438022136688 1.5445473194122314
0.12131941318511963 -0.035560715943574905 0.6276038289070129
0.11855410039424896 -0.10476677119731903 0.6354321837425232
0.12478352338075638 -0.1306009292602539 1.389793038368225
0.13379934430122375 -0.05281747877597809 1.3555331230163574
0.09003911912441254 -0.05712994560599327 1.36631178855896
0.09814047813415527 -0.06975074112415314 1.3366634845733643
0.10965575277805328 -0.1153440773487091 0.7982704639434814
0.17077285051345825 0.24284511804580688 0.1683453619480133
0.1866164356470108 0.22907820343971252 0.15735115110874176
0.09976062178611755 -0.041829679161310196 1.7141755819320679
0.13726872205734253 -0.07057023793458939 1.4068948030471802
0.17817476391792297 0.09621654450893402 0.33919379115104675
0.12304898351430893 -0.01542992889881134 1.6863523721694946
0.09247873723506927 0.009009167551994324 1.6888295412063599
0.10799038410186768 -0.019162170588970184 1.6528406143188477
0.19272218644618988 0.18647509813308716 0.1963312178850174
0.19981618225574493 0.20589372515678406 0.13801400363445282
0.17302025854587555 0.17139969766139984 0.13356706500053406
0.16470907628536224 -0.010562377981841564 0.9403417110443115
0.14041057229042053 -0.013086584396660328 0.8400933742523193
0.13092626631259918 -0.04759780317544937 1.777611255645752
0.16090500354766846 0.043188534677028656 0.8478450179100037
0.18328019976615906 0.003686811774969101 0.9055497646331787
0.16951589286327362 -0.062309447675943375 1.3454564809799194
0.18865203857421875 -0.0855904147028923 1.3188832998275757
0.14058271050453186 -0.12869969010353088 1.3528164625167847
0.19180861115455627 -0.04909210279583931 1.2902287244796753
0.17871937155723572 -0.04499252140522003 1.2686372995376587
0.23049314320087433 -0.1349395215511322 1.2101917266845703
0.22077283263206482 -0.09150417894124985 1.270654320716858
0.23071929812431335 -0.019345108419656754 1.228264570236206
0.25276121497154236 0.02164284884929657 1.1561883687973022
0.28341585397720337 0.018388599157333374 1.1707038879394531
0.2785204350948334 -0.033050790429115295 1.2045682668685913
0.2794893980026245 -0.09847903251647949 1.1997153759002686
0.30473849177360535 0.03468465805053711 1.1148616075515747
0.36528387665748596 -0.050066154450178146 1.132886528968811
0.3597943186759949 -0.01008480042219162 1.1288402080535889
0.33844003081321716 0.021763935685157776 1.1135039329528809
0.36057332158088684 -0.10190527886152267 1.0906771421432495
0.36140739917755127 -0.03903130814433098 1.0792436599731445
0.34906232357025146 -0.011459149420261383 1.078300952911377
0.4457467198371887 -0.012217789888381958 0.9460992813110352
0.35643118619918823 -0.06920831650495529 1.0674495697021484
0.365233838558197 -0.07171599566936493 1.0325777530670166
0.39434388279914856 0.001625359058380127 0.9976044297218323
0.36469826102256775 -0.047022249549627304 1.0146498680114746
0.3798636496067047 -0.07556318491697311 1.0031830072402954
0.4018334448337555 -0.0402446873486042 0.9793962240219116
0.42711755633354187 -0.03265601396560669 0.9732562303543091
0.39894095063209534 -0.08839210867881775 0.9630692005157471
0.4167942404747009 -0.05600510910153389 0.9630635380744934
0.40900951623916626 -0.07166652381420135 0.9685908555984497
0.4466796815395355 -0.011684447526931763 0.9238906502723694
0.42318838834762573 -0.07730353623628616 0.9490137100219727
0.4171283543109894 -0.017571739852428436 0.9426389336585999
0.4436378479003906 -0.04691752791404724 0.9234380722045898
0.45735278725624084 -0.03319399803876877 0.9322486519813538
-0.32438310980796814 0.0028538175392895937 1.03035306930542
-0.32206887006759644 -0.06984312832355499 1.0051859617233276
-0.30246496200561523 -0.04792672395706177 1.0088682174682617
-0.3347510099411011 -0.10982026159763336 1.036466360092163
-0.25088897347450256 0.00028814561665058136 1.040226936340332
-0.29940691590309143 -0.10512223839759827 1.0278047323226929
-0.1736368089914322 -0.040439870208501816 1.231927514076233
-0.18028469383716583 -0.10278542339801788 1.191665768623352
-0.18287983536720276 -0.09408555179834366 0.9491242170333862
-0.19000864028930664 -0.012477660551667213 0.9031060934066772
-0.14069786667823792 0.04937814176082611 0.9043341875076294
-0.17342662811279297 0.16272731125354767 1.254312515258789
-0.17080803215503693 0.173847496509552 1.185861587524414
-0.17737410962581635 0.2074660360813141 1.1503386497497559
-0.16579005122184753 -0.009849783033132553 0.9429430961608887
-0.20926515758037567 -0.05759022384881973 1.760629653930664
-0.1310223937034607 -0.05981435999274254 1.3655201196670532
-0.14958783984184265 -0.03986826166510582 1.2964798212051392
-0.09857907891273499 0.24279946088790894 1.039685606956482
-0.1331125795841217 0.25907790660858154 0.9480143785476685
-0.1874362826347351 -0.28052040934562683 0.10049004852771759
-0.18936340510845184 -0.34835493564605713 0.06463280320167542
-0.17803585529327393 -0.05805085599422455 1.741441011428833
-0.16234201192855835 -0.044676367193460464 1.6840858459472656
-0.11845412850379944 -0.1756565272808075 1.2296656370162964
-0.11638206243515015 -0.18779906630516052 1.1972161531448364
-0.11994878947734833 -0.20950740575790405 1.1873278617858887
-0.15206870436668396 0.09650160372257233 1.3923038244247437
-0.1402685046195984 0.09117230772972107 1.3863844871520996
-0.09676296263933182 -0.17593878507614136 1.248777151107788
-0.12429296970367432 -0.08094438910484314 1.21454918384552
-0.16238749027252197 -0.307531476020813 0.17013460397720337
-0.16756190359592438 -0.2644900977611542 0.18560880422592163
-0.11183850467205048 0.15502138435840607 1.246180534362793
-0.13626649975776672 -0.09939716756343842 1.4712333679199219
-0.13585373759269714 -0.09174849092960358 1.4459352493286133
-0.12093744426965714 -0.0898045226931572 1.4231353998184204
-0.13606175780296326 -0.08641183376312256 1.4224933385849
-0.13291797041893005 -0.10434074699878693 1.4063959121704102
-0.1267969310283661 -0.13922645151615143 0.7865530848503113
-0.14043205976486206 -0.11088065057992935 0.7616690397262573
-0.10432646423578262 0.3062905967235565 1.048051118850708
-0.10643123090267181 0.2916257977485657 1.104978322982788
-0.08819086849689484 -0.1654069423675537 1.2496757507324219
-0.12231690436601639 -0.10591176152229309 0.8512076139450073
-0.16533997654914856 -0.20763030648231506 0.10240023583173752
-0.1714877039194107 -0.21092617511749268 0.05689716711640358
-0.1369672268629074 -0.1906517744064331 0.8511834144592285
-0.12611323595046997 0.22474603354930878 1.2250635623931885
-0.13134032487869263 -0.17786535620689392 1.6541650295257568
-0.11737211048603058 -0.04795800521969795 1.5582854747772217
-0.10935956984758377 0.0625305026769638 1.5317790508270264
-0.09688019752502441 0.012518111616373062 1.586076021194458
-0.11882703751325607 0.00921863317489624 1.5599260330200195
-0.11791915446519852 0.049433089792728424 1.4774893522262573
-0.06617160141468048 0.09933813661336899 1.5732090473175049
-0.09752531349658966 -0.09195160865783691 1.508545994758606
-0.09955622255802155 0.04424324631690979 0.9656974673271179
-0.1366758495569229 -0.05435037985444069 1.8458709716796875
-0.15062782168388367 -0.06390701234340668 1.8409481048583984
-0.14794492721557617 -0.07524845004081726 1.8268932104110718
-0.0275410208851099 0.06204337254166603 1.4593532085418701
-0.11142382770776749 0.1100621148943901 1.4407103061676025
-0.1003519594669342 -0.28347399830818176 0.031468234956264496
-0.07638292014598846 0.17716428637504578 1.3705569505691528
-0.08783816546201706 -0.17293740808963776 1.5631405115127563
-0.08932670205831528 -0.2564767897129059 0.391608327627182
-0.05910596624016762 0.028255369514226913 1.523783564567566
-0.06713483482599258 -0.03601629287004471 1.5077741146087646
-0.05613182485103607 0.12297248095273972 1.4880752563476562
-0.04371458664536476 0.05214221030473709 0.8428963422775269
-0.0958944708108902 -0.20611165463924408 0.3305928707122803
-0.04563625156879425 0.2982881963253021 0.9459488391876221
-0.036951009184122086 0.04337561875581741 1.034624695777893
-0.06496735662221909 -0.1912594437599182 1.2447307109832764
-0.06611921638250351 -0.16470302641391754 1.1515778303146362
-0.08244245499372482 -0.23687635362148285 0.3164467215538025
-0.0638163611292839 -0.26345962285995483 0.2620348036289215
-0.09469752013683319 -0.21770252287387848 0.24885089695453644
-0.05522700399160385 -0.0011448636651039124 1.5429575443267822
-0.03747754171490669 -0.19312132894992828 0.7018923759460449
-0.06322932988405228 -0.14181013405323029 0.6364985704421997
-0.04371962696313858 0.3149276673793793 1.094270944595337
-0.036368243396282196 0.32616838812828064 0.9983193874359131
-0.012106186710298061 -0.19874200224876404 1.1708815097808838
-0.08609302341938019 -0.2601530849933624 0.12225222587585449
-0.036973319947719574 0.2696634531021118 0.9921860694885254
-0.04188733547925949 0.2363445907831192 1.0332409143447876
0.015311237424612045 0.02157079242169857 1.5319870710372925
-0.05096764862537384 -0.15515214204788208 1.3929749727249146
-0.01736415922641754 0.20392060279846191 1.3444627523422241
0.026256801560521126 0.06738431006669998 1.4441924095153809
0.011891089379787445 -0.0021398812532424927 1.5332502126693726
0.026382554322481155 0.2742137312889099 1.0010402202606201
0.04600081592798233 0.27250489592552185 0.9511446356773376
0.01294993981719017 -0.1689789891242981 1.3828277587890625
0.01400437206029892 0.04655960574746132 1.0278395414352417
0.008254338055849075 -0.19736656546592712 1.1125837564468384
0.06846931576728821 0.18332377076148987 1.3664754629135132
0.0405583381652832 -0.03476707637310028 1.316252589225769
0.05936155468225479 0.11922056972980499 1.490024209022522
0.03485202044248581 0.05739038437604904 1.4902864694595337
0.05476655811071396 -0.027517838403582573 1.223290205001831
0.03955051302909851 0.10049822181463242 0.9109834432601929
0.023063533008098602 -0.07852011919021606 1.7788835763931274
0.09536245465278625 0.19520094990730286 0.14044372737407684
0.10008176416158676 0.2131940871477127 0.12653496861457825
0.08432124555110931 0.22203174233436584 0.1802300363779068
0.00391550175845623 -0.20700982213020325 1.6603307723999023
0.05358150601387024 -0.04170510917901993 0.6941233277320862
0.10142731666564941 0.06504543125629425 1.4548912048339844
0.06896547973155975 -0.10708719491958618 1.5107800960540771
0.11675213277339935 -0.10082188993692398 1.4424209594726562
0.0633464902639389 -0.0627717524766922 1.42332923412323
0.0930965319275856 0.08853446692228317 0.4225260019302368
0.11107636988162994 0.0894983634352684 0.25369367003440857
0.1218743696808815 0.1863626092672348 0.28222548961639404
0.10525190830230713 0.27398377656936646 1.0087275505065918
0.09090034663677216 0.31048038601875305 0.9729101657867432
0.09028448164463043 -0.12818558514118195 0.7084017992019653
0.09488853812217712 -0.023847557604312897 0.6394410729408264
0.03013451397418976 -0.13026300072669983 1.7673860788345337
0.07512165606021881 -0.1299709677696228 1.7218562364578247
0.10793191194534302 -0.06723278760910034 0.5139554738998413
0.04160834848880768 -0.06930629909038544 1.7909828424453735
0.07266073673963547 -0.0789577066898346 1.740166187286377
0.09764505177736282 -0.07700374722480774 1.1400655508041382
0.0999191552400589 -0.06389251351356506 1.1092016696929932
0.09441399574279785 -0.14289434254169464 1.0917437076568604
0.06836733967065811 -0.1739371418952942 1.6578896045684814
0.08234493434429169 -0.09637866914272308 1.5429298877716064
0.07505524158477783 -0.14290253818035126 1.5459295511245728
0.15210740268230438 0.26761093735694885 0.9620387554168701
0.11268029361963272 -0.13598783314228058 1.2867560386657715
0.12811583280563354 -0.19568848609924316 1.2279658317565918
0.11540254205465317 -0.11028379946947098 1.2406766414642334
0.16883523762226105 0.20622798800468445 0.23557192087173462
0.15105582773685455 0.12945489585399628 0.20187635719776154
0.17075321078300476 0.14234182238578796 0.1906030774116516
0.08817198127508163 -0.051554903388023376 1.7621769905090332
0.12518757581710815 -0.15517354011535645 1.2801553010940552
0.1675671637058258 0.063657745718956 0.4554482400417328
0.1467439830303192 -0.009008795022964478 0.4744410514831543
0.1757248342037201 0.07836689054965973 0.40225160121917725
0.13488513231277466 -0.11902784556150436 1.4297428131103516
0.11849901080131531 -0.11346687376499176 1.4269828796386719
0.14193157851696014 -0.0811171904206276 1.3945196866989136
0.11956969648599625 0.06938177347183228 0.906424343585968
0.11721527576446533 -0.11455951631069183 0.8278102874755859
0.19414399564266205 0.14543168246746063 0.3017420768737793
0.20237503945827484 0.11636236310005188 0.29275691509246826
0.15110699832439423 -0.07079707086086273 1.391563057899475
0.157057523727417 0.1545724868774414 1.2677085399627686
0.15827640891075134 0.18980859220027924 1.2415374517440796
0.1419811248779297 -0.24188371002674103 1.1075689792633057
0.16747720539569855 -0.05524224415421486 0.970576286315918
0.17034080624580383 -0.11706028133630753 0.9589897394180298
0.19099028408527374 -0.01375657320022583 1.2208062410354614
0.2858363687992096 -0.0640229731798172 1.0731050968170166
0.2796538472175598 -0.009664364159107208 1.0767955780029297
0.3079929053783417 -0.1269472986459732 1.1178165674209595
-0.30557939410209656 -0.006846155971288681 1.003840446472168
-0.3288554251194 -0.07088106125593185 0.9676956534385681
-0.2401794046163559 -0.10934223234653473 1.0951049327850342
