-0.8339967727661133 0.032750893384218216 1.3052754402160645
-0.9601664543151855 0.14358972012996674 1.121157169342041
-0.9974930286407471 0.16180886328220367 1.0659338235855103
-0.7944380640983582 0.048109859228134155 1.38398015499115
-0.7885158061981201 0.0697348415851593 1.29931640625
-0.8269238471984863 0.04954005032777786 1.272907018661499
-0.6235380172729492 -0.06549428403377533 1.6069920063018799
-0.7278135418891907 -0.022636421024799347 1.4237087965011597
-0.7230563163757324 0.029791314154863358 1.296328067779541
-0.5658583045005798 -0.09393268823623657 1.6409237384796143
-0.564265787601471 -0.011357080191373825 1.532837986946106
-0.6446769833564758 -0.018834348767995834 1.424018383026123
-0.7123572826385498 0.09530466794967651 1.2241408824920654
-0.7267812490463257 0.0571102499961853 1.2374281883239746
-0.6232051849365234 0.021639518439769745 1.425994634628296
-0.6338154077529907 0.050221119076013565 1.3446478843688965
-0.43509119749069214 -0.029245877638459206 1.5505363941192627
-0.5473759174346924 0.004962489008903503 1.3743616342544556
-0.5531827211380005 0.041293393820524216 1.2688652276992798
-0.5302281975746155 0.07226167619228363 1.2678033113479614
-0.5745975375175476 0.09542813897132874 1.2093548774719238
-0.45688992738723755 0.035224754363298416 1.2800335884094238
-0.5288504362106323 0.10610392689704895 1.2043612003326416
-0.44990164041519165 0.005739014595746994 1.457412838935852
-0.41373056173324585 -0.0056772977113723755 1.3982577323913574
-0.46643444895744324 0.10900560766458511 1.1765164136886597
-0.4161532521247864 0.10592904686927795 1.1918600797653198
-0.23391146957874298 -0.01367511972784996 1.4986937046051025
-0.3166515529155731 0.0257846899330616 1.308560848236084
0.42237818241119385 0.033420905470848083 1.2284953594207764
0.2320978343486786 -0.0357050783932209 1.5092780590057373
0.47784146666526794 0.04956555366516113 1.2963948249816895
0.48922544717788696 0.021055053919553757 1.2796791791915894
0.497039794921875 0.07294642925262451 1.2307013273239136
0.49159950017929077 -0.0024292990565299988 1.412587285041809
0.5550556778907776 -0.012058613821864128 1.3355735540390015
0.6572873592376709 0.0839976817369461 1.230741262435913
0.5066908597946167 -0.056616537272930145 1.5937283039093018
0.6986473202705383 -0.010303920134902 1.3523129224777222
0.6450021862983704 -0.044063128530979156 1.5840805768966675
1.0219117403030396 0.09844022244215012 1.1872659921646118
1.043210744857788 0.11725928634405136 1.18356192111969
1.1127643585205078 0.14771176874637604 1.0935759544372559
1.1598247289657593 0.17462189495563507 1.0350462198257446
1.1552480459213257 0.15030096471309662 1.0416641235351562
0.8566900491714478 0.033556073904037476 1.4145864248275757
1.1159931421279907 0.16942116618156433 1.1083471775054932
1.1631169319152832 0.18922802805900574 1.051643967628479
1.0179475545883179 0.024248139932751656 1.2297571897506714
0.9997240304946899 -0.0076276995241642 1.2666666507720947
1.011215090751648 -0.01683904230594635 1.2323253154754639
1.0615206956863403 0.03472267463803291 1.1959677934646606
1.1323249340057373 0.16479027271270752 1.1518683433532715
1.1868674755096436 0.18231680989265442 1.0866525173187256
1.0359127521514893 0.0841469019651413 1.2794561386108398
1.0403255224227905 0.0321032889187336 1.2381051778793335
1.105371356010437 0.04040778800845146 1.2114815711975098
1.044705867767334 0.006681378930807114 1.2409683465957642
1.1116881370544434 0.0065207090228796005 1.1901278495788574
0.9978031516075134 0.018722280859947205 1.3016084432601929
1.0676065683364868 0.03737954795360565 1.2890554666519165
1.2173548936843872 0.1009485125541687 1.1000357866287231
1.2528371810913086 0.08592310547828674 1.0368850231170654
1.2430956363677979 0.17002764344215393 1.0742504596710205
1.0010833740234375 0.0643502026796341 1.3486793041229248
1.1395024061203003 0.11869752407073975 1.1821213960647583
1.1838388442993164 0.04366862028837204 1.145751714706421
1.2010217905044556 0.07004578411579132 1.149925947189331
1.2571628093719482 0.12272052466869354 1.1011602878570557
1.091057538986206 0.08676805347204208 1.3297624588012695
1.1253790855407715 0.1019618883728981 1.3169755935668945
1.2425395250320435 0.12794072926044464 1.174763798713684
1.2302428483963013 0.11258040368556976 1.1859138011932373
0.9376762509346008 0.041118863970041275 1.434671401977539
1.0387240648269653 0.0916505828499794 1.4541908502578735
1.020798921585083 0.06320306658744812 1.4259706735610962
0.9005582928657532 0.02373197302222252 1.5831166505813599
0.9223794937133789 0.03434477373957634 1.5452077388763428
0.918258011341095 0.04103969410061836 1.5385119915008545
0.9402323961257935 0.02572433464229107 1.526153802871704
0.9968166351318359 0.06261114031076431 1.4956146478652954
0.9846850633621216 0.04826381057500839 1.5050641298294067
-1.0606735944747925 0.11080595850944519 1.309590458869934
-1.0476292371749878 0.0851222351193428 1.300519347190857
-1.067042350769043 0.07607559859752655 1.268768548965454
-1.1689468622207642 0.17693984508514404 0.9608928561210632
-1.195988416671753 0.14750853180885315 0.9153197407722473
-1.0373318195343018 0.09390445053577423 1.0769853591918945
-1.0912563800811768 0.09779894351959229 1.0529417991638184
-1.0545934438705444 0.05290592089295387 1.0535634756088257
-1.1436344385147095 0.0990520641207695 0.9994404315948486
-1.1096655130386353 0.13047972321510315 0.9912779927253723
-1.1296296119689941 0.11443738639354706 0.9487414956092834
-0.9479796886444092 0.053811654448509216 1.1836931705474854
-0.9706111550331116 0.04966006428003311 1.1303905248641968
-0.9834287166595459 0.0635286271572113 1.1541537046432495
-1.0845797061920166 0.08534292131662369 0.9988128542900085
-1.0809614658355713 0.11637270450592041 1.0101789236068726
-1.0163968801498413 0.05781158059835434 1.0681384801864624
-1.053065538406372 0.10171853005886078 1.0510773658752441
-0.8494582176208496 0.07391603291034698 1.311835765838623
-0.9092094898223877 0.13718181848526 1.1605021953582764
-0.848520040512085 0.12470574676990509 1.1450670957565308
-0.8492420315742493 0.1463683396577835 1.1522893905639648
-0.7613487243652344 0.04310297593474388 1.2564971446990967
-0.7634100914001465 0.10012170672416687 1.1930906772613525
-0.8153969645500183 0.1376720368862152 1.167801856994629
-0.8217455744743347 0.12508392333984375 1.1538792848587036
-0.48387211561203003 -0.014779720455408096 1.417933702468872
-0.6577314734458923 0.11301854252815247 1.184399127960205
-0.5895928144454956 0.07304982095956802 1.1895692348480225
-0.6121411323547363 0.122841015458107 1.1674211025238037
-0.47579294443130493 0.09605655074119568 1.1669596433639526
-0.5227599143981934 0.11865519732236862 1.1551764011383057
-0.37034839391708374 0.08549632132053375 1.2115275859832764
0.8004471659660339 0.061830177903175354 1.2894134521484375
0.5697938203811646 -0.11826987564563751 1.7367655038833618
0.907321572303772 0.06802619248628616 1.3142805099487305
0.8570896983146667 0.08676257729530334 1.263494849205017
0.9014973640441895 0.05469966307282448 1.272010087966919
0.9042255878448486 0.07704467326402664 1.2751842737197876
0.7674551010131836 0.012592790648341179 1.4284985065460205
0.9193693995475769 0.012549730017781258 1.3013124465942383
0.9703245759010315 0.02326684072613716 1.2666093111038208
0.9596959948539734 -0.011932991445064545 1.2715482711791992
0.9807120561599731 -0.0008671265095472336 1.2505828142166138
1.013383388519287 0.03797537088394165 1.2201974391937256
1.1517038345336914 0.1144077405333519 1.0746371746063232
1.1864196062088013 0.1392100602388382 1.0414398908615112
1.2149181365966797 0.15446196496486664 1.0527340173721313
0.9604023694992065 0.055901557207107544 1.3167839050292969
0.9931825399398804 0.06873338669538498 1.2956242561340332
1.0264885425567627 0.0139214638620615 1.2608182430267334
1.041725993156433 0.022594351321458817 1.220615029335022
1.0686055421829224 -0.00364740751683712 1.1863453388214111
0.7661926746368408 -0.05233624577522278 1.5472955703735352
1.0619285106658936 0.06787532567977905 1.301764726638794
1.113270878791809 0.08671916276216507 1.2817431688308716
0.9900921583175659 0.02403627708554268 1.4002039432525635
1.2644201517105103 0.09830398857593536 1.1572940349578857
1.2572051286697388 0.1533132642507553 1.1270711421966553
1.1056230068206787 0.05932805687189102 1.3030551671981812
1.1466326713562012 0.06509119272232056 1.26389741897583
1.087651252746582 0.07215875387191772 1.4684200286865234
1.0908761024475098 0.037508707493543625 1.4039162397384644
1.0954296588897705 0.0690976083278656 1.4113311767578125
1.1968401670455933 0.08442861586809158 1.313169002532959
1.1809110641479492 0.09931928664445877 1.3192825317382812
-0.9418245553970337 0.06632205843925476 1.4134745597839355
-1.2384358644485474 0.1999567747116089 0.9604425430297852
-1.0160807371139526 0.07167346775531769 1.169867992401123
-1.023121953010559 0.06688719242811203 1.1318485736846924
-0.9910849928855896 0.07530112564563751 1.2213706970214844
-0.6820648312568665 -0.04481859877705574 1.5591812133789062
-0.9499387741088867 0.10775809735059738 1.242234468460083
-0.9621697068214417 0.10793565213680267 1.2069345712661743
-1.1573858261108398 0.19785895943641663 0.9235727787017822
-1.1444036960601807 0.23690979182720184 0.9246777296066284
-0.9584877490997314 0.07550995796918869 1.1329213380813599
-0.9963240623474121 0.080934077501297 1.093880534172058
-0.9642735719680786 0.06101604551076889 1.116250991821289
-0.689945638179779 -0.0425739660859108 1.501305103302002
-0.7446821928024292 0.030703380703926086 1.4063913822174072
-0.4429301619529724 0.09206877648830414 1.2459518909454346
0.24903200566768646 0.02159600891172886 1.2970168590545654
0.23251479864120483 0.0020837653428316116 1.2964576482772827
0.4194928705692291 0.00971107929944992 1.2646163702011108
0.4372570812702179 0.061273977160453796 1.205023169517517
0.4980957806110382 0.022899962961673737 1.3426235914230347
0.639404833316803 0.05278933048248291 1.2669974565505981
0.6439483761787415 0.04178031533956528 1.2470288276672363
0.7026084661483765 -0.02891593426465988 1.4321339130401611
0.7033867835998535 -0.06503590941429138 1.519910454750061
0.8151063919067383 -0.002916233614087105 1.3797667026519775
1.056912899017334 0.005003742873668671 1.1883515119552612
1.0990232229232788 0.050696201622486115 1.1683504581451416
1.136783242225647 0.027375759556889534 1.1289865970611572
1.1642550230026245 0.07581620663404465 1.0952860116958618
0.9464438557624817 0.015421701595187187 1.3733817338943481
1.256880760192871 0.06981472671031952 1.0633546113967896
-1.0394339561462402 0.08449103683233261 1.2776094675064087
-1.0329303741455078 0.16422858834266663 1.0213642120361328
-1.0673807859420776 0.18365293741226196 0.979010820388794
-0.6203700304031372 -0.08030328899621964 1.640264630317688
-0.65883469581604 0.11217839270830154 1.1689674854278564
-0.6589078903198242 0.12408976256847382 1.1403834819793701
-0.614374041557312 0.1115962564945221 1.1445415019989014
-0.49357977509498596 0.1227758526802063 1.152421474456787
-0.2538834810256958 0.05155893415212631 1.2796605825424194
-0.249192476272583 0.026661530137062073 1.2781836986541748
0.5615730285644531 -0.06764360517263412 1.5214452743530273
0.5811217427253723 -0.08956532180309296 1.591804027557373
0.9384857416152954 0.052894216030836105 1.3407230377197266
0.9666407108306885 0.08731909841299057 1.2753381729125977
0.8573089838027954 -0.012654745951294899 1.3999249935150146
1.0536818504333496 0.06038894131779671 1.1772962808609009
0.9319408535957336 0.009238317608833313 1.4210249185562134
0.8700383305549622 -0.006671395618468523 1.4872455596923828
1.0457016229629517 0.043427664786577225 1.408451795578003
1.0848302841186523 0.05145730823278427 1.3519484996795654
1.2023539543151855 0.07651623338460922 1.2210673093795776
1.2155629396438599 0.0824025347828865 1.1178772449493408
1.2069590091705322 0.10344637185335159 1.2252004146575928
-1.2086070775985718 0.1713728904724121 0.9537829756736755
-1.1762332916259766 0.21977534890174866 0.9371208548545837
-1.0464184284210205 0.08873379230499268 1.0765817165374756
-1.1424410343170166 0.14811092615127563 0.967805027961731
-1.119566798210144 0.17157351970672607 0.9377400279045105
-0.8987340331077576 0.0988314300775528 1.1675883531570435
-0.4549879729747772 0.054043468087911606 1.2496201992034912
-0.49178212881088257 0.08159036934375763 1.1998133659362793
-0.5262707471847534 0.1020498126745224 1.1853525638580322
-0.4037533700466156 0.059103287756443024 1.2296645641326904
-0.4327654242515564 0.08503738045692444 1.1583428382873535
-0.4445536434650421 0.10610450804233551 1.1548991203308105
0.4325808584690094 0.07522329688072205 1.2149457931518555
0.8709035515785217 0.012095551937818527 1.3268252611160278
0.918596088886261 -0.004506092518568039 1.3474113941192627
0.9606795310974121 -0.001016516238451004 1.316102147102356
1.150768518447876 0.05095013976097107 1.2427690029144287
-1.1913121938705444 0.15860334038734436 1.0516762733459473
-1.2122347354888916 0.15052354335784912 1.017791748046875
-1.214020848274231 0.16489194333553314 1.0182350873947144
-1.0297882556915283 0.13381746411323547 1.1628413200378418
-1.0125797986984253 0.10751815140247345 1.0753687620162964
-0.9741132259368896 0.08447179198265076 1.0994418859481812
-0.32994964718818665 0.05677145719528198 1.2386326789855957
-0.16311660408973694 -0.008689943701028824 1.3760557174682617
-0.1536056399345398 0.008249258622527122 1.3669949769973755
0.23194997012615204 -0.012025871314108372 1.3062784671783447
0.27647408843040466 -0.1532191038131714 1.7226322889328003
0.48303091526031494 -0.10552145540714264 1.7301647663116455
0.5129430294036865 -0.12961125373840332 1.7548224925994873
0.5926074981689453 -0.10033252835273743 1.7124454975128174
0.846463680267334 0.005042808596044779 1.5712828636169434
0.8531619906425476 -0.0031970124691724777 1.6186949014663696
0.8704604506492615 0.04085305333137512 1.569024920463562
0.8976839184761047 0.021731054410338402 1.5579369068145752
0.9030057787895203 0.03848002851009369 1.5870717763900757
-0.9984239935874939 0.08237709850072861 1.37729811668396
-1.0067596435546875 0.1003781408071518 1.365525245666504
-0.8159347176551819 0.01648569479584694 1.5221517086029053
-0.8081822395324707 0.02853434532880783 1.5025063753128052
-1.1915339231491089 0.22268858551979065 0.9961032271385193
-1.2178397178649902 0.2293630838394165 0.9606740474700928
-1.1332306861877441 0.12088291347026825 1.0080597400665283
-1.0563949346542358 0.1503618359565735 1.119249701499939
-0.9081065058708191 0.09724777936935425 1.2729542255401611
-0.5810018181800842 -0.09109999984502792 1.6736645698547363
0.4096404016017914 0.04058311879634857 1.2740851640701294
0.3810712695121765 -0.03736884146928787 1.509953260421753
0.6777552962303162 0.04122801870107651 1.2991629838943481
0.5906103849411011 0.013419215567409992 1.4034228324890137
0.7928307056427002 0.0518895648419857 1.2810161113739014
0.8524445295333862 0.06352056562900543 1.2594290971755981
0.8094822764396667 0.007380776107311249 1.3121939897537231
1.0679800510406494 0.1043124869465828 1.1510534286499023
1.0899739265441895 0.09581694006919861 1.1469142436981201
1.0925023555755615 0.02758689410984516 1.206092119216919
1.0179269313812256 0.05945931375026703 1.3960483074188232
1.164570927619934 0.1280042678117752 1.231475591659546
-1.217097282409668 0.17269852757453918 0.9821322560310364
-1.222385048866272 0.20909757912158966 0.9329387545585632
-0.6459741592407227 0.14093294739723206 1.1400436162948608
-0.49522194266319275 0.12321941554546356 1.17753005027771
-0.3899999260902405 0.07986384630203247 1.199312686920166
1.12062668800354 0.1105259507894516 1.2396595478057861
1.2819620370864868 0.16282883286476135 1.0622426271438599
1.2874490022659302 0.15456928312778473 1.0834910869598389
-1.0288739204406738 0.0736413225531578 1.1106077432632446
-1.0367813110351562 0.1415742039680481 1.0391831398010254
-1.068268060684204 0.1413421928882599 1.001848816871643
0.6586943864822388 -0.07348133623600006 1.6524380445480347
1.282334566116333 0.18221190571784973 1.0805546045303345
1.1394609212875366 0.06847839802503586 1.345717191696167
-0.3943803906440735 0.05634250491857529 1.3249611854553223
1.0541640520095825 0.05750402808189392 1.4074527025222778
-0.9768670201301575 0.13378959894180298 1.0883570909500122
1.2127643823623657 0.07024939358234406 1.0553202629089355
1.05544114112854 0.05557400733232498 1.391046404838562
-1.0559771060943604 0.06580136716365814 1.0793112516403198
-0.45818281173706055 -0.03649107366800308 0.9066535234451294
-0.46248921751976013 -0.03611243516206741 0.9196217656135559
-0.4455328583717346 -0.06786941736936569 0.9108619689941406
-0.45388561487197876 -0.07203192263841629 0.9195457696914673
-0.4108080565929413 -0.042627450078725815 0.9880595207214355
-0.42194193601608276 -0.048835206776857376 0.960104763507843
-0.413102924823761 -0.016972392797470093 0.9354730844497681
-0.3988567888736725 -0.004185822792351246 0.9784045815467834
-0.4106651246547699 -0.07173046469688416 0.9625067710876465
-0.42145001888275146 -0.10318076610565186 0.9407104849815369
-0.37301501631736755 -0.03458584100008011 1.0612246990203857
-0.39561036229133606 -0.10657911002635956 0.9466239809989929
-0.40828946232795715 -0.057694144546985626 0.9537369608879089
-0.38910001516342163 -0.10302908718585968 0.9894934296607971
-0.3858659267425537 -0.06796763092279434 0.9890390038490295
-0.3574772775173187 -0.005057216621935368 1.0361379384994507
-0.3762480616569519 -0.0551263764500618 0.9913203716278076
-0.3753591775894165 -0.08149586617946625 1.0143511295318604
-0.3729797899723053 -0.06588054448366165 1.0510214567184448
-0.38093477487564087 -0.02908332087099552 1.09877347946167
-0.383583128452301 -0.09491880983114243 1.0788544416427612
-0.3228110671043396 0.01603626273572445 1.1444993019104004
-0.3392534852027893 0.027386561036109924 1.0961978435516357
-0.3668903410434723 -0.05151810124516487 1.1351782083511353
-0.29776322841644287 0.031035521999001503 1.087510585784912
-0.30014562606811523 -0.06173301860690117 1.1975057125091553
-0.3383575975894928 -0.1191578060388565 1.1311569213867188
-0.2904894948005676 0.0339495986700058 1.1387619972229004
-0.25110048055648804 0.01813059113919735 1.1511390209197998
-0.24862736463546753 -0.0048891473561525345 1.2149126529693604
-0.2183162271976471 -0.005957946181297302 1.2175618410110474
-0.21174049377441406 -0.10956703126430511 1.2779628038406372
-0.27918103337287903 -0.11566902697086334 1.1928473711013794
-0.2065863013267517 -0.024781400337815285 1.2675039768218994
-0.2405555546283722 -0.06058705970644951 1.2617902755737305
-0.19257360696792603 -0.04390896111726761 1.3074924945831299
-0.17526954412460327 -0.06361525505781174 1.3443381786346436
-0.16453352570533752 -0.11894657462835312 1.33675217628479
-0.21010234951972961 -0.14322741329669952 1.2214643955230713
-0.20507311820983887 -0.03998744487762451 1.7725882530212402
-0.1713477075099945 0.05727829784154892 1.4250911474227905
-0.14022083580493927 0.06284986436367035 0.8382457494735718
-0.1843135952949524 0.016832470893859863 0.8328051567077637
-0.1532924324274063 -0.06798067688941956 0.855410099029541
-0.19747212529182434 -0.10038354247808456 0.8488423824310303
-0.18600457906723022 -0.021440310403704643 1.6719785928726196
-0.20900186896324158 -0.058763276785612106 1.7989866733551025
-0.17278219759464264 -0.041920848190784454 1.7427411079406738
-0.15668435394763947 -0.0010646134614944458 1.687654972076416
-0.1662319451570511 -0.024199454113841057 1.6329765319824219
-0.12210392951965332 7.276423275470734e-05 1.04229736328125
-0.15859630703926086 -0.05084938928484917 1.002105712890625
-0.15786421298980713 -0.12205016613006592 0.9911956191062927
-0.15784095227718353 -0.04588780552148819 1.5634984970092773
-0.22863706946372986 -0.14762742817401886 0.08371175080537796
-0.23454542458057404 -0.19668741524219513 0.039009660482406616
-0.2356097251176834 -0.22062690556049347 0.04963018745183945
-0.13616900146007538 -0.11440394818782806 1.391641616821289
-0.1298280954360962 -0.05326160788536072 1.348628282546997
-0.11777395009994507 -0.0726361945271492 1.323419451713562
-0.14206603169441223 -0.12648947536945343 1.3757131099700928
-0.11815410107374191 -0.15450182557106018 1.318689227104187
-0.17221049964427948 -0.1858568638563156 0.47651955485343933
-0.17238470911979675 -0.21256424486637115 0.39640745520591736
-0.18355393409729004 -0.16476772725582123 0.33732110261917114
-0.18979321420192719 -0.1887868046760559 0.3644397258758545
-0.16891704499721527 -0.03079298511147499 1.708204984664917
-0.11542562395334244 -0.11000023782253265 1.2819851636886597
-0.12008696049451828 -0.10353145003318787 1.2425727844238281
-0.11906077712774277 -0.1441885530948639 1.2606709003448486
-0.14722324907779694 -0.16435852646827698 1.2534031867980957
-0.17699800431728363 -0.15640053153038025 0.2726019024848938
-0.14079789817333221 -0.11991406977176666 1.5671569108963013
-0.1449284553527832 -0.03618992865085602 1.5628020763397217
-0.14388605952262878 -0.07473797351121902 1.557613492012024
-0.14403992891311646 -0.21789997816085815 0.5715792179107666
-0.11032712459564209 -0.04260836914181709 1.8114513158798218
-0.10130175203084946 -0.13811123371124268 1.2019243240356445
-0.10780926048755646 -0.04393725469708443 1.1699492931365967
-0.10919245332479477 -0.17754407227039337 0.7607447504997253
-0.12694524228572845 0.012633759528398514 1.7546645402908325
-0.10677440464496613 -0.14769679307937622 1.3993711471557617
-0.09847675263881683 -0.11429309844970703 0.8444321155548096
-0.1398562639951706 -0.1267123818397522 0.8681838512420654
-0.12302899360656738 -0.2022293508052826 0.9125115871429443
-0.10477326810359955 -0.2182769775390625 0.8534915447235107
-0.206839919090271 -0.25559717416763306 0.05914837867021561
-0.08819041401147842 0.041036322712898254 1.751112937927246
-0.1068236455321312 -0.031054526567459106 1.7947521209716797
-0.1390376091003418 -0.09960149228572845 1.4594979286193848
-0.11785130202770233 -0.1234198808670044 1.5192292928695679
-0.14700672030448914 -0.14516030251979828 0.332378089427948
-0.17272932827472687 -0.15098653733730316 0.24372893571853638
-0.20015349984169006 -0.26149123907089233 0.09669391065835953
-0.17922472953796387 -0.0814264565706253 0.11148817837238312
-0.09362508356571198 -0.0645480528473854 1.3308459520339966
-0.12417726963758469 -0.24375951290130615 0.5475817322731018
-0.16308023035526276 -0.20574484765529633 0.019655197858810425
-0.20312555134296417 -0.2086212933063507 0.01234511286020279
-0.10422571003437042 -0.03896043449640274 1.5785853862762451
-0.09956293553113937 -0.07754361629486084 1.536452293395996
-0.02465612068772316 -0.2209935486316681 0.9041623473167419
-0.09147487580776215 0.08632898330688477 0.8448605537414551
-0.17679396271705627 -0.2644273340702057 0.2774122655391693
-0.15418455004692078 -0.2333783507347107 0.19090457260608673
-0.15904590487480164 -0.10206013172864914 0.15055784583091736
-0.0795043557882309 -0.05059453845024109 1.2997851371765137
-0.08736099302768707 -0.061283908784389496 1.2552505731582642
-0.043036896735429764 -0.18455438315868378 1.2988462448120117
-0.10904829204082489 -0.13419564068317413 0.6423152089118958
-0.09004997462034225 -0.18183699250221252 0.7567870616912842
-0.061868637800216675 -0.12514550983905792 0.8197168111801147
-0.14349183440208435 -0.2220350056886673 0.15791749954223633
-0.15260440111160278 -0.24446606636047363 0.07013919949531555
-0.09839297831058502 -0.1774909496307373 1.5219414234161377
-0.07904081791639328 -0.06199032440781593 1.3687176704406738
-0.04858603700995445 -0.04381640627980232 1.3078999519348145
-0.09337956458330154 -0.245449036359787 0.5693565607070923
-0.07245767116546631 -0.22777394950389862 0.5694752335548401
-0.10843159258365631 -0.13862885534763336 0.5094004273414612
-0.07398737221956253 -0.16047102212905884 1.4816560745239258
-0.05329335853457451 -0.11223968118429184 1.4487336874008179
-0.0957266166806221 -0.056133344769477844 1.418731451034546
-0.0809674859046936 -0.17406773567199707 0.5168190002441406
-0.05969572439789772 -0.008036553859710693 1.7986583709716797
-0.0902104526758194 -0.21393518149852753 1.670997142791748
-0.016292709857225418 -0.193460613489151 0.9929283857345581
-0.05477777495980263 -0.12513282895088196 1.4705479145050049
-0.028126204386353493 -0.1545565128326416 1.4527462720870972
-0.05283017456531525 -0.13673001527786255 1.437689185142517
-0.028717393055558205 -0.2044040858745575 1.6015965938568115
-0.07251770794391632 -0.20575831830501556 1.5413861274719238
-0.033209383487701416 -0.08777181059122086 1.4855180978775024
-0.06293106824159622 -0.16476325690746307 0.6292725801467896
-0.001476440578699112 -0.0496281273663044 1.824087381362915
-0.04501651972532272 0.06486689299345016 1.7173755168914795
-0.014404980465769768 -0.22321996092796326 1.5474913120269775
-0.03403884544968605 -0.20512591302394867 1.4873180389404297
-0.014332609251141548 -0.09437134861946106 1.4507158994674683
-0.005204588174819946 -0.20435380935668945 1.4882889986038208
0.015132101252675056 -0.06217203661799431 1.430585265159607
-0.006754957139492035 -0.04793103411793709 1.2996294498443604
-0.010131299495697021 0.010401766747236252 1.794561743736267
0.009420759975910187 -0.0948210135102272 1.490811824798584
0.008755968883633614 -0.14765092730522156 1.470811367034912
0.019597742706537247 0.03760180622339249 1.750138521194458
0.011460421606898308 -0.033560726791620255 1.8045134544372559
0.008115637116134167 -0.14259107410907745 1.443392276763916
0.054492250084877014 -0.16071221232414246 1.5116972923278809
0.01375473104417324 -0.11673197150230408 1.455561637878418
0.06807636469602585 -0.10742886364459991 0.5794764757156372
0.03747783601284027 -0.052042894065380096 1.5239816904067993
0.10483254492282867 -0.09965924173593521 0.5023266673088074
0.039308130741119385 -0.20317843556404114 1.2458267211914062
0.07858668267726898 -0.060032520443201065 1.27639639377594
0.07903732359409332 -0.05247003212571144 1.1507606506347656
0.15588293969631195 0.10093748569488525 0.12617065012454987
0.18387503921985626 0.12205389142036438 0.12439609318971634
0.1352873295545578 0.16481751203536987 0.22435730695724487
0.05328517407178879 -0.17790751159191132 1.2393180131912231
0.04498472809791565 -0.1960536539554596 1.1649154424667358
0.0611543282866478 -0.14740797877311707 0.7163311839103699
0.13450461626052856 0.15074744820594788 0.17598119378089905
0.0661194697022438 -0.03274654224514961 1.7597310543060303
0.04955450817942619 -0.20051148533821106 1.6824671030044556
0.041629381477832794 -0.18607380986213684 1.5903860330581665
0.04192738234996796 -0.1935817301273346 1.5405840873718262
0.08984434604644775 -0.15410248935222626 0.8573840260505676
0.1227932721376419 -0.032773956656455994 1.7920596599578857
0.04347027465701103 -0.050802215933799744 1.5795538425445557
0.04462818428874016 -0.0755005031824112 1.551847219467163
0.13396848738193512 0.045682571828365326 0.3871005177497864
0.13108722865581512 0.07884655147790909 0.34183526039123535
0.15176606178283691 0.17970749735832214 0.21695789694786072
0.062165819108486176 -0.05339541658759117 1.8535470962524414
0.09308454394340515 -0.08295543491840363 1.439720630645752
0.096198171377182 -0.21386206150054932 0.8482739925384521
0.07668657600879669 -0.1272960901260376 0.8409907817840576
0.12277906388044357 -0.18808558583259583 0.8413947820663452
0.09190262854099274 -0.0505453422665596 0.7313531637191772
0.2080470472574234 0.10783669352531433 0.12846344709396362
0.07900166511535645 -0.04395274072885513 1.7728825807571411
0.07582683861255646 -0.15140283107757568 1.1373114585876465
0.08634291589260101 -0.17232459783554077 1.2525560855865479
0.09193514287471771 -0.19207334518432617 1.2434461116790771
0.13329468667507172 -0.17980243265628815 0.9092515707015991
0.07998315244913101 -0.12743015587329865 1.6052300930023193
0.07413963973522186 -0.04255036637187004 1.5897846221923828
0.0770483985543251 -0.07188509404659271 1.5781911611557007
0.0874500647187233 -0.08785666525363922 1.5781992673873901
0.09964826703071594 -0.10234492272138596 1.5547072887420654
0.13034740090370178 -0.08373796939849854 0.6374659538269043
0.12493209540843964 -0.14771851897239685 0.6571471691131592
0.11452711373567581 -0.14286968111991882 1.3947639465332031
0.12427190691232681 -0.062418751418590546 1.3619341850280762
0.08101090043783188 -0.06867404282093048 1.3718137741088867
0.09048880636692047 -0.07751534134149551 1.3400609493255615
0.11181111633777618 -0.12074766308069229 0.8113951683044434
0.19781537353992462 0.15651187300682068 0.20416241884231567
0.2138768434524536 0.14516691863536835 0.1909896731376648
0.09159918129444122 -0.049763601273298264 1.7249583005905151
0.12609434127807617 -0.08610977232456207 1.4156864881515503
0.19904103875160217 0.009096525609493256 0.3571668565273285
0.11684398353099823 -0.024762680754065514 1.69595205783844
0.08450867235660553 -0.0003196448087692261 1.6978367567062378
0.10018949210643768 -0.030144190415740013 1.6619446277618408
0.21906736493110657 0.09726440161466599 0.22187981009483337
0.23219242691993713 0.11870241165161133 0.15074047446250916
0.20476281642913818 0.07943658530712128 0.13763751089572906
0.16140662133693695 -0.00522375013679266 0.9419758319854736
0.14356671273708344 -0.012573953717947006 0.8398967385292053
0.12648554146289825 -0.053876761347055435 1.7902716398239136
0.1634349226951599 0.04379069805145264 0.8452399373054504
0.18241849541664124 0.009696774184703827 0.9053151607513428
0.16233113408088684 -0.07422897964715958 1.356877326965332
0.1827586591243744 -0.09399327635765076 1.3332524299621582
0.13160017132759094 -0.13837894797325134 1.3587706089019775
0.19093197584152222 -0.05926305800676346 1.3058546781539917
0.18042820692062378 -0.05278695374727249 1.2831569910049438
0.23729918897151947 -0.14172515273094177 1.2291094064712524
0.21985319256782532 -0.10175742208957672 1.28883957862854
0.23604938387870789 -0.029539231210947037 1.2524495124816895
0.26739028096199036 0.01308729499578476 1.1855697631835938
0.2974225580692291 0.01078391820192337 1.2019753456115723
0.28906556963920593 -0.04368416592478752 1.234330415725708
0.28633713722229004 -0.10578974336385727 1.2247638702392578
0.32342082262039185 0.022150598466396332 1.1485035419464111
0.3834328353404999 -0.05886802077293396 1.1727826595306396
0.3780137002468109 -0.022022157907485962 1.1685577630996704
0.3562520444393158 0.0115145742893219 1.1535838842391968
0.379082053899765 -0.10989977419376373 1.1269536018371582
0.384750634431839 -0.04735539108514786 1.1177852153778076
0.37211304903030396 -0.020225629210472107 1.1144057512283325
0.4830707311630249 -0.020382843911647797 0.9942359924316406
0.37692737579345703 -0.0750163123011589 1.10465407371521
0.3911496698856354 -0.0794844776391983 1.0684568881988525
0.4266204535961151 -0.004261113703250885 1.0398398637771606
0.39414182305336 -0.05372621491551399 1.0515367984771729
0.4086422622203827 -0.08271054923534393 1.0405949354171753
0.43417152762413025 -0.04589487612247467 1.0223816633224487
0.459817111492157 -0.03810074180364609 1.0207366943359375
0.43081003427505493 -0.09184780716896057 1.0031496286392212
0.44915467500686646 -0.06304246932268143 1.007676601409912
0.4400089383125305 -0.07737712562084198 1.0097455978393555
0.48517727851867676 -0.019301563501358032 0.9717374444007874
0.45565569400787354 -0.08262050896883011 0.9928344488143921
0.45358890295028687 -0.023936361074447632 0.987680971622467
0.48269471526145935 -0.05279213935136795 0.9700173139572144
0.4940614104270935 -0.04040452837944031 0.9820109009742737
-0.35607030987739563 -0.005178140010684729 1.064536452293396
-0.355978399515152 -0.07443827390670776 1.0342680215835571
-0.3362776041030884 -0.052464522421360016 1.036016583442688
-0.36386775970458984 -0.11523107439279556 1.0654019117355347
-0.2850472033023834 -0.004541438072919846 1.0635625123977661
-0.33135151863098145 -0.10959677398204803 1.0517618656158447
-0.19061675667762756 -0.04540693387389183 1.2399241924285889
-0.20149089395999908 -0.10666783154010773 1.1966898441314697
-0.1778464913368225 -0.09414581954479218 0.953377366065979
-0.18522530794143677 -0.011181289330124855 0.9092773199081421
-0.1372663378715515 0.05007185414433479 0.908470094203949
-0.17224165797233582 0.14337444305419922 1.2541427612304688
-0.1717551052570343 0.15229444205760956 1.1873087882995605
-0.17857426404953003 0.18421056866645813 1.1545850038528442
-0.1613743007183075 -0.009698417969048023 0.9467439651489258
-0.2152799814939499 -0.06441985070705414 1.7665390968322754
-0.13833659887313843 -0.07095763087272644 1.3656513690948486
-0.15961234271526337 -0.048380326479673386 1.300931692123413
-0.1036844551563263 0.21293312311172485 1.0425323247909546
-0.14019104838371277 0.2277035266160965 0.9525554180145264
-0.23248054087162018 -0.17293015122413635 0.13262376189231873
-0.24143093824386597 -0.21191957592964172 0.07689668983221054
-0.1833600103855133 -0.06937674432992935 1.747328281402588
-0.16953164339065552 -0.053576093167066574 1.6868665218353271
-0.1302424669265747 -0.1787099987268448 1.2237714529037476
-0.13066533207893372 -0.18928968906402588 1.1920279264450073
-0.1355598121881485 -0.21066397428512573 1.182350993156433
-0.15380024909973145 0.07915394753217697 1.3881911039352417
-0.1414816826581955 0.07414024323225021 1.3833884000778198
-0.10650042444467545 -0.1823735237121582 1.2442704439163208
-0.1280292272567749 -0.0837666317820549 1.2133374214172363
-0.20545680820941925 -0.21633747220039368 0.18701882660388947
-0.2106807678937912 -0.1795995980501175 0.2131395936012268
-0.11099529266357422 0.13255581259727478 1.2452099323272705
-0.14386223256587982 -0.11419703811407089 1.4733211994171143
-0.1429062932729721 -0.10821375250816345 1.4471309185028076
-0.12849226593971252 -0.10293733328580856 1.4229621887207031
-0.14427806437015533 -0.10200649499893188 1.4239546060562134
-0.1406661719083786 -0.11746639013290405 1.405327320098877
-0.134050652384758 -0.135770782828331 0.7926944494247437
-0.1491500735282898 -0.10691148042678833 0.7686951160430908
-0.10900388658046722 0.27811214327812195 1.0521012544631958
-0.10926125943660736 0.2641489505767822 1.1089473962783813
-0.09730954468250275 -0.1691354364156723 1.2437903881072998
-0.12450067698955536 -0.10336359590291977 0.8557513952255249
-0.2057289481163025 -0.11049074679613113 0.15333566069602966
-0.21238474547863007 -0.10194201022386551 0.11595951020717621
-0.13892951607704163 -0.18837681412696838 0.8540989756584167
-0.1261518895626068 0.20380671322345734 1.2251389026641846
-0.13685354590415955 -0.18741613626480103 1.6654536724090576
-0.1261199712753296 -0.060359761118888855 1.560805082321167
-0.11608592420816422 0.047122012823820114 1.5289952754974365
-0.10540632903575897 0.00216544046998024 1.5862586498260498
-0.12809601426124573 -0.0035479888319969177 1.5604562759399414
-0.12444831430912018 0.03454689681529999 1.4753602743148804
-0.07495829463005066 0.08469696342945099 1.5699012279510498
-0.10557413846254349 -0.10506486147642136 1.5131357908248901
-0.09652820229530334 0.04451156035065651 0.9682097434997559
-0.1424749344587326 -0.0598912239074707 1.8551737070083618
-0.15293577313423157 -0.0673130601644516 1.8489792346954346
-0.15495267510414124 -0.08135908842086792 1.8366625308990479
-0.03384775668382645 0.04757701978087425 1.4557642936706543
-0.11464902758598328 0.09363897144794464 1.4373970031738281
-0.14509445428848267 -0.1532285511493683 0.06771954894065857
-0.07750466465950012 0.15951921045780182 1.3684110641479492
-0.09537770599126816 -0.1863347887992859 1.5714001655578613
-0.12351363152265549 -0.2148333638906479 0.3993382155895233
-0.0689048320055008 0.014745872467756271 1.5213299989700317
-0.07602185755968094 -0.04952670633792877 1.5097929239273071
-0.062315791845321655 0.10831145197153091 1.4845707416534424
-0.04356616735458374 0.053195782005786896 0.8428802490234375
-0.13013021647930145 -0.15626269578933716 0.3504331707954407
-0.04996132850646973 0.266954630613327 0.9519151449203491
-0.03771418705582619 0.04318089783191681 1.0355077981948853
-0.0731155127286911 -0.19655609130859375 1.2401831150054932
-0.07119124382734299 -0.1657063364982605 1.1493651866912842
-0.1184174045920372 -0.1839132159948349 0.3306698501110077
-0.10483969748020172 -0.19810588657855988 0.27296093106269836
-0.13330692052841187 -0.15263597667217255 0.27192771434783936
-0.06419067084789276 -0.01392221450805664 1.5444566011428833
-0.05233159288764 -0.19148966670036316 0.701266884803772
-0.0822460949420929 -0.1387905329465866 0.638792872428894
-0.0486767515540123 0.2852465808391571 1.0972399711608887
-0.04344889149069786 0.29515203833580017 1.0042136907577515
-0.017637290060520172 -0.20097029209136963 1.1685922145843506
-0.12824055552482605 -0.1624700427055359 0.1465749740600586
-0.04184608533978462 0.23838430643081665 0.9960943460464478
-0.04556426405906677 0.20450428128242493 1.0357807874679565
0.00689220055937767 0.00914500467479229 1.5309183597564697
-0.05959878861904144 -0.16680945456027985 1.3932745456695557
-0.018946368247270584 0.18401168286800385 1.3439956903457642
0.020678654313087463 0.05240704119205475 1.4417226314544678
0.002521481364965439 -0.014472227543592453 1.5361090898513794
0.01963765174150467 0.24126844108104706 1.0039947032928467
0.04175286367535591 0.24205872416496277 0.9536985158920288
0.003943109884858131 -0.17920821905136108 1.383948564529419
0.011485075578093529 0.046003326773643494 1.028802514076233
0.003524973290041089 -0.19858743250370026 1.1107827425003052
0.06602136790752411 0.1630506068468094 1.3678196668624878
0.03390345349907875 -0.042677007615566254 1.3189350366592407
0.050943534821271896 0.10255637764930725 1.4893815517425537
0.026425974443554878 0.04126247018575668 1.4873535633087158
0.05014384537935257 -0.03390855714678764 1.225494384765625
0.0396561361849308 0.10180734097957611 0.9104064702987671
0.017173459753394127 -0.08438824117183685 1.7897998094558716
0.12661044299602509 0.105538509786129 0.15186180174350739
0.13133978843688965 0.12783624231815338 0.1368803083896637
0.11340369284152985 0.1327361911535263 0.20444084703922272
-0.0006586126983165741 -0.21635842323303223 1.6770439147949219
0.06242207810282707 -0.07302562892436981 0.6960024833679199
0.0935586541891098 0.04656317085027695 1.456880807876587
0.05853203311562538 -0.11897566169500351 1.5191266536712646
0.1061268076300621 -0.11631602048873901 1.4500203132629395
0.05487508326768875 -0.07679252326488495 1.4277997016906738
0.10982511937618256 0.011545233428478241 0.4354279041290283
0.1339501440525055 -0.00613267719745636 0.2689150869846344
0.144800066947937 0.09336152672767639 0.3027362823486328
0.10018246620893478 0.24136130511760712 1.010660171508789
0.08448778837919235 0.2774873375892639 0.9759292602539062
0.09481082856655121 -0.1523832082748413 0.7301837205886841
0.10516864061355591 -0.07045891135931015 0.6443164348602295
0.024444302543997765 -0.13806244730949402 1.7800196409225464
0.072629913687706 -0.13851580023765564 1.7365143299102783
0.11775410175323486 -0.13298776745796204 0.5349504947662354
0.03835228830575943 -0.07556962221860886 1.8038572072982788
0.06911231577396393 -0.08532848209142685 1.7513726949691772
0.09363817423582077 -0.08035352826118469 1.1411585807800293
0.09778125584125519 -0.06706361472606659 1.1097627878189087
0.09083724021911621 -0.1444089412689209 1.0923457145690918
0.0630747377872467 -0.1823374330997467 1.6721373796463013
0.07442088425159454 -0.10813583433628082 1.5535399913787842
0.0678093284368515 -0.15643200278282166 1.557583212852478
0.1466473639011383 0.2365393191576004 0.9649315476417542
0.10669146478176117 -0.14352674782276154 1.2889277935028076
0.12568122148513794 -0.19936922192573547 1.2287485599517822
0.11005152761936188 -0.11561881005764008 1.2428568601608276
0.19294410943984985 0.11551126837730408 0.2617442309856415
0.1782817244529724 0.03641034662723541 0.21906404197216034
0.19912810623645782 0.05150000751018524 0.21065038442611694
0.08207988739013672 -0.05918676778674126 1.7729806900024414
0.12077774107456207 -0.16145281493663788 1.2837787866592407
0.18301323056221008 -0.010660476982593536 0.4732564687728882
0.16015595197677612 -0.08011516183614731 0.49473729729652405
0.19271090626716614 -0.001340862363576889 0.42081472277641296
0.1238342896103859 -0.13346174359321594 1.4382277727127075
0.10803370177745819 -0.1297513246536255 1.4333635568618774
0.13216835260391235 -0.09695170074701309 1.403684139251709
0.11867672204971313 0.07171720266342163 0.9061842560768127
0.11825527250766754 -0.11362260580062866 0.8386803865432739
0.21497735381126404 0.05262908339500427 0.32175764441490173
0.2239437848329544 0.024204276502132416 0.3133304715156555
0.1402178257703781 -0.08478778600692749 1.3989486694335938
0.15465259552001953 0.1264514923095703 1.271222710609436
0.1572575569152832 0.1621716469526291 1.2449668645858765
0.1431988924741745 -0.23989978432655334 1.1057724952697754
0.1638668030500412 -0.050139643251895905 0.97281813621521
0.16641077399253845 -0.11110382527112961 0.9635493755340576
0.19709733128547668 -0.022167500108480453 1.2390105724334717
0.3064579665660858 -0.07119016349315643 1.0980815887451172
0.3017459511756897 -0.014520831406116486 1.1039724349975586
0.32436224818229675 -0.13534121215343475 1.1450039148330688
-0.34038251638412476 -0.012703998945653439 1.0333431959152222
-0.36684346199035645 -0.07584267109632492 0.9990620017051697
-0.2679109275341034 -0.11202540993690491 1.1086745262145996
-0.2807314097881317 -0.13543319702148438 1.154639720916748
-0.22869978845119476 -0.07488603889942169 1.1337474584579468
-0.21480408310890198 -0.03137645125389099 1.1684401035308838
-0.19331873953342438 -0.15027806162834167 0.871535062789917
-0.17571568489074707 0.21844513714313507 0.9980977773666382
-0.17596980929374695 0.18429410457611084 1.110467791557312
-0.1436389535665512 -0.25324368476867676 1.0702623128890991
-0.13788169622421265 -0.1611907035112381 0.9566898345947266
-0.21964924037456512 -0.19959065318107605 0.2912429869174957
-0.1975775957107544 -0.24630704522132874 0.30512839555740356
-0.14671184122562408 -0.14487071335315704 0.4971199631690979
-0.149754136800766 -0.19449540972709656 0.8605906963348389
-0.13757990300655365 -0.1737685352563858 0.6242332458496094
-0.13358813524246216 -0.18333426117897034 0.6926896572113037
-0.12328633666038513 -0.1217033714056015 0.6747441291809082
-0.10500124096870422 -0.01193932257592678 1.1095572710037231
-0.09663588553667068 -0.07921339571475983 1.1300151348114014
-0.08738639950752258 0.24179664254188538 1.188117265701294
-0.11557476222515106 -0.016453631222248077 0.8326775431632996
-0.15435564517974854 -0.2564578056335449 0.31774646043777466
-0.10425354540348053 -0.04443986713886261 1.2194900512695312
-0.08738531172275543 -0.03802749142050743 1.1447893381118774
-0.13875994086265564 -0.23461222648620605 0.45017778873443604
-0.14245004951953888 -0.07880984246730804 1.7692683935165405
-0.1407833993434906 -0.11818749457597733 1.7583788633346558
-0.09106700122356415 -0.15109574794769287 1.7749848365783691
-0.10360615700483322 -0.19284990429878235 1.7349178791046143
-0.11764594912528992 -0.18733209371566772 1.6279795169830322
-0.12979719042778015 -0.21622928977012634 0.34724506735801697
-0.05556388199329376 -0.1667146384716034 0.7548291087150574
-0.10812996327877045 -0.22657597064971924 0.2791863977909088
-0.12672224640846252 -0.25286880135536194 0.28415995836257935
-0.1386343538761139 -0.1589362919330597 0.23694300651550293
-0.058688804507255554 0.06720072031021118 0.9594948291778564
-0.09270814061164856 -0.06087758019566536 1.8145291805267334
-0.10914129763841629 -0.0767987072467804 1.8024852275848389
0.01695147529244423 0.1780538707971573 1.1680203676223755
-0.08716189861297607 0.1733596920967102 1.1695034503936768
-0.006182195618748665 0.1521569788455963 1.2311872243881226
0.01670517958700657 -0.05295100435614586 1.2628093957901
-0.005002131685614586 0.24039365351200104 1.2229869365692139
0.005346230231225491 0.21534110605716705 1.041637897491455
0.06224023923277855 0.27645552158355713 1.136082649230957
0.009936733171343803 0.06664156913757324 1.6876649856567383
0.0471251979470253 0.20696189999580383 1.0491154193878174
0.049432698637247086 -0.21749797463417053 0.8987258672714233
0.10047472268342972 0.02104160562157631 0.30015501379966736
0.12013109773397446 0.0434156134724617 0.2547534704208374
0.05722769722342491 -0.1400660276412964 0.6835195422172546
0.039875492453575134 0.02253718301653862 1.0644863843917847
0.08364229649305344 -0.06848239153623581 0.5715663433074951
0.07922688126564026 0.12217158824205399 1.3020350933074951
0.08172805607318878 -0.1589236855506897 1.4078762531280518
0.048736974596977234 0.05507703125476837 1.6493370532989502
0.05269123613834381 -0.025068208575248718 1.619624376296997
0.05359720066189766 -0.003978155553340912 1.592663049697876
0.03148803859949112 -0.07047072052955627 1.8539719581604004
0.08637885749340057 -0.16175049543380737 1.3287028074264526
0.1498371809720993 -0.01948855072259903 0.5325341820716858
0.11705178022384644 -0.005566343665122986 0.5317131876945496
0.15269751846790314 0.04667371138930321 0.40781259536743164
0.17794978618621826 0.05281798914074898 0.38355058431625366
0.0987989753484726 -0.10049086064100266 1.5429151058197021
0.08546638488769531 -0.11160464584827423 1.5538254976272583
0.1002783253788948 -0.10457802563905716 1.5365155935287476
0.12489262968301773 -0.06351609528064728 0.7479782104492188
0.14223501086235046 -0.11430203914642334 0.6261745095252991
0.12527188658714294 0.032817576080560684 0.9459636807441711
0.1274733543395996 -0.05879233777523041 1.081961750984192
0.12241671979427338 -0.11393911391496658 1.0723984241485596
0.1290806084871292 -0.14026027917861938 1.0167663097381592
0.09452983736991882 -0.05740955471992493 1.6677041053771973
0.1091979444026947 -0.06115712225437164 1.5768589973449707
0.11812718212604523 -0.18128639459609985 1.2150969505310059
0.11638320982456207 0.018544387072324753 1.5626509189605713
0.10772104561328888 -0.013231072574853897 1.6032975912094116
0.2142711877822876 0.1404595673084259 0.21072997152805328
0.2284468412399292 0.12590554356575012 0.18126705288887024
0.12954357266426086 0.006296452134847641 1.5230484008789062
0.1346597671508789 0.028734393417835236 1.4940353631973267
0.14581987261772156 0.036341793835163116 1.448108196258545
0.14268867671489716 0.05825141817331314 1.4305378198623657
0.13787755370140076 -0.2500758767127991 1.123840093612671
0.17096824944019318 -0.1493244767189026 0.8454289436340332
0.15200358629226685 -0.2259756177663803 1.1457011699676514
0.15254811942577362 -0.25122666358947754 1.1268088817596436
0.19884945452213287 -0.10617117583751678 0.8603708744049072
0.1996016949415207 -0.08591923862695694 0.8402262926101685
0.21028131246566772 -0.050827786326408386 0.8496342897415161
-0.2363363802433014 -0.13312295079231262 1.1702159643173218
-0.16200041770935059 -0.15451017022132874 1.2462824583053589
-0.17463381588459015 -0.1490991711616516 1.2295153141021729
-0.16337178647518158 -0.14130452275276184 1.2391489744186401
-0.15641510486602783 -0.1438468098640442 1.2576727867126465
-0.20453497767448425 0.0027424991130828857 0.8408293128013611
-0.12633544206619263 -0.10854139924049377 1.2886935472488403
-0.1397981494665146 -0.06417685747146606 1.0828940868377686
-0.15641191601753235 0.023082014173269272 1.5668221712112427
-0.126095712184906 -0.1099918931722641 1.1964442729949951
-0.129176527261734 -0.0882951021194458 1.1472002267837524
-0.13169357180595398 0.05280401557683945 1.4604496955871582
-0.12593550980091095 0.0637449100613594 1.4111404418945312
-0.11726368963718414 -0.14426450431346893 1.0461598634719849
-0.08455530554056168 -0.17287111282348633 1.005959391593933
-0.12865546345710754 -0.06223083287477493 0.7535008788108826
-0.08585698902606964 0.2033807933330536 1.2671005725860596
-0.09910713136196136 0.06560477614402771 1.6624435186386108
-0.13611526787281036 -0.11017139256000519 0.1064499020576477
-0.15031130611896515 -0.09448395669460297 0.1016865149140358
-0.08947686851024628 0.024773770943284035 0.8465890288352966
-0.014370173215866089 0.09901604056358337 0.8389018774032593
-0.06440649181604385 -0.01934174820780754 0.828141450881958
