-0.1087319478392601 -0.09221010655164719 1.4171767234802246
-0.09465616941452026 -0.12320771813392639 0.8367459774017334
-0.13755206763744354 -0.13589119911193848 0.8564148545265198
-0.12334541976451874 -0.20401978492736816 0.9112750291824341
-0.10333022475242615 -0.2197607159614563 0.8490861654281616
-0.11895094066858292 -0.1441071480512619 0.04996360465884209
-0.07541956752538681 0.12502142786979675 1.7310545444488525
-0.09440334886312485 0.06058069318532944 1.7859835624694824
-0.140016570687294 -0.036839500069618225 1.4640984535217285
-0.11192205548286438 -0.05605630576610565 1.5234543085098267
-0.09041211754083633 0.023917095735669136 0.297863632440567
-0.1054106205701828 0.02583920955657959 0.18206638097763062
-0.11593596637248993 -0.1259610652923584 0.08513715863227844
-0.0964358001947403 0.08100953698158264 0.00775676965713501
-0.09567160904407501 -0.026153048500418663 1.333750605583191
-0.09116864949464798 -0.1121068075299263 0.5050948262214661
-0.07040999084711075 -0.11886785924434662 -0.02025136724114418
-0.10914544761180878 -0.12811720371246338 -0.0275473240762949
-0.0932883620262146 0.027747254818677902 1.57566499710083
-0.0932311937212944 -0.011677782982587814 1.536155104637146
-0.02894093655049801 -0.21919283270835876 0.9139823317527771
-0.08883283287286758 0.08707527816295624 0.8563981652259827
-0.1089625433087349 -0.09131255000829697 0.21519732475280762
-0.07814852893352509 -0.0664670467376709 0.13910189270973206
-0.07776418328285217 0.07026013731956482 0.06450651586055756
-0.0833972692489624 -0.017552565783262253 1.3004976511001587
-0.09288812428712845 -0.033742450177669525 1.258965253829956
-0.04571903496980667 -0.15060822665691376 1.3268414735794067
-0.08661358803510666 -0.042855728417634964 0.6358810663223267
-0.07510314881801605 -0.1370447427034378 0.7144858241081238
-0.0545036718249321 -0.12259720265865326 0.8032622337341309
-0.06252303719520569 -0.060184258967638016 0.10797712206840515
-0.0638241097331047 -0.12555624544620514 0.05598779767751694
-0.09558902680873871 -0.11065790057182312 1.5269066095352173
-0.07788749039173126 -0.0155272725969553 1.3705374002456665
-0.05235965922474861 -0.011192183941602707 1.3067843914031982
-0.06187139451503754 -0.11765539646148682 0.5311329364776611
-0.040446676313877106 -0.09729445725679398 0.5371056199073792
-0.07414639741182327 0.004007096402347088 0.48705440759658813
-0.07198289781808853 -0.09908317029476166 1.487423300743103
-0.050820834934711456 -0.05146859958767891 1.4568216800689697
-0.09027086943387985 -0.0032279714941978455 1.415984869003296
-0.046232301741838455 -0.03219690918922424 0.49197083711624146
-0.04956899210810661 0.08538183569908142 1.7876185178756714
-0.08786220103502274 -0.13980770111083984 1.6776041984558105
-0.0272231288254261 -0.19084428250789642 1.0010590553283691
-0.05215202644467354 -0.06254296749830246 1.4763076305389404
-0.02727917768061161 -0.09516867995262146 1.46184504032135
-0.05165712162852287 -0.07940080761909485 1.4478434324264526
-0.027297304943203926 -0.13627180457115173 1.6045737266540527
-0.06958034634590149 -0.14015038311481476 1.5469427108764648
-0.02872818522155285 -0.027939729392528534 1.485774040222168
-0.0386992022395134 -0.06140792369842529 0.6155720353126526
0.009667066857218742 0.04237937182188034 1.817360520362854
-0.028178155422210693 0.142612487077713 1.6932125091552734
-0.014580314978957176 -0.15962526202201843 1.5525532960891724
-0.030544068664312363 -0.1422172337770462 1.4942923784255981
-0.012658240273594856 -0.034941166639328 1.4577223062515259
-0.002734307199716568 -0.1445639431476593 1.4951341152191162
0.016997694969177246 -0.00948907807469368 1.431545615196228
-0.009829312562942505 -0.015846412628889084 1.299196481704712
0.002492547035217285 0.0988975241780281 1.7785193920135498
0.01324767991900444 -0.03513708338141441 1.4925798177719116
0.01156594604253769 -0.08824127912521362 1.4780491590499878
0.03526276350021362 0.11338874697685242 1.7304363250732422
0.02234596200287342 0.05248403549194336 1.7956849336624146
0.011125072836875916 -0.08454126864671707 1.4549036026000977
0.056465983390808105 -0.09924072027206421 1.5146801471710205
0.017860645428299904 -0.05854067951440811 1.4641609191894531
0.028251491487026215 -0.11228431761264801 0.5734106302261353
0.04271981120109558 0.006403155624866486 1.5206979513168335
0.05442510545253754 -0.1424337923526764 0.48770466446876526
0.03341721370816231 -0.1813884675502777 1.2763426303863525
0.0747116431593895 -0.037043310701847076 1.2777683734893799
0.07294155657291412 -0.05066859722137451 1.1536375284194946
0.03948228061199188 -0.2574329674243927 0.09889597445726395
0.06503085047006607 -0.2753061354160309 0.07247184962034225
0.05090177059173584 -0.06152389198541641 0.006157496944069862
0.04673866555094719 -0.15623056888580322 1.264329195022583
0.038087815046310425 -0.1865551769733429 1.1867444515228271
0.0438273660838604 -0.15172208845615387 0.7197603583335876
0.038544006645679474 -0.1636611968278885 -0.023060264065861702
0.07476937025785446 0.04610305279493332 1.7496185302734375
0.05128125846385956 -0.1311880499124527 1.6844309568405151
0.04303893446922302 -0.12362608313560486 1.5909100770950317
0.0420905202627182 -0.1324031949043274 1.541102409362793
0.09373041987419128 -0.15821638703346252 0.8615195155143738
0.13213765621185303 0.04266803711652756 1.7808096408843994
0.05118855461478233 0.009715545922517776 1.5729260444641113
0.05073177069425583 -0.014933750033378601 1.5472317934036255
0.0677485391497612 -0.07071741670370102 0.2934037744998932
0.05944899842143059 -0.06265237182378769 0.2312191128730774
0.06567702442407608 -0.06258532404899597 -0.026447279378771782
0.07400618493556976 0.0365082286298275 1.8458805084228516
0.09522697329521179 -0.03340568393468857 1.435365080833435
0.09677544236183167 -0.21697282791137695 0.8539854288101196
0.07982956618070602 -0.12927226722240448 0.8452006578445435
0.12671655416488647 -0.19305568933486938 0.8453210592269897
0.07722105085849762 -0.049893155694007874 0.7273063063621521
0.08587328344583511 -0.26881143450737 0.08843091130256653
0.0909818559885025 0.03527496010065079 1.7649091482162476
0.06802895665168762 -0.15095651149749756 1.1531710624694824
0.07709129899740219 -0.15250709652900696 1.2783827781677246
0.08067113906145096 -0.17396777868270874 1.27241051197052
0.1364734023809433 -0.18632355332374573 0.9164741635322571
0.08504301309585571 -0.06634754687547684 1.6026394367218018
0.08185769617557526 0.016375917941331863 1.5835821628570557
0.0853252112865448 -0.013050992041826248 1.5757895708084106
0.09150871634483337 -0.02727840468287468 1.5752665996551514
0.10148821771144867 -0.04604003578424454 1.5515952110290527
0.10047414153814316 -0.08631889522075653 0.6228520274162292
0.09794752299785614 -0.1498243808746338 0.6477258801460266
0.12387200444936752 -0.09744317084550858 1.4053632020950317
0.1266872137784958 -0.025511588901281357 1.3564929962158203
0.0850069671869278 -0.02855895459651947 1.3705668449401855
0.09242363274097443 -0.044740352779626846 1.3443748950958252
0.11103586852550507 -0.1225196048617363 0.810682475566864
0.11069302260875702 -0.11055958271026611 -0.022869624197483063
0.12321765720844269 -0.1603213995695114 -0.02185051515698433
0.09935837984085083 0.02135293185710907 1.7182297706604004
0.12927305698394775 -0.04450856149196625 1.4109365940093994
0.1264110803604126 -0.12443562597036362 0.2770094573497772
0.12533551454544067 0.04259597137570381 1.6875146627426147
0.09263290464878082 0.06830205023288727 1.684767246246338
0.10914698243141174 0.036612410098314285 1.654099464416504
0.1267821192741394 -0.13961142301559448 0.07902936637401581
0.11981344223022461 -0.2384268045425415 0.0574149526655674
0.09258919954299927 -0.24613116681575775 0.11104682832956314
0.16942793130874634 -0.008667194284498692 0.9473367929458618
0.14926768839359283 -0.014737707562744617 0.8420283198356628
0.13516296446323395 0.02581004425883293 1.7816060781478882
0.16924822330474854 0.040179550647735596 0.8485815525054932
0.1920514702796936 0.0062478575855493546 0.9094874858856201
0.16214552521705627 -0.03667575865983963 1.3384886980056763
0.173456072807312 -0.06143795698881149 1.307729959487915
0.13708797097206116 -0.09482339769601822 1.3649276494979858
0.16903463006019592 -0.03080921247601509 1.2732417583465576
0.15083730220794678 -0.028460044413805008 1.2555420398712158
0.18630459904670715 -0.12352703511714935 1.2007224559783936
0.19166067242622375 -0.07231936603784561 1.2537407875061035
0.18663758039474487 -0.01426687091588974 1.195717215538025
0.1855374276638031 0.014473162591457367 1.1127278804779053
0.22149604558944702 0.014303617179393768 1.1188762187957764
0.2326534241437912 -0.02931029349565506 1.1627445220947266
0.22733905911445618 -0.09109463542699814 1.169570803642273
0.2280447632074356 0.014513246715068817 1.0585392713546753
0.2984059453010559 -0.05887637659907341 1.0731947422027588
0.2865177392959595 -0.02412540465593338 1.0648728609085083
0.2604818046092987 0.0070486366748809814 1.051833152770996
0.2749892771244049 -0.12155701965093613 1.0460482835769653
0.275646835565567 -0.0606427863240242 1.0231841802597046
0.2590278089046478 -0.03373296558856964 1.018812894821167
0.3249366283416748 -0.057914022356271744 0.863787055015564
0.2658784091472626 -0.09029628336429596 1.01811945438385
0.2701402008533478 -0.10224060714244843 0.9827565550804138
0.28969231247901917 -0.029432494193315506 0.9252060651779175
0.2587047517299652 -0.07666528970003128 0.960267961025238
0.27212226390838623 -0.10835955291986465 0.9510771036148071
0.287629634141922 -0.0760587602853775 0.9149788618087769
0.307058185338974 -0.06709951907396317 0.902393102645874
0.28664901852607727 -0.1212770864367485 0.9086031913757324
0.2979658842086792 -0.09221567213535309 0.89896160364151
0.2934201657772064 -0.10683473199605942 0.9102334976196289
0.3192237913608551 -0.05673756077885628 0.8436739444732666
0.29941749572753906 -0.11723592877388 0.887122631072998
0.29687365889549255 -0.058397263288497925 0.8726166486740112
0.3232930898666382 -0.09118766337633133 0.8508076071739197
0.33376577496528625 -0.07651021331548691 0.8537344932556152
-0.2503508925437927 0.0010182526893913746 0.9717019200325012
-0.24258026480674744 -0.07083626091480255 0.958369791507721
-0.2232465147972107 -0.05043672025203705 0.9631357192993164
-0.2683556079864502 -0.10284420102834702 0.9921343326568604
-0.17642663419246674 -0.0033401846885681152 1.0008955001831055
-0.22911293804645538 -0.10595987737178802 0.9938079714775085
-0.15002033114433289 -0.019299302250146866 1.2143501043319702
-0.15296146273612976 -0.08592539280653 1.1824029684066772
-0.1850731372833252 -0.10357588529586792 0.9531010389328003
-0.19183363020420074 -0.019530441612005234 0.9180668592453003
-0.13966691493988037 0.04898678883910179 0.9164073467254639
-0.15149614214897156 0.11554943770170212 1.209662675857544
-0.15273696184158325 0.10913732647895813 1.1373200416564941
-0.15468303859233856 0.13637466728687286 1.096592664718628
-0.16746284067630768 -0.014225492253899574 0.9519813060760498
-0.20340709388256073 0.026644155383110046 1.762086033821106
-0.13962797820568085 -0.023775849491357803 1.367874026298523
-0.14826151728630066 -0.014238841831684113 1.2834701538085938
-0.08146429061889648 0.13304321467876434 0.9828185439109802
-0.12253791838884354 0.12017311155796051 0.887458086013794
-0.15100212395191193 -0.011302380822598934 0.06337256729602814
-0.15460196137428284 -0.08687137067317963 0.03351277485489845
-0.17220282554626465 0.016909755766391754 1.7446763515472412
-0.15808333456516266 0.02123429998755455 1.6836342811584473
-0.12054602801799774 -0.15378405153751373 1.2527815103530884
-0.11192281544208527 -0.17093287408351898 1.2251044511795044
-0.11487363278865814 -0.1916981339454651 1.2183985710144043
-0.13652735948562622 0.08179529011249542 1.3570741415023804
-0.12521673738956451 0.0757979080080986 1.351935863494873
-0.10417252779006958 -0.15353360772132874 1.2759050130844116
-0.13217487931251526 -0.06705107539892197 1.2182245254516602
-0.13088789582252502 -0.050181202590465546 0.12825432419776917
-0.1354246586561203 -0.010165274143218994 0.14772586524486542
-0.08903191983699799 0.1027299165725708 1.2033275365829468
-0.14241944253444672 -0.05193392559885979 1.4785319566726685
-0.14170747995376587 -0.047327786684036255 1.4532225131988525
-0.1285528987646103 -0.0466308631002903 1.431531310081482
-0.14363424479961395 -0.04448606073856354 1.4284054040908813
-0.14423443377017975 -0.06109030917286873 1.4151414632797241
-0.12317109107971191 -0.11682102084159851 0.7624946236610413
-0.13640196621418 -0.07768898457288742 0.7539272308349609
-0.08376710116863251 0.19460761547088623 0.9765663146972656
-0.0837252289056778 0.19903576374053955 1.034778118133545
-0.09660320729017258 -0.1452859491109848 1.2721993923187256
-0.12168797105550766 -0.11431317776441574 0.844253659248352
-0.12575720250606537 0.06151357293128967 0.06375852227210999
-0.12844502925872803 0.057521622627973557 0.014694452285766602
-0.13617049157619476 -0.1917261779308319 0.8430038690567017
-0.10263653844594955 0.1695271134376526 1.1683951616287231
-0.13245119154453278 -0.11331311613321304 1.670076608657837
-0.11817388236522675 0.004465796053409576 1.5600041151046753
-0.105291448533535 0.09433671832084656 1.5081231594085693
-0.09494463354349136 0.06313605606555939 1.577254295349121
-0.11867035180330276 0.055219344794750214 1.5515661239624023
-0.11509034782648087 0.06887875497341156 1.4530795812606812
-0.06075857952237129 0.13244295120239258 1.5412380695343018
-0.10096578299999237 -0.03871120512485504 1.51439368724823
-0.0983458161354065 0.04599073901772499 0.9721561074256897
-0.13268613815307617 0.03794476389884949 1.847410798072815
-0.1435125172138214 0.02948930114507675 1.8432681560516357
-0.14612239599227905 0.01905340701341629 1.8331530094146729
-0.023750899359583855 0.06219717487692833 1.4353067874908447
-0.09931585937738419 0.10915478318929672 1.4021596908569336
-0.05697615072131157 -0.02791854925453663 -0.009605862200260162
-0.055848609656095505 0.15533208847045898 1.3196024894714355
-0.09369645267724991 -0.11603730171918869 1.5742350816726685
-0.073322594165802 -0.05912896618247032 0.35814547538757324
-0.05976983532309532 0.062103550881147385 1.512650728225708
-0.07037268579006195 0.009957283735275269 1.5080991983413696
-0.0472712442278862 0.1292695254087448 1.4461419582366943
-0.03926967829465866 0.05203966051340103 0.8560059070587158
-0.07477311044931412 0.01041935384273529 0.3170545995235443
-0.027565263211727142 0.15581367909908295 0.8792034387588501
-0.0316576212644577 0.046768851578235626 1.0358766317367554
-0.07585417479276657 -0.17079304158687592 1.269958257675171
-0.07943544536828995 -0.15711840987205505 1.1674306392669678
-0.06031278520822525 -0.015030449256300926 0.29154592752456665
-0.03840867429971695 -0.021771853789687157 0.22936755418777466
-0.06805220246315002 0.027509529143571854 0.23023372888565063
-0.0541810616850853 0.0466986708343029 1.5395424365997314
-0.03556361049413681 -0.11668291687965393 0.6695567965507507
-0.05792441964149475 -0.04337882623076439 0.634726345539093
-0.022473733872175217 0.21456816792488098 1.0197713375091553
-0.022785834968090057 0.19779610633850098 0.9249048233032227
-0.025470227003097534 -0.18914437294006348 1.1925098896026611
-0.04800593480467796 0.001696636900305748 0.08761948347091675
-0.020401597023010254 0.1405707448720932 0.9272823333740234
-0.02237977460026741 0.11754277348518372 0.9778671264648438
0.015419116243720055 0.05012863129377365 1.521924376487732
-0.0625545009970665 -0.11752556264400482 1.4125171899795532
0.006920573767274618 0.16744518280029297 1.2922282218933105
0.028663771227002144 0.0589180663228035 1.4207878112792969
0.008491186425089836 0.040756408125162125 1.531787395477295
0.045677922666072845 0.1425647735595703 0.9396256804466248
0.05845906212925911 0.1258268654346466 0.8870134949684143
0.00473640114068985 -0.13026049733161926 1.4051828384399414
0.018333720043301582 0.045883916318416595 1.030383825302124
-0.004806901328265667 -0.19690574705600739 1.123685359954834
0.08487296104431152 0.14901255071163177 1.3191859722137451
0.030770745128393173 -0.01094786450266838 1.3156013488769531
0.06389962881803513 0.12048451602458954 1.454769492149353
0.0344320684671402 0.06451108306646347 1.4687700271606445
0.043772656470537186 -0.018715735524892807 1.222855567932129
0.044530779123306274 0.09711651504039764 0.9194213151931763
0.025807702913880348 -0.0016099810600280762 1.7867348194122314
0.017961181700229645 -0.20363521575927734 0.07494093477725983
0.023442242294549942 -0.24194806814193726 0.046949610114097595
0.022153159603476524 -0.11278122663497925 0.04553855210542679
0.0035049840807914734 -0.14490985870361328 1.6821563243865967
0.04164143651723862 -0.0736134722828865 0.6958299875259399
0.1014716625213623 0.057240478694438934 1.4350260496139526
0.06082817167043686 -0.06148899346590042 1.5188865661621094
0.10915912687778473 -0.06305982172489166 1.4510760307312012
0.05732056498527527 -0.025300029665231705 1.4284412860870361
0.05179212614893913 -0.07929763197898865 0.3651924729347229
0.04863212630152702 -0.176174134016037 0.2149537205696106
0.0663619190454483 -0.07884269952774048 0.1691185086965561
0.11954765766859055 0.14326395094394684 0.9445884227752686
0.10638914257287979 0.16754204034805298 0.8993357419967651
0.07896548509597778 -0.15795758366584778 0.7277350425720215
0.07651416212320328 -0.06941209733486176 0.6329047679901123
0.03138728812336922 -0.0583847314119339 1.7797701358795166
0.07885780930519104 -0.06600087881088257 1.73391854763031
0.07307013124227524 -0.15908211469650269 0.5329759120941162
0.04600922390818596 0.01108916848897934 1.7987327575683594
0.07964170724153519 -0.006722941994667053 1.7479606866836548
0.0862683430314064 -0.08037296682596207 1.149111032485962
0.09061481058597565 -0.0708395391702652 1.1175791025161743
0.08273018151521683 -0.1473773717880249 1.10408616065979
0.06675431877374649 -0.11420734971761703 1.672533631324768
0.0775919109582901 -0.05020652338862419 1.55120849609375
0.07091246545314789 -0.0964459553360939 1.5576002597808838
0.167462557554245 0.12486390769481659 0.9018007516860962
0.10050883889198303 -0.11480827629566193 1.3065059185028076
0.11108033359050751 -0.1815071702003479 1.2576470375061035
0.1015077531337738 -0.10106074810028076 1.2552509307861328
0.10625036060810089 -0.08213700354099274 0.10571201890707016
0.08775591850280762 -0.18359661102294922 0.13607320189476013
0.10435265302658081 -0.18016928434371948 0.11784079670906067
0.09249724447727203 0.01898251473903656 1.7681560516357422
0.11304940283298492 -0.13376152515411377 1.3034969568252563
0.1297845095396042 -0.08437119424343109 0.40016838908195496
0.11106487363576889 -0.1320909857749939 0.4597989320755005
0.13084721565246582 -0.10362618416547775 0.3424825072288513
0.1253952980041504 -0.08448828011751175 1.4429965019226074
0.11161528527736664 -0.07841276377439499 1.4383513927459717
0.13173896074295044 -0.05397602543234825 1.3992314338684082
0.1251475065946579 0.06803324073553085 0.910813570022583
0.12342222034931183 -0.11485883593559265 0.841148853302002
0.13904930651187897 -0.10181538760662079 0.21117034554481506
0.14478439092636108 -0.13382881879806519 0.22035019099712372
0.14409171044826508 -0.04393757879734039 1.3922663927078247
0.1734650582075119 0.08558018505573273 1.2356274127960205
0.17993435263633728 0.11728446185588837 1.2000871896743774
0.1146911084651947 -0.2440502941608429 1.1453684568405151
0.16979891061782837 -0.056959182024002075 0.9790314435958862
0.17242169380187988 -0.11698877066373825 0.9713660478591919
0.1448543816804886 -0.008811891078948975 1.1981818675994873
0.19388043880462646 -0.08276648074388504 1.0425045490264893
0.18974412977695465 -0.028125248849391937 1.036703109741211
0.23331113159656525 -0.13844186067581177 1.0887842178344727
-0.22224706411361694 -0.008880910463631153 0.951140284538269
-0.239130899310112 -0.07597902417182922 0.9197490811347961
-0.18483573198318481 -0.10158708691596985 1.075538158416748
-0.22035229206085205 -0.1160135269165039 1.119807243347168
-0.14969368278980255 -0.06689982116222382 1.1065332889556885
-0.1434464454650879 -0.018011119216680527 1.1337509155273438
-0.19127033650875092 -0.15886415541172028 0.8550933003425598
-0.15409427881240845 0.12805041670799255 0.9354437589645386
-0.15613694489002228 0.12467117607593536 1.0557867288589478
-0.09752698242664337 -0.25489795207977295 1.1161284446716309
-0.14542518556118011 -0.16726113855838776 0.9567041397094727
-0.15584667026996613 -0.02778616175055504 0.23301911354064941
-0.13483834266662598 -0.07702023535966873 0.24328924715518951
-0.11107859015464783 -0.0036243717186152935 0.4703204929828644
-0.14768043160438538 -0.19831982254981995 0.8476771712303162
-0.11294671148061752 -0.0706382542848587 0.6013922691345215
-0.11366633325815201 -0.10993383824825287 0.659926176071167
-0.10284684598445892 -0.047530800104141235 0.669257640838623
-0.10193771123886108 -0.009394468739628792 1.108497142791748
-0.10354050248861313 -0.07194305956363678 1.1358956098556519
-0.062357254326343536 0.19483131170272827 1.118112564086914
-0.11188322305679321 -0.021170610561966896 0.8418348431587219
-0.0892859473824501 -0.09053711593151093 0.25868725776672363
-0.10838420689105988 -0.023931244388222694 1.219045877456665
-0.08723488450050354 -0.032109830528497696 1.1443544626235962
-0.09321129322052002 -0.08739936351776123 0.403779000043869
-0.13175086677074432 0.008457344025373459 1.7653145790100098
-0.1320468634366989 -0.030099183320999146 1.757766842842102
-0.08481284976005554 -0.06788020581007004 1.7755203247070312
-0.09773088991641998 -0.1127769947052002 1.7385022640228271
-0.11415737867355347 -0.1156916469335556 1.6303105354309082
-0.07313621789216995 -0.0522029846906662 0.30141323804855347
-0.041398175060749054 -0.12365398555994034 0.7248388528823853
-0.041503578424453735 -0.05101451650261879 0.23103958368301392
-0.06015707924962044 -0.08130005747079849 0.230817973613739
-0.07183288037776947 0.01700812764465809 0.178878054022789
-0.05646521598100662 0.06830953806638718 0.9653425812721252
-0.0834442600607872 0.031032633036375046 1.8113776445388794
-0.09532220661640167 0.014962706714868546 1.8001267910003662
0.03763831406831741 0.12070153653621674 1.1206400394439697
-0.06761230528354645 0.1214388906955719 1.1183604001998901
0.014809081330895424 0.10960334539413452 1.1860167980194092
0.011335741728544235 -0.029192613437771797 1.2631882429122925
0.022619450464844704 0.19773079454898834 1.1578422784805298
0.027412425726652145 0.1242029070854187 0.983232319355011
0.09215687215328217 0.20914262533187866 1.0601991415023804
0.025400783866643906 0.13344666361808777 1.663017749786377
0.07093172520399094 0.11660761386156082 0.9922094941139221
0.043961696326732635 -0.2174239307641983 0.9089168906211853
0.019908737391233444 -0.1343383491039276 0.2332989126443863
0.033127959817647934 -0.14988744258880615 0.17428049445152283
0.03324972093105316 -0.14142394065856934 0.6861096620559692
0.04459366202354431 0.020644567906856537 1.0666790008544922
0.04610259085893631 -0.0719788521528244 0.5442900061607361
0.09917031228542328 0.09023438394069672 1.2674016952514648
0.08746309578418732 -0.10900416970252991 1.425515055656433
0.062498874962329865 0.1129174456000328 1.6287050247192383
0.06147867068648338 0.035483114421367645 1.61226487159729
0.06283124536275864 0.05292294919490814 1.5821647644042969
0.041480500251054764 0.023671437054872513 1.8484184741973877
0.08714111149311066 -0.12456700205802917 1.3534384965896606
0.10580085217952728 -0.05396758019924164 0.4659661054611206
0.0747932642698288 -0.04019200801849365 0.46376097202301025
0.08913058042526245 -0.059393540024757385 0.3118124008178711
0.11018552631139755 -0.06786851584911346 0.2813819646835327
0.10203589498996735 -0.04461444914340973 1.5419895648956299
0.08960998803377151 -0.05463283136487007 1.5516085624694824
0.10395728051662445 -0.04967037960886955 1.5330936908721924
0.11311003565788269 -0.0637708455324173 0.7385696768760681
0.10984306037425995 -0.11704523861408234 0.6098096370697021
0.1320248246192932 0.02998361364006996 0.952761173248291
0.12206941097974777 -0.06315866857767105 1.0904085636138916
0.11464191973209381 -0.1197211742401123 1.083235502243042
0.12357835471630096 -0.1474163830280304 1.0273778438568115
0.10246331989765167 0.008466985076665878 1.6610596179962158
0.11441835761070251 -0.004748281091451645 1.5731348991394043
0.09984984248876572 -0.1679171323776245 1.2417778968811035
0.1271379590034485 0.06940078735351562 1.5433369874954224
0.11801667511463165 0.040654271841049194 1.5931496620178223
0.12603439390659332 -0.11176902055740356 0.0099569670855999
0.1280951052904129 -0.1853659749031067 0.02555093914270401
0.13798287510871887 0.04564348980784416 1.5071403980255127
0.14241522550582886 0.0580923818051815 1.4720561504364014
0.15029177069664001 0.04814031347632408 1.4271893501281738
0.14993475377559662 0.06172623485326767 1.404158115386963
0.10958988964557648 -0.2511000633239746 1.1636906862258911
0.17569907009601593 -0.15553277730941772 0.8497539162635803
0.1257322132587433 -0.2242269217967987 1.1794971227645874
0.12410978972911835 -0.2502283453941345 1.1635980606079102
0.20692601799964905 -0.11066688597202301 0.8625862002372742
0.20564118027687073 -0.08951373398303986 0.8422569632530212
0.2170611321926117 -0.05374079942703247 0.848935067653656
-0.18114686012268066 -0.11377090960741043 1.151218056678772
-0.15051253139972687 -0.1232266053557396 1.259350061416626
-0.15242843329906464 -0.12140107899904251 1.2361372709274292
-0.146207794547081 -0.11455921828746796 1.2475810050964355
-0.14462000131607056 -0.11323665827512741 1.268163800239563
-0.2023853212594986 -0.0019146539270877838 0.8513181209564209
-0.12789367139339447 -0.074226014316082 1.3009884357452393
-0.14245817065238953 -0.05940105766057968 1.0859885215759277
-0.14360664784908295 0.08687242865562439 1.551537036895752
-0.1309165358543396 -0.09449869394302368 1.2079989910125732
-0.13602390885353088 -0.08074058592319489 1.1537535190582275
-0.1204259917140007 0.08041030913591385 1.4317914247512817
-0.11237608641386032 0.07358358055353165 1.3828240633010864
-0.12754201889038086 -0.1397102177143097 1.0511400699615479
-0.09464975446462631 -0.16689357161521912 1.010594367980957
-0.11554578691720963 -0.03264894708991051 0.7587236762046814
-0.05953546240925789 0.17538484930992126 1.2088993787765503
-0.08265404403209686 0.13397125899791718 1.638930320739746
-0.05005589500069618 0.04592185467481613 0.022306757047772408
-0.06413176655769348 0.06087320297956467 0.009972110390663147
-0.08522660285234451 0.0235455185174942 0.8600267171859741
-0.007827963680028915 0.09697969257831573 0.8497233390808105
-0.059652455151081085 -0.022471532225608826 0.8381078243255615
0.01632029190659523 0.07862001657485962 1.3009746074676514
-0.01987047865986824 -0.08332671225070953 0.7598979473114014
-0.03621474653482437 -0.13623790442943573 1.650620698928833
-0.011940933763980865 0.017180051654577255 0.8731769323348999
-0.006357602775096893 -0.024296719580888748 0.8519834876060486
0.009839806705713272 -0.1163477748632431 0.854480504989624
-0.07726787030696869 -0.16723980009555817 0.8593848347663879
-0.003902329131960869 -0.22713667154312134 0.855304479598999
0.02316189743578434 -0.10919961333274841 0.8264226913452148
-0.007408843841403723 -0.16171830892562866 0.8663303852081299
0.00472453236579895 0.019163023680448532 1.5055099725723267
0.020373594015836716 -0.035279206931591034 0.8426653146743774
0.022851411253213882 -0.048849135637283325 0.8193572759628296
0.018206724897027016 0.0371040403842926 1.5853582620620728
0.022640889510512352 0.04009005427360535 1.556549072265625
0.03485076501965523 -0.12222041934728622 0.8411126136779785
0.12781599164009094 0.05975789949297905 0.8385229110717773
0.025478556752204895 -0.10480961203575134 0.22890342772006989
0.042556628584861755 -0.03673027083277702 0.8013094663619995
0.08627209812402725 0.12256839871406555 1.1530609130859375
0.0665144994854927 -0.1296093761920929 0.35403168201446533
0.05658600106835365 -0.11641399562358856 0.2907298803329468
0.07379379123449326 -0.13869354128837585 0.30790698528289795
0.06090965494513512 -0.18165218830108643 0.2556752860546112
0.10527127981185913 0.07938714325428009 1.5098001956939697
0.07556459307670593 -0.014999780803918839 0.8371683359146118
0.09956830739974976 -0.03813669830560684 0.8079360723495483
0.09915579110383987 -0.06948478519916534 1.2593464851379395
0.09757574647665024 -0.14246687293052673 0.4037611484527588
0.09835188835859299 0.06438079476356506 1.6270370483398438
0.0883132591843605 -0.03150929510593414 1.3149960041046143
0.10379645228385925 -0.14103439450263977 0.3076114356517792
0.10960087925195694 0.19172140955924988 1.133768081665039
0.10347295552492142 -0.04365604370832443 1.231266736984253
0.10760040581226349 -0.0812930017709732 0.17123878002166748
0.15786825120449066 0.1822192221879959 1.0386162996292114
0.0964912474155426 -0.06850939244031906 0.21135903894901276
0.10086600482463837 -0.19003671407699585 0.22648130357265472
0.14907264709472656 0.07955116033554077 1.2925236225128174
0.12004483491182327 -0.06472744047641754 1.484726071357727
0.13150769472122192 -0.061951056122779846 1.4484050273895264
0.12220673263072968 -0.06370697915554047 1.482712745666504
0.1443900316953659 -0.042162761092185974 1.4274181127548218
0.1205102801322937 -0.19199037551879883 1.2242097854614258
0.10591629147529602 -0.20777428150177002 1.2171456813812256
0.17590667307376862 0.10232622921466827 1.1817231178283691
0.1959352344274521 0.13456405699253082 1.103027105331421
0.191389262676239 0.1258382797241211 1.0674924850463867
0.13671551644802094 -0.04917776212096214 1.2523314952850342
0.1260989010334015 -0.09767907857894897 1.2567884922027588
0.16115206480026245 -0.18000614643096924 0.8642857074737549
0.14358624815940857 -0.1182713732123375 1.2604321241378784
0.15355800092220306 -0.12425852566957474 1.1394226551055908
0.14061716198921204 -0.0391044020652771 1.1434128284454346
0.14774611592292786 -0.08992469310760498 1.1141326427459717
0.24263069033622742 -0.11736568808555603 1.1301026344299316
0.23329339921474457 -0.04472152888774872 1.0038518905639648
0.2424606829881668 -0.1226251870393753 1.0392757654190063
-0.11063487827777863 -0.24357956647872925 1.156349539756775
-0.12008257210254669 -0.17332419753074646 1.2101492881774902
-0.13260573148727417 -0.1619240641593933 1.2279150485992432
-0.10028503090143204 -0.22653135657310486 1.162187099456787
-0.13833042979240417 0.08721988648176193 1.4676802158355713
-0.1427035629749298 0.07232913374900818 1.4497435092926025
-0.14793507754802704 0.08766571432352066 1.3969082832336426
-0.15478558838367462 0.0014556795358657837 1.727441430091858
-0.1507996767759323 -0.04447932913899422 1.6412937641143799
-0.1312274932861328 -0.05075695738196373 0.2935482859611511
-0.1266912966966629 -0.07236742973327637 0.8325985670089722
-0.12382197380065918 -0.09783636033535004 0.813150942325592
-0.13805261254310608 0.14313754439353943 0.9015141129493713
-0.08738595247268677 -0.13657960295677185 1.2649080753326416
-0.10972436517477036 -0.033065203577280045 0.8109451532363892
-0.10157626867294312 -0.006598517298698425 1.780840277671814
-0.0919770672917366 -0.12030614912509918 1.141126036643982
-0.05336041748523712 -0.18101516366004944 1.137996792793274
-0.06564036011695862 0.13255521655082703 1.030989646911621
0.021388612687587738 0.12833206355571747 1.0302457809448242
-0.06461787968873978 -0.015376374125480652 1.1600329875946045
-0.048029545694589615 -0.11653676629066467 0.8478148579597473
-0.047632232308387756 -0.18548086285591125 1.0733904838562012
-0.05054444447159767 0.026629656553268433 1.0592902898788452
-0.02887038141489029 -0.11386416107416153 1.752701997756958
0.012465832754969597 -0.10756685584783554 0.759629487991333
-0.046487193554639816 0.08916543424129486 1.2636222839355469
0.025388911366462708 -0.19120782613754272 -0.006980046629905701
0.13382220268249512 0.19430948793888092 0.961470901966095
0.10230332612991333 0.13504227995872498 1.0519286394119263
0.06852187216281891 0.2105989307165146 0.9743142127990723
0.09501370787620544 0.09025301039218903 0.8484075665473938
0.10068550705909729 -0.06481550633907318 -0.00940423458814621
0.11847525835037231 -0.03672657907009125 0.8332571983337402
0.10025365650653839 -0.13629955053329468 0.3585570752620697
0.13380342721939087 -0.10155755281448364 1.4014794826507568
0.12157759070396423 -0.11499576270580292 1.3129984140396118
0.2014770358800888 0.00040840357542037964 0.8427901268005371
0.2095697671175003 -0.04667052626609802 0.910232663154602
0.23986448347568512 -0.0871838927268982 1.0100469589233398
-0.22229522466659546 -0.12057512998580933 1.0774434804916382
-0.20640139281749725 -0.08967117965221405 0.9119296669960022
-0.2167898714542389 -0.07925905287265778 0.8530867099761963
-0.14753074944019318 0.06979112327098846 1.3959927558898926
-0.1475813388824463 0.09314402937889099 1.218294620513916
-0.14122933149337769 -0.00021055713295936584 1.549363613128662
-0.14153575897216797 -0.05370177701115608 1.0509920120239258
-0.13944965600967407 -0.08184215426445007 1.0930997133255005
-0.13999798893928528 0.002517417073249817 1.5485570430755615
-0.13597707450389862 -0.012367736548185349 1.5372636318206787
-0.1399175375699997 -0.002334918826818466 1.5457812547683716
-0.1388220340013504 -0.005773499608039856 1.5481865406036377
-0.14326782524585724 -0.023993775248527527 1.5385740995407104
-0.10181144624948502 -0.07017265260219574 0.12966381013393402
-0.14745742082595825 -0.07790692150592804 1.705359697341919
-0.03464069217443466 -0.010387137532234192 1.2176488637924194
-0.04858708381652832 -0.0759453997015953 0.03362014889717102
-0.05009105056524277 -0.02286251075565815 1.2602537870407104
-0.0038355407305061817 -0.014998674392700195 1.170832633972168
-0.04490399733185768 0.0937933623790741 0.9267510175704956
-0.03767812252044678 -0.010532353073358536 1.7985084056854248
-0.024847690016031265 -0.07625432312488556 0.6900219917297363
-0.01640496402978897 0.09302669763565063 1.2246057987213135
0.010976793244481087 -0.19169491529464722 1.0194299221038818
-0.023686164990067482 -0.19231262803077698 1.2404718399047852
0.03305846452713013 0.11827679723501205 1.0817039012908936
0.03858758136630058 -0.10368305444717407 0.16170364618301392
0.07147561013698578 -0.17562365531921387 0.9986335039138794
0.1247933879494667 -0.17028656601905823 0.9680873155593872
0.08310278505086899 0.052658215165138245 1.5448682308197021
0.07603032886981964 -0.16053348779678345 1.1822071075439453
0.03988583758473396 -0.021726557984948158 1.168375015258789
0.10132066905498505 -0.017402781173586845 1.0821642875671387
0.08656042814254761 0.06337112188339233 0.95404052734375
0.08300326764583588 -0.2727968990802765 0.002584341913461685
0.06038374453783035 -0.25865721702575684 -0.01595093496143818
0.11372470110654831 -0.2424824833869934 -0.012699771672487259
0.12171021103858948 -0.17796781659126282 0.20220662653446198
0.11828204989433289 -0.06256821006536484 1.479891300201416
0.12310303747653961 -0.06307332217693329 1.4815788269042969
0.10520739108324051 -0.07393702864646912 1.3327285051345825
0.11615702509880066 -0.10348532348871231 1.3055423498153687
0.20217102766036987 0.14937208592891693 0.9802547097206116
0.19820408523082733 0.11974822729825974 0.932300329208374
0.21005433797836304 0.12722636759281158 0.9310356378555298
0.2405293583869934 -0.030960172414779663 1.0070500373840332
0.2507745325565338 -0.1021704226732254 0.9770828485488892
0.2733258605003357 -0.12224656343460083 0.9563186764717102
-0.1788296401500702 -0.04676903039216995 1.0018848180770874
-0.13127152621746063 -0.20489639043807983 1.194371223449707
-0.10217137634754181 -0.05995585024356842 0.32517576217651367
-0.09058668464422226 0.1253560334444046 0.8783092498779297
-0.10153329372406006 -0.13789668679237366 1.091058373451233
-0.03061433881521225 -0.04344245046377182 0.8429061770439148
-0.04617724195122719 -0.03200530633330345 0.8034115433692932
-0.038402996957302094 -0.08583449572324753 0.8073969483375549
-8.257105946540833e-05 0.021617136895656586 1.1040111780166626
0.024543140083551407 -0.2100531905889511 0.8435304164886475
0.09460969269275665 0.01662549190223217 0.8533134460449219
0.11989843845367432 0.13150262832641602 1.0120294094085693
0.10911901295185089 0.01670682802796364 1.5711134672164917
0.11736464500427246 0.03834708034992218 1.5421496629714966
0.19585931301116943 -0.11518717557191849 0.9141545295715332
-0.12757141888141632 -0.2151961326599121 1.1606756448745728
-0.14631476998329163 0.055323533713817596 1.5747238397598267
-0.05819973349571228 0.14323647320270538 0.9310828447341919
-0.1274745762348175 0.08784683048725128 1.6028814315795898
-0.09649453312158585 0.05081885680556297 1.597352385520935
-0.059939414262771606 0.04129447788000107 1.576386570930481
0.03950553014874458 -0.1879478096961975 1.0759326219558716
0.06490568816661835 -0.14761611819267273 1.2721143960952759
0.051369938999414444 -0.17914971709251404 0.13336575031280518
0.10397344827651978 -0.12425681948661804 1.229090929031372
0.11247926950454712 -0.10580398142337799 1.173895001411438
0.13114386796951294 0.06908346712589264 1.425424337387085
0.11136902868747711 0.10086050629615784 1.4232615232467651
0.11484850943088531 -0.06100785732269287 1.1819167137145996
0.1189533919095993 -0.07742545753717422 0.8195936679840088
0.08722969144582748 -0.18880505859851837 1.2461715936660767
0.1480356603860855 0.09666965156793594 1.3143341541290283
-0.13443966209888458 0.09417151659727097 1.3158038854599
-0.09632911533117294 0.013563739135861397 0.3443681001663208
0.022692441940307617 -0.11196811497211456 0.7160419225692749
0.03010876104235649 -0.11460834741592407 1.7351336479187012
-0.152289479970932 0.1474943906068802 0.9827591180801392
-0.1391577571630478 -0.11541816592216492 1.2760672569274902
-0.058878928422927856 -0.028746681287884712 0.37579411268234253
0.009722087532281876 0.13247007131576538 1.4478188753128052
0.034909047186374664 -0.25642862915992737 0.005415037274360657
0.10662752389907837 -0.050024986267089844 1.5326082706451416
0.1038249135017395 -0.04889540374279022 1.5316237211227417
0.1158672645688057 -0.0665382444858551 1.4356558322906494
0.11420102417469025 -0.16846007108688354 0.1678752899169922
0.12434716522693634 -0.1302211880683899 0.1494317650794983
0.1603376716375351 -0.1330309808254242 1.1894199848175049
-0.17859143018722534 -0.16402804851531982 0.9184128642082214
-0.14113867282867432 0.07985249161720276 1.354557752609253
-0.13873296976089478 0.07797196507453918 1.3579416275024414
-0.14672204852104187 0.0755763053894043 1.3575347661972046
-0.050928808748722076 -0.025670558214187622 0.16961713135242462
-0.029062844812870026 -0.09750071167945862 0.8450363874435425
0.026484884321689606 -0.1450197696685791 0.1258922964334488
0.19416558742523193 -0.13798992335796356 1.132468342781067
0.09360133111476898 -0.06525720655918121 1.6807007789611816
0.12898388504981995 -0.1073182225227356 0.7702821493148804
0.1499301791191101 0.06191810220479965 1.3786892890930176
0.14967171847820282 0.07822424918413162 1.3342580795288086
0.03321501612663269 -0.10062496364116669 -0.01549224928021431
0.2452821433544159 -0.5223960876464844 0.9251279234886169
0.2311294972896576 -0.48810285329818726 0.9111965298652649
0.23436467349529266 -0.49740928411483765 0.9102751016616821
0.22543051838874817 -0.4980006217956543 0.9257302284240723
0.2345554232597351 -0.5205202698707581 0.9173061847686768
0.24184022843837738 -0.5177294015884399 0.931123673915863
0.24891716241836548 -0.3438934087753296 0.9353726506233215
0.2272597700357437 -0.3499830365180969 0.9338330626487732
0.24960553646087646 -0.37292957305908203 0.9345521926879883
0.24507394433021545 -0.38561397790908813 0.9370501041412354
0.22007843852043152 -0.15736305713653564 0.902761697769165
0.22016434371471405 -0.1703624576330185 0.9190523624420166
0.2179950773715973 -0.1685815453529358 0.8937126398086548
0.22253106534481049 -0.3600776195526123 0.8964789509773254
0.22998200356960297 -0.3794969320297241 0.9077966809272766
0.2613077163696289 -0.4127591848373413 0.950941801071167
0.25500476360321045 -0.39841681718826294 0.9428796172142029
0.2115001380443573 -0.20506083965301514 0.8705044984817505
0.21723534166812897 -0.2177339792251587 0.8923460245132446
0.25339946150779724 -0.2653499245643616 0.943168580532074
0.2450576275587082 -0.25873440504074097 0.9403831362724304
0.26178479194641113 -0.4965665638446808 0.9412921667098999
0.23917333781719208 -0.4690967798233032 0.9053378701210022
0.2234783172607422 -0.16180521249771118 0.8814122080802917
0.2181781530380249 -0.16838780045509338 0.8765049576759338
0.267917662858963 0.045177921652793884 0.9897729158401489
0.2671789228916168 0.03312645107507706 0.986253559589386
0.2562029957771301 0.05120868980884552 0.9694158434867859
0.25138404965400696 -0.44050729274749756 0.9386821389198303
0.2568972110748291 -0.4694672226905823 0.9384679794311523
0.2257944494485855 -0.16645240783691406 0.8741284608840942
0.2185344099998474 -0.16472747921943665 0.8635175228118896
0.22900786995887756 -0.5422627329826355 0.8728775382041931
0.23180510103702545 -0.557906985282898 0.8742926716804504
0.2727504074573517 0.06426546722650528 0.9845364093780518
0.2712540328502655 0.047339268028736115 0.9936199188232422
0.2646515965461731 0.0647735446691513 0.9803255200386047
0.2604539096355438 0.0567735955119133 0.9678322672843933
0.2515110373497009 -0.6015600562095642 0.9204057455062866
0.2617889642715454 -0.6247738003730774 0.9284238219261169
0.24928854405879974 -0.6269765496253967 0.9091600775718689
0.22388353943824768 -0.29253190755844116 0.8791468143463135
0.23301814496517181 -0.31327664852142334 0.8767180442810059
0.2188984751701355 -0.33371126651763916 0.8690864443778992
0.22940024733543396 -0.3276313543319702 0.8642269372940063
0.278611958026886 0.04218306392431259 0.9958488345146179
0.2650355100631714 0.06884188205003738 0.9748464226722717
0.27317333221435547 -0.43661949038505554 0.9520113468170166
0.2774307131767273 -0.4364878237247467 0.9529441595077515
0.26582929491996765 -0.45730119943618774 0.950779914855957
0.27187666296958923 -0.47637903690338135 0.9481735229492188
0.22400890290737152 -0.24577555060386658 0.8755521774291992
0.22342264652252197 -0.26026651263237 0.8697677254676819
0.22024476528167725 -0.2653772234916687 0.8739254474639893
0.27448800206184387 0.06444147974252701 0.9781069755554199
0.28150612115859985 0.03948623687028885 0.9924439787864685
0.26974284648895264 0.04627303034067154 0.9663372039794922
0.2069840133190155 -0.12845231592655182 0.837104082107544
0.20526358485221863 -0.13402368128299713 0.8297210931777954
0.21603204309940338 -0.1494111269712448 0.8522512316703796
0.21314680576324463 -0.14445994794368744 0.8408204317092896
0.20382288098335266 -0.13874870538711548 0.8416429758071899
0.23180636763572693 -0.36046919226646423 0.8539167046546936
0.22522933781147003 -0.33957114815711975 0.8551748991012573
0.22154122591018677 -0.3447643518447876 0.8415946960449219
0.21483023464679718 -0.34991225600242615 0.8407998085021973
0.274463415145874 0.043214477598667145 0.975640594959259
0.2714264392852783 -0.6299800872802734 0.9288538098335266
0.25698724389076233 -0.6274266242980957 0.9089247584342957
0.2707642614841461 -0.6415258646011353 0.9213988184928894
0.2660665810108185 -0.646163284778595 0.9261978268623352
0.2555982768535614 -0.6180129051208496 0.8992035388946533
0.24932827055454254 -0.15040647983551025 0.8868440389633179
0.23285023868083954 -0.16279563307762146 0.8737431168556213
0.23711523413658142 -0.5187712907791138 0.8630258440971375
0.2316029667854309 -0.549731969833374 0.8682839870452881
0.24499504268169403 -0.571540355682373 0.8786197900772095
0.27273181080818176 -0.2545544505119324 0.9353986382484436
0.27019813656806946 -0.27775493264198303 0.9347516298294067
0.2711789906024933 -0.28409937024116516 0.926457941532135
0.2792055010795593 -0.4273470640182495 0.9502544403076172
0.27435585856437683 -0.4371334910392761 0.9435910582542419
0.2796885073184967 -0.498229444026947 0.942392110824585
0.2665289640426636 -0.3989081084728241 0.9427565932273865
0.25592049956321716 -0.4924527406692505 0.882218062877655
0.24876192212104797 -0.5292513370513916 0.878092885017395
0.2733716368675232 -0.2521842420101166 0.9295228719711304
0.2697519361972809 -0.405278742313385 0.9195412993431091
0.2792948782444 -0.3866647183895111 0.9163677096366882
0.277139276266098 -0.42162010073661804 0.9218701124191284
0.26135221123695374 -0.588143527507782 0.9051941633224487
0.26281315088272095 -0.5730034112930298 0.8967662453651428
0.24319875240325928 -0.3853442668914795 0.8759143948554993
0.2631167471408844 -0.38967233896255493 0.8840559720993042
0.2545318603515625 -0.41346123814582825 0.890089750289917
0.26528191566467285 -0.4152582585811615 0.8971732258796692
0.27236104011535645 -0.3296610713005066 0.9205582737922668
0.2662258446216583 -0.3704949617385864 0.9197389483451843
0.2717033326625824 -0.4901517331600189 0.9213244915008545
0.27378058433532715 -0.5167129039764404 0.9112770557403564
0.27076274156570435 -0.5208624601364136 0.921513020992279
0.2682381868362427 -0.4764757752418518 0.8962739109992981
0.2664434313774109 -0.48668694496154785 0.8894554376602173
0.2531364858150482 -0.34699076414108276 0.8837799429893494
0.25360971689224243 -0.36480700969696045 0.8811737895011902
0.2498960793018341 -0.3298213481903076 0.8726527690887451
0.2468211054801941 -0.35619187355041504 0.874372661113739
0.24880751967430115 -0.3762490749359131 0.8813809752464294
0.26251524686813354 -0.3199038505554199 0.89605712890625
0.2659073770046234 -0.3064576983451843 0.8996462225914001
0.2494392842054367 -0.2944656312465668 0.879864513874054
0.25992441177368164 -0.3067699372768402 0.8886586427688599
0.26044201850891113 -0.49757033586502075 0.8938404321670532
0.26813647150993347 -0.5209308862686157 0.8940335512161255
0.26248255372047424 -0.5074479579925537 0.89537513256073
0.2814558446407318 -0.5106368064880371 0.890749454498291
0.26719141006469727 -0.17371918261051178 0.8923633098602295
0.22807973623275757 -0.46950003504753113 0.9370765089988708
0.22551146149635315 -0.48396944999694824 0.926301121711731
0.23564310371875763 -0.39354074001312256 0.9317038655281067
0.228973388671875 -0.3924747705459595 0.9283459186553955
0.2307777851819992 -0.4130653142929077 0.9376501441001892
0.22165460884571075 -0.39894914627075195 0.9247758388519287
0.23008909821510315 -0.41434282064437866 0.9321209192276001
0.2346668839454651 -0.354086697101593 0.9133208394050598
0.23013842105865479 -0.36093631386756897 0.9124997854232788
0.22931528091430664 -0.3265202045440674 0.9155354499816895
0.23890361189842224 -0.41436904668807983 0.9347890019416809
0.22907693684101105 -0.4980660676956177 0.885503888130188
0.23221004009246826 -0.5166243314743042 0.9142221808433533
0.23093238472938538 -0.39302974939346313 0.9034202098846436
0.23789948225021362 -0.5439472198486328 0.9174321293830872
0.2417042851448059 -0.5691787004470825 0.9113775491714478
0.2345782220363617 -0.5504435300827026 0.9081912636756897
0.24029850959777832 -0.5895335078239441 0.9177873134613037
0.23588056862354279 -0.1471065878868103 0.9184310436248779
0.26920512318611145 -0.21202105283737183 0.9728045463562012
0.26434963941574097 -0.21820202469825745 0.9666656255722046
0.27441155910491943 -0.22292962670326233 0.9703713059425354
0.22630594670772552 -0.23924410343170166 0.8854365348815918
0.254722535610199 0.041737183928489685 0.9605111479759216
0.2754315733909607 0.019454926252365112 0.9981254935264587
0.27130234241485596 0.004853174090385437 0.9884129762649536
0.2617632746696472 0.007148317992687225 0.9827224016189575
0.2636778652667999 -0.3508913516998291 0.9363270998001099
0.27125391364097595 -0.5134766101837158 0.9508801698684692
0.24075424671173096 -0.5926454067230225 0.895219624042511
0.2465466409921646 -0.03024451434612274 0.9444043040275574
0.2500547766685486 -0.06417262554168701 0.9261209964752197
0.2657843232154846 -0.3242127299308777 0.9463468194007874
0.25901785492897034 -0.33122968673706055 0.9393889904022217
0.25895971059799194 -0.37688198685646057 0.9372143745422363
