-0.2823832035064697 0.07137388736009598 1.0301998853683472
-0.3760921061038971 0.1149761825799942 1.1909863948822021
-0.38632631301879883 0.08361492305994034 1.171217441558838
-0.43896615505218506 0.12249395251274109 1.5102791786193848
-0.421841561794281 0.11342625319957733 1.385561227798462
-0.4603066146373749 0.15721066296100616 1.4844260215759277
-0.3119649589061737 0.07141080498695374 1.1221483945846558
-0.31355270743370056 0.10153062641620636 1.1372872591018677
-0.2965085506439209 0.07006939500570297 1.0871034860610962
-0.2866226136684418 0.07688553631305695 1.078505277633667
-0.3691251277923584 0.13560929894447327 1.327836036682129
-0.3321878910064697 0.12246470153331757 1.267143726348877
-0.33360278606414795 0.09940031170845032 1.444823980331421
-0.21372273564338684 0.07261040806770325 1.0857816934585571
-0.3929334580898285 0.14501014351844788 1.528755784034729
-0.2610466480255127 0.07856041193008423 1.4247514009475708
-0.2941564917564392 0.12223225831985474 1.41560959815979
-0.24005481600761414 0.07340002059936523 1.3561047315597534
-0.2246551364660263 0.10248735547065735 1.3501250743865967
-0.19189220666885376 0.08465836197137833 1.2635589838027954
-0.16099068522453308 0.06349333375692368 1.228808879852295
0.2055889070034027 -3.5334378480911255e-05 1.2059457302093506
0.18159987032413483 -0.018738895654678345 1.2180895805358887
0.21996696293354034 -0.01873340830206871 1.1718175411224365
0.22423338890075684 0.0026574600487947464 1.3506523370742798
0.192973330616951 -0.02747446857392788 1.2757740020751953
0.20584823191165924 -0.0014154855161905289 1.2831735610961914
0.26278239488601685 -0.013293324038386345 1.236478567123413
0.2692686915397644 -0.042722586542367935 1.2316172122955322
0.28388679027557373 -0.025533311069011688 1.1397056579589844
0.29814672470092773 -0.032913900911808014 1.1133404970169067
0.2778296172618866 -0.038419317454099655 1.1434131860733032
0.29615291953086853 -0.04380666837096214 1.1231708526611328
0.3256838321685791 -0.034554656594991684 1.1295007467269897
0.2548404037952423 0.009007584303617477 1.5123080015182495
0.2518102526664734 -0.02335629239678383 1.4749908447265625
0.3657175898551941 -0.0451967790722847 1.110914707183838
0.34101802110671997 -0.06444159150123596 1.1227203607559204
0.32099848985671997 -0.043798305094242096 1.134737491607666
0.3549768328666687 -0.051181450486183167 1.1061742305755615
0.38980603218078613 -0.06390992552042007 1.0733734369277954
0.2883065342903137 -0.037938084453344345 1.38347589969635
0.4076784551143646 -0.05214972421526909 1.2073122262954712
0.35320746898651123 -0.07586811482906342 1.1451908349990845
0.3614782392978668 -0.05342299863696098 1.1587563753128052
0.3772350251674652 -0.03177491948008537 1.3440053462982178
0.38341236114501953 -0.0719471275806427 1.1990852355957031
0.43365728855133057 -0.06989092379808426 1.1211100816726685
0.41996482014656067 -0.054208021610975266 1.1688326597213745
0.41741615533828735 -0.07214951515197754 1.1408469676971436
0.40926393866539 -0.09662672877311707 1.168813943862915
0.38608402013778687 -0.03603242337703705 1.3927091360092163
0.4140125811100006 -0.05451581999659538 1.2780917882919312
0.3888339400291443 -0.07790657877922058 1.2985490560531616
0.36444517970085144 -0.049846939742565155 1.5300034284591675
0.44581925868988037 -0.078301340341568 1.164075255393982
0.39639341831207275 -0.026003114879131317 1.503210186958313
0.4144003391265869 -0.048121377825737 1.444075584411621
0.4143841862678528 -0.06602160632610321 1.4957278966903687
0.520689070224762 -0.15180757641792297 0.9660860300064087
0.44576847553253174 -0.0862579196691513 1.4274804592132568
0.4779248833656311 -0.0926169753074646 1.3863189220428467
0.47403594851493835 -0.06350910663604736 1.3342773914337158
0.477799654006958 -0.1174757331609726 1.238568663597107
0.49370336532592773 -0.08637934178113937 1.2362463474273682
0.4982481300830841 -0.06734450161457062 1.3470350503921509
0.5125550627708435 -0.08329865336418152 1.284170150756836
0.5369971990585327 -0.11061737686395645 1.219833254814148
0.530210018157959 -0.06975377351045609 1.3739242553710938
0.5318722128868103 -0.09897618740797043 1.3455286026000977
0.5490248203277588 -0.2745330333709717 0.8211370706558228
0.5780553817749023 -0.2993561327457428 0.6808789968490601
0.627354085445404 -0.2510717809200287 0.6665122509002686
0.5897051095962524 -0.2516719400882721 0.7014700174331665
0.579116940498352 -0.18352442979812622 1.0260846614837646
0.5843392610549927 -0.18597914278507233 0.9836533665657043
0.5828450918197632 -0.11269209533929825 1.2143762111663818
0.6684153079986572 -0.19343286752700806 0.704531192779541
0.6487898826599121 -0.18850232660770416 0.7770933508872986
0.6636891961097717 -0.19238127768039703 0.9775669574737549
0.6891309022903442 -0.21913722157478333 0.8799991607666016
0.6387897729873657 -0.21426214277744293 0.8882250189781189
0.66387939453125 -0.23837023973464966 0.8998463153839111
-0.37133800983428955 0.014023169875144958 0.6862305402755737
-0.3703555464744568 -0.0026000477373600006 0.7008780241012573
-0.498716801404953 0.1504335254430771 1.0489612817764282
-0.4940435588359833 0.16381919384002686 1.0557019710540771
-0.46654802560806274 0.13899043202400208 1.0102862119674683
-0.40826088190078735 0.08885622024536133 0.9177597761154175
-0.40508899092674255 0.08892932534217834 0.9718965291976929
-0.40366119146347046 0.05215701460838318 0.8772302865982056
-0.364088237285614 0.06161664053797722 0.8879335522651672
-0.42596572637557983 0.07296155393123627 1.0245013236999512
-0.49282166361808777 0.13218355178833008 1.1864893436431885
-0.4784863591194153 0.12892523407936096 1.1479684114456177
-0.2228585183620453 -6.296113133430481e-05 0.7099187970161438
-0.2577664256095886 0.005027510225772858 0.6488350033760071
-0.1975661665201187 -0.01845446228981018 0.5876088738441467
-0.4639380872249603 0.1471361517906189 1.1932640075683594
-0.5102260112762451 0.14284056425094604 1.235335350036621
-0.2968117594718933 -0.028984323143959045 0.7837622761726379
-0.2839704155921936 -0.04330882430076599 0.7674351930618286
-0.21137383580207825 -0.080667644739151 0.6086803078651428
-0.18762686848640442 -0.10825163125991821 0.5631458163261414
-0.31755369901657104 0.05202547088265419 0.8998281359672546
-0.5372942686080933 0.16719023883342743 1.3401072025299072
-0.3389078974723816 0.0594959482550621 0.9425497055053711
-0.29260125756263733 0.05126724764704704 0.8738165497779846
-0.3675392270088196 0.03613409399986267 0.9733959436416626
-0.35904812812805176 0.026174888014793396 0.9511894583702087
-0.3106326758861542 0.06246595084667206 0.9635528326034546
-0.39153891801834106 0.06562016904354095 1.0640416145324707
-0.26229947805404663 0.023633137345314026 0.8312556147575378
-0.23037275671958923 -0.0009014569222927094 0.7681106328964233
-0.4214046001434326 0.11997073888778687 1.1315159797668457
-0.3639180660247803 0.09033159911632538 1.0802003145217896
-0.3598913550376892 0.060200586915016174 1.0465521812438965
-0.49622535705566406 0.15342703461647034 1.4072840213775635
-0.45612287521362305 0.10008721798658371 1.2175893783569336
-0.3636636435985565 0.07221122086048126 1.1318376064300537
-0.4883187711238861 0.14031235873699188 1.4725618362426758
-0.41454899311065674 0.1482747495174408 1.3717807531356812
-0.41763877868652344 0.10167296230792999 1.258225917816162
-0.2962160110473633 0.0798337310552597 1.0738584995269775
-0.32311445474624634 0.06069625914096832 1.0872318744659424
-0.3964751064777374 0.13344918191432953 1.2591968774795532
-0.35710832476615906 0.11783415079116821 1.1998918056488037
-0.37330174446105957 0.14249727129936218 1.444331169128418
-0.34642717242240906 0.09329599887132645 1.2681087255477905
-0.291157603263855 0.07212425768375397 1.1898884773254395
-0.2752888798713684 0.09409115463495255 1.1859456300735474
-0.25653475522994995 0.0804276168346405 1.121908187866211
-0.26093024015426636 0.06704159080982208 1.225990891456604
-0.23245102167129517 0.08527904748916626 1.130248785018921
-0.3387764096260071 0.13316217064857483 1.3574459552764893
-0.2985551059246063 0.09225031733512878 1.3263977766036987
-0.19311705231666565 0.0691220685839653 1.1271060705184937
-0.17715653777122498 0.06936156004667282 1.1535495519638062
-0.2208908200263977 0.09665893763303757 1.4240667819976807
-0.20704977214336395 0.057718414813280106 1.2690231800079346
0.24716007709503174 -0.037714049220085144 1.1569658517837524
0.1702428162097931 0.011798195540904999 1.4326938390731812
0.30610907077789307 -0.018295608460903168 1.1973193883895874
0.29647576808929443 -0.04215773940086365 1.1920243501663208
0.3055906593799591 -0.02490857243537903 1.1281945705413818
0.328593373298645 -0.024330276995897293 1.3106769323349
0.33435121178627014 -0.06029798090457916 1.2332361936569214
0.3999049961566925 -0.05652019381523132 1.0784709453582764
0.3527011573314667 -0.017473936080932617 1.4631433486938477
0.40097519755363464 -0.09006020426750183 1.1981682777404785
0.4449821412563324 -0.05670498311519623 1.4082345962524414
0.5390061736106873 -0.16261416673660278 0.8761565089225769
0.5592517852783203 -0.1597035527229309 0.8569226861000061
0.5689156651496887 -0.17924916744232178 0.743320107460022
0.5785872340202332 -0.1864902824163437 0.66582190990448
0.5646836161613464 -0.20230263471603394 0.6812684535980225
0.5270079970359802 -0.11163854598999023 1.1546971797943115
0.588439404964447 -0.16863581538200378 0.7462999820709229
0.593374490737915 -0.1782388836145401 0.6717863082885742
0.5230053663253784 -0.20781126618385315 0.9363312721252441
0.5139820575714111 -0.21548041701316833 0.9863506555557251
0.5016440749168396 -0.23519662022590637 0.9579498171806335
0.5338716506958008 -0.22551240026950836 0.8864442706108093
0.6150439381599426 -0.17427653074264526 0.7728385925292969
0.6212072372436523 -0.19040384888648987 0.6891345381736755
0.586159884929657 -0.1707703024148941 0.9466843008995056
0.5421743392944336 -0.2139357626438141 0.9304350018501282
0.5692527294158936 -0.23701666295528412 0.8754317164421082
0.5332255959510803 -0.23272766172885895 0.9394159317016602
0.548215389251709 -0.26592695713043213 0.8683132529258728
0.5454795360565186 -0.19326503574848175 1.0047975778579712
0.587518572807312 -0.21228668093681335 0.9530981183052063
0.6059621572494507 -0.25966697931289673 0.7128422856330872
0.5888010263442993 -0.29026395082473755 0.6542295813560486
0.6415576934814453 -0.22148357331752777 0.6568284034729004
0.5923804044723511 -0.16247233748435974 1.0234724283218384
0.6133290529251099 -0.19919292628765106 0.8090130090713501
0.5839620232582092 -0.2711567282676697 0.7837281823158264
0.6084926128387451 -0.264315128326416 0.7734692096710205
0.6422126293182373 -0.2606806755065918 0.6889280080795288
0.6462801098823547 -0.18797743320465088 0.9564771056175232
0.666608452796936 -0.18785955011844635 0.9241265058517456
0.6747310757637024 -0.23533950746059418 0.7494025826454163
0.6666315197944641 -0.24189116060733795 0.7702732682228088
0.5861549973487854 -0.13855481147766113 1.1255265474319458
0.6798821687698364 -0.14353430271148682 1.0759556293487549
0.6399649977684021 -0.16064119338989258 1.0729480981826782
0.6308359503746033 -0.11710858345031738 1.2674226760864258
0.6297622323036194 -0.12263292074203491 1.2206294536590576
0.6273512244224548 -0.11899826675653458 1.2166566848754883
0.6275068521499634 -0.13903488218784332 1.2023073434829712
0.6640573740005493 -0.1393788754940033 1.135221242904663
0.6521013975143433 -0.14519573748111725 1.1560920476913452
-0.4302688241004944 0.09496422111988068 0.850822925567627
-0.43138593435287476 0.07297702133655548 0.868190586566925
-0.42388027906417847 0.048917025327682495 0.8395144939422607
-0.2092171013355255 -0.06186136603355408 0.5768826007843018
-0.20146852731704712 -0.10986990481615067 0.5440526604652405
-0.2822171151638031 -0.03967617452144623 0.7645684480667114
-0.2824094593524933 -0.05299028009176254 0.7085111141204834
-0.29485881328582764 -0.07651644945144653 0.7518286108970642
-0.2623879313468933 -0.08763326704502106 0.6390160322189331
-0.22929337620735168 -0.07178404182195663 0.6517900228500366
-0.21627381443977356 -0.10376785695552826 0.6226010322570801
-0.34203407168388367 0.005796439945697784 0.9020850658416748
-0.31807997822761536 -0.028776422142982483 0.859237790107727
-0.32874101400375366 -0.0103377103805542 0.855257511138916
-0.24920915067195892 -0.08875419199466705 0.6913846135139465
-0.24189382791519165 -0.06496517360210419 0.6901505589485168
-0.2871326804161072 -0.06092886999249458 0.7872048616409302
-0.2696731686592102 -0.04796520248055458 0.7378493547439575
-0.3816527724266052 0.09504805505275726 1.0399761199951172
-0.271965891122818 0.04290766641497612 0.8943992257118225
-0.24707379937171936 0.03289361298084259 0.9402903318405151
-0.24240916967391968 0.053742989897727966 0.9361382126808167
-0.34757134318351746 0.05637601390480995 1.0827465057373047
-0.28142237663269043 0.0570981539785862 1.0289666652679443
-0.25346484780311584 0.05940742418169975 0.9711406826972961
-0.24999932944774628 0.039167631417512894 0.9641566872596741
-0.3395208418369293 0.09723576158285141 1.3252058029174805
-0.25918078422546387 0.07727791368961334 1.0627604722976685
-0.25677400827407837 0.05280131846666336 1.1108887195587158
-0.23266012966632843 0.07761505991220474 1.0691921710968018
-0.19731706380844116 0.05423491448163986 1.1197190284729004
-0.20601673424243927 0.07141329348087311 1.0865305662155151
-0.1708870232105255 0.059300221502780914 1.1823816299438477
0.4546785354614258 -0.08312636613845825 1.0757349729537964
0.4117145538330078 -0.04022733122110367 1.5732871294021606
0.5238956809043884 -0.12423694878816605 1.0402305126190186
0.47964560985565186 -0.09082202613353729 1.0190540552139282
0.4920993149280548 -0.132355734705925 1.0161168575286865
0.5051034092903137 -0.11798112094402313 1.0087032318115234
0.4763113856315613 -0.08739854395389557 1.2166824340820312
0.4959891438484192 -0.167394757270813 1.0430943965911865
0.5121837854385376 -0.18414971232414246 0.9875346422195435
0.4931548833847046 -0.20391562581062317 1.0112985372543335
0.4995499849319458 -0.20658907294273376 0.9810357689857483
0.5207623243331909 -0.19775623083114624 0.9261782765388489
0.5660237073898315 -0.2230394333600998 0.7228182554244995
0.5795914530754089 -0.23057691752910614 0.6703113317489624
0.6084113121032715 -0.22198806703090668 0.6591736674308777
0.547225832939148 -0.15481719374656677 1.0215747356414795
0.560720682144165 -0.15953226387500763 0.9834959506988525
0.5372641682624817 -0.21383151412010193 0.9601063132286072
0.5313711166381836 -0.22242824733257294 0.9198086857795715
0.5167398452758789 -0.2509692311286926 0.8898217678070068
0.4975290894508362 -0.11354951560497284 1.3320934772491455
0.6073412299156189 -0.18466925621032715 0.9533224105834961
0.6344559192657471 -0.2020663470029831 0.9071377515792847
0.5916278958320618 -0.17464421689510345 1.081247329711914
0.6608888506889343 -0.27239352464675903 0.7329214215278625
0.6698105335235596 -0.23455727100372314 0.6957787275314331
0.6273242831230164 -0.21346132457256317 0.9381319284439087
0.633650541305542 -0.23056532442569733 0.8862919211387634
0.705278217792511 -0.17518837749958038 1.0670251846313477
0.6586129069328308 -0.21031515300273895 1.0293599367141724
0.6803882122039795 -0.1918950378894806 1.022118091583252
0.695857048034668 -0.23127469420433044 0.8911041021347046
0.6984316110610962 -0.21040725708007812 0.8987403512001038
-0.4787523150444031 0.136532723903656 1.0146037340164185
-0.21945349872112274 -0.054564863443374634 0.5167062282562256
-0.34767529368400574 -0.00034839287400245667 0.8363736271858215
-0.3263596296310425 -0.023997340351343155 0.8109264373779297
-0.36929452419281006 0.0336025170981884 0.8766393661499023
-0.501739501953125 0.14621254801750183 1.3313896656036377
-0.35092031955718994 0.06828996539115906 0.9116874933242798
-0.3363701105117798 0.045463647693395615 0.8850438594818115
-0.1685769408941269 -0.06934062391519547 0.5615158677101135
-0.15396898984909058 -0.04386911913752556 0.5577364563941956
-0.3032652735710144 -0.010325662791728973 0.8602840900421143
-0.28610169887542725 -0.03478921204805374 0.8088351488113403
-0.2999228239059448 -0.02838866412639618 0.852530300617218
-0.48115625977516174 0.12284150719642639 1.2861666679382324
-0.4272401034832001 0.12819474935531616 1.1827481985092163
-0.22093382477760315 0.0898536741733551 1.1884621381759644
0.15699689090251923 -0.0004990529268980026 1.241637945175171
0.14255301654338837 -0.013229446485638618 1.2501119375228882
0.24925348162651062 -0.041597817093133926 1.1976478099822998
0.2581889033317566 -0.02906433492898941 1.1233704090118408
0.32159391045570374 -0.028722256422042847 1.242742896080017
0.38611993193626404 -0.05923888087272644 1.1265335083007812
0.37796762585639954 -0.07407715171575546 1.1115477085113525
0.4274887442588806 -0.08974842727184296 1.2656482458114624
0.44269004464149475 -0.09779047966003418 1.3475981950759888
0.47000783681869507 -0.12195160239934921 1.1619594097137451
0.5135371685028076 -0.24172601103782654 0.8934237360954285
0.5504250526428223 -0.236545592546463 0.8431352376937866
0.5404621362686157 -0.26769405603408813 0.801289975643158
0.5634813904762268 -0.2500380277633667 0.745951771736145
0.5480405688285828 -0.1692703664302826 1.0862144231796265
0.5947150588035583 -0.2976490259170532 0.6771487593650818
-0.4179597496986389 0.058387838304042816 0.8634479641914368
-0.2122645229101181 -0.026204682886600494 0.7155042886734009
-0.18438348174095154 -0.0411817729473114 0.6622064113616943
-0.5155420899391174 0.15337321162223816 1.4387837648391724
-0.2535795271396637 0.07078205794095993 1.0510166883468628
-0.23895442485809326 0.06726911664009094 1.021283745765686
-0.22834210097789764 0.06017965450882912 1.0546259880065918
-0.18969778716564178 0.06822935491800308 1.0966501235961914
-0.14759626984596252 0.0501127615571022 1.2522263526916504
-0.15643855929374695 0.0329928919672966 1.2539918422698975
0.3642396032810211 -0.06181570887565613 1.3962652683258057
0.3867742717266083 -0.06850683689117432 1.4479854106903076
0.5463813543319702 -0.14138536155223846 1.0514730215072632
0.5462023019790649 -0.1408485472202301 0.9746841192245483
0.49652615189552307 -0.14326412975788116 1.1594531536102295
0.5326390862464905 -0.20686334371566772 0.8689298629760742
0.5621749758720398 -0.15718960762023926 1.1299442052841187
0.5497003793716431 -0.13743077218532562 1.2167781591415405
0.6361410617828369 -0.1853167861700058 1.052680492401123
0.6358480453491211 -0.20187310874462128 0.988876223564148
0.6496931910514832 -0.2508533000946045 0.8215537071228027
0.6073161363601685 -0.2693765163421631 0.7362674474716187
0.6674801111221313 -0.23107974231243134 0.811565101146698
-0.2191169559955597 -0.07267320901155472 0.5462216734886169
-0.17705167829990387 -0.051048316061496735 0.5454767346382141
-0.28565722703933716 -0.04315141588449478 0.7592864632606506
-0.21996301412582397 -0.07229457795619965 0.6093114614486694
-0.17877952754497528 -0.07112576067447662 0.606480062007904
-0.29277151823043823 0.025612499564886093 0.9173945188522339
-0.241001695394516 0.0655897706747055 1.2001599073410034
-0.22597333788871765 0.06312055885791779 1.1454105377197266
-0.22362926602363586 0.07342901080846786 1.118445634841919
-0.20748895406723022 0.052983492612838745 1.1952259540557861
-0.17854821681976318 0.03837159276008606 1.1295459270477295
-0.1730349361896515 0.05320121347904205 1.1176269054412842
0.26277661323547363 -0.01383600290864706 1.1285406351089478
0.47883695363998413 -0.1403174102306366 1.0868653059005737
0.5095880031585693 -0.17408829927444458 1.0846283435821533
0.5214827060699463 -0.19066433608531952 1.0413703918457031
0.6187545657157898 -0.24428428709506989 0.8718850016593933
-0.28375959396362305 -0.028015244752168655 0.610081136226654
-0.27303576469421387 -0.05641039088368416 0.5806105732917786
-0.26649242639541626 -0.04523801803588867 0.5753283500671387
-0.31552910804748535 0.0364856980741024 0.7993085980415344
-0.2677253484725952 -0.025927811861038208 0.7783199548721313
-0.28351640701293945 -0.02513648383319378 0.8309573531150818
-0.1747661828994751 0.04600464552640915 1.2150236368179321
-0.14760014414787292 0.042274050414562225 1.3228325843811035
-0.13527193665504456 0.04633510857820511 1.311411738395691
0.14298008382320404 -0.021938595920801163 1.2630234956741333
0.18741613626480103 0.014139197766780853 1.6480432748794556
0.35215553641319275 -0.0035922005772590637 1.5914247035980225
0.37306156754493713 -0.02358616329729557 1.6098463535308838
0.42761677503585815 -0.04307952895760536 1.5410246849060059
0.5869478583335876 -0.10637950152158737 1.290206789970398
0.6118664145469666 -0.1068759486079216 1.3259692192077637
0.6133615970611572 -0.09247235208749771 1.2642674446105957
0.6158322095870972 -0.11951648443937302 1.2491967678070068
0.6425678730010986 -0.10537885129451752 1.2650736570358276
-0.4688258767127991 0.11741676926612854 0.9463160037994385
-0.45109954476356506 0.12667453289031982 0.928044855594635
-0.5330587029457092 0.17452757060527802 1.1937401294708252
-0.5106760859489441 0.17519724369049072 1.182279109954834
-0.21755099296569824 -0.018688099458813667 0.5623177886009216
-0.1977672576904297 -0.036094505339860916 0.521313488483429
-0.2534748613834381 -0.06752137094736099 0.6474803686141968
-0.2903871536254883 0.02107859030365944 0.7522825598716736
-0.3632280230522156 0.08187659084796906 0.962793231010437
-0.5110785961151123 0.15875063836574554 1.4899462461471558
0.25744685530662537 -0.016595743596553802 1.194078803062439
0.27275732159614563 -0.003351755440235138 1.421818733215332
0.4030137360095978 -0.06495340168476105 1.1444413661956787
0.3861125409603119 -0.03799370303750038 1.2703218460083008
0.44300901889801025 -0.0910821259021759 1.0774108171463013
0.46068716049194336 -0.10710706561803818 1.0272889137268066
0.4444967210292816 -0.12128634750843048 1.1090668439865112
0.5507069826126099 -0.18220670521259308 0.8240037560462952
0.5566840171813965 -0.2003410905599594 0.8132781386375427
0.555720329284668 -0.2429087609052658 0.8828208446502686
0.621598482131958 -0.16892486810684204 1.0501618385314941
0.6574670076370239 -0.19532299041748047 0.8303812146186829
-0.2391427457332611 -0.05946880206465721 0.5503284931182861
-0.1912904977798462 -0.06186594441533089 0.5140644907951355
-0.22672414779663086 0.07957692444324493 1.02401864528656
-0.19944962859153748 0.08057183027267456 1.1160545349121094
-0.1781012862920761 0.049993209540843964 1.170956015586853
0.6293501853942871 -0.18956485390663147 0.8649715185165405
0.6581450700759888 -0.246634840965271 0.6318929195404053
0.6639224886894226 -0.25000014901161194 0.6471114158630371
-0.31201866269111633 -0.028581952676177025 0.7945106029510498
-0.2354779839515686 -0.026882950216531754 0.7287982702255249
-0.21785235404968262 -0.051213689148426056 0.6861782670021057
0.46517398953437805 -0.06532948464155197 1.4636249542236328
0.6728243827819824 -0.22777053713798523 0.6388356685638428
0.6714203357696533 -0.2172733098268509 0.9536252021789551
-0.24264372885227203 0.09915477782487869 1.2635889053344727
0.6512158513069153 -0.18136338889598846 1.043489933013916
-0.24831485748291016 -0.0009914897382259369 0.8027615547180176
0.5684903860092163 -0.276976078748703 0.6926743984222412
0.6394792199134827 -0.18057534098625183 1.030413269996643
-0.3028852939605713 -0.054416440427303314 0.7593436241149902
-0.3647570013999939 -0.13635742664337158 0.9718186259269714
-0.36994442343711853 -0.1327032744884491 0.982653796672821
-0.35264530777931213 -0.15389156341552734 0.9815519452095032
-0.3609790802001953 -0.15196245908737183 0.9918575882911682
-0.33985206484794617 -0.10392555594444275 1.0391039848327637
-0.3456360101699829 -0.11943439394235611 1.0183180570602417
-0.3365631699562073 -0.10880912840366364 0.9888596534729004
-0.3348722755908966 -0.08080308139324188 1.0208232402801514
-0.334584504365921 -0.13407857716083527 1.0248810052871704
-0.3370658755302429 -0.16244849562644958 1.0144189596176147
-0.3220362663269043 -0.06896639615297318 1.0989694595336914
-0.31702080368995667 -0.16071632504463196 1.0162696838378906
-0.3318288028240204 -0.127324178814888 1.014514684677124
-0.31790342926979065 -0.14244769513607025 1.0531909465789795
-0.3196958899497986 -0.11892498284578323 1.0442907810211182
-0.3121514916419983 -0.05788647383451462 1.0682388544082642
-0.313586950302124 -0.10983273386955261 1.0436217784881592
-0.3133101463317871 -0.11590956151485443 1.0679218769073486
-0.318006694316864 -0.09328802675008774 1.0956144332885742
-0.3343944847583771 -0.053220413625240326 1.1297414302825928
-0.32435423135757446 -0.10323454439640045 1.1264728307724
-0.30128908157348633 -0.003638794180005789 1.155110478401184
-0.30970174074172974 -0.01530245877802372 1.1113355159759521
-0.3239164650440216 -0.053468748927116394 1.164193868637085
-0.2774302661418915 -0.013271819800138474 1.1001737117767334
-0.2796397805213928 -0.0356164425611496 1.214248776435852
-0.292814165353775 -0.09623009711503983 1.1737315654754639
-0.2774587571620941 0.006883752532303333 1.142920970916748
-0.2467222660779953 0.00027716532349586487 1.1532809734344482
-0.249928817152977 0.009279826655983925 1.2099851369857788
-0.22706283628940582 0.009403221309185028 1.2085999250411987
-0.22031965851783752 -0.04048672318458557 1.2818200588226318
-0.25798600912094116 -0.07219351083040237 1.2185306549072266
-0.2168765366077423 0.016425233334302902 1.2528862953186035
-0.24289272725582123 -0.011479748412966728 1.2617429494857788
-0.20414909720420837 0.014111854135990143 1.2912533283233643
-0.18902495503425598 0.012372877448797226 1.32597017288208
-0.1825968623161316 -0.03513709455728531 1.3346055746078491
-0.21233044564723969 -0.07963887602090836 1.2405016422271729
-0.19025282561779022 0.05959753692150116 1.719723105430603
-0.13256658613681793 0.1080746203660965 1.3914633989334106
-0.12941014766693115 0.06641017645597458 0.8699641227722168
-0.17585380375385284 0.017000088468194008 0.8788595199584961
-0.15282151103019714 -0.07547235488891602 0.8826949596405029
-0.19619691371917725 -0.10333532094955444 0.8744451999664307
-0.17262187600135803 0.07176356017589569 1.6281676292419434
-0.19823166728019714 0.04782054200768471 1.7414882183074951
-0.165729820728302 0.05336453765630722 1.6919913291931152
-0.14623501896858215 0.08285451680421829 1.64365816116333
-0.15559996664524078 0.06429797410964966 1.592721700668335
-0.11522124707698822 -0.0005803816020488739 1.0363399982452393
-0.15264010429382324 -0.05006898567080498 1.0011546611785889
-0.15930086374282837 -0.11868321895599365 0.9888936281204224
-0.15260055661201477 0.0452885702252388 1.5244948863983154
-0.2947326898574829 -0.0642833486199379 0.06814614683389664
-0.31072187423706055 -0.12348304688930511 0.03174198418855667
-0.3145731985569 -0.14872261881828308 0.048358313739299774
-0.1549348086118698 -0.022247333079576492 1.3821182250976562
-0.1455492228269577 0.01804507151246071 1.3279438018798828
-0.13940013945102692 -0.008480645716190338 1.3091567754745483
-0.16297197341918945 -0.033905066549777985 1.370561957359314
-0.14614824950695038 -0.07766249775886536 1.3270312547683716
-0.2316594421863556 -0.029580604285001755 0.48411449790000916
-0.23292605578899384 -0.057445600628852844 0.39999160170555115
-0.24533796310424805 -0.005206911358982325 0.337625116109848
-0.2507874667644501 -0.03137943893671036 0.3667128384113312
-0.15955060720443726 0.062255118042230606 1.6611233949661255
-0.14133912324905396 -0.049314990639686584 1.2784249782562256
-0.1438715159893036 -0.05995968356728554 1.2360889911651611
-0.14662571251392365 -0.08473378419876099 1.267520546913147
-0.1708669364452362 -0.09848465025424957 1.2689495086669922
-0.24138318002223969 0.005342744290828705 0.26395753026008606
-0.15528298914432526 -0.019489284604787827 1.5206360816955566
-0.140663281083107 0.05035654827952385 1.5254695415496826
-0.14897052943706512 0.02161645144224167 1.5180414915084839
-0.19937124848365784 -0.06555204838514328 0.5822624564170837
-0.11287960410118103 0.04386374354362488 1.7547807693481445
-0.1301335096359253 -0.10619699954986572 1.2054710388183594
-0.1178245097398758 -0.033915307372808456 1.152273416519165
-0.13863863050937653 -0.1239057183265686 0.7506284713745117
-0.11481604725122452 0.09440328180789948 1.7043194770812988
-0.13440345227718353 -0.05365103483200073 1.395113229751587
-0.10511431843042374 -0.11808758974075317 0.8541833162307739
-0.13965263962745667 -0.13063248991966248 0.8759933114051819
-0.12323053181171417 -0.19833669066429138 0.9146013259887695
-0.10697963833808899 -0.21386727690696716 0.8513573408126831
-0.2881327271461487 -0.187795028090477 0.06554394960403442
-0.07666445523500443 0.11394990980625153 1.7034798860549927
-0.10616008192300797 0.05420202761888504 1.7400199174880981
-0.15357454121112823 0.0033718422055244446 1.4327062368392944
-0.13647286593914032 -0.0223284550011158 1.4790397882461548
-0.20914657413959503 0.01718561165034771 0.3326568603515625
-0.23833532631397247 -0.00811800453811884 0.21528226137161255
-0.277165949344635 -0.18608255684375763 0.10887888818979263
-0.24446988105773926 -0.004084425047039986 0.07512020319700241
-0.11421643197536469 -0.005512561649084091 1.3132888078689575
-0.18037265539169312 -0.09242349863052368 0.5549784898757935
-0.24343858659267426 -0.14523984491825104 0.009284114465117455
-0.2848303020000458 -0.14560240507125854 0.004988473374396563
-0.10638612508773804 0.042111847549676895 1.5412044525146484
-0.11067303270101547 0.012844368815422058 1.4985600709915161
-0.032628465443849564 -0.21617931127548218 0.9058082103729248
-0.07862813770771027 0.08911222219467163 0.8650506734848022
-0.23768185079097748 -0.11027222126722336 0.2760374844074249
-0.2151605188846588 -0.10836812853813171 0.20019248127937317
-0.2230256050825119 -0.013439495116472244 0.11706190556287766
-0.09841516613960266 -0.004989806562662125 1.2785675525665283
-0.10619785636663437 -0.025479841977357864 1.2379974126815796
-0.07934191077947617 -0.12425199151039124 1.3094151020050049
-0.14435121417045593 -0.02586999721825123 0.6744506359100342
-0.1216147169470787 -0.12578648328781128 0.7415760159492493
-0.07626785337924957 -0.11732964962720871 0.8142828941345215
-0.2067360132932663 -0.11699072271585464 0.166489377617836
-0.2314302921295166 -0.1794864535331726 0.07427036017179489
-0.13065193593502045 -0.07374460250139236 1.4724676609039307
-0.09849651157855988 0.0052813999354839325 1.3482266664505005
-0.0681513249874115 -0.0013423934578895569 1.2839930057525635
-0.14976517856121063 -0.09487084299325943 0.5770440101623535
-0.12665554881095886 -0.07537466287612915 0.5770524740219116
-0.1666177213191986 0.021136492490768433 0.5194985270500183
-0.1018456369638443 -0.06157718226313591 1.4436228275299072
-0.0760694146156311 -0.02284366637468338 1.426979660987854
-0.10513845831155777 0.018710900098085403 1.3877336978912354
-0.13860684633255005 -0.016183270141482353 0.5243110656738281
-0.06396108865737915 0.06658948957920074 1.744175910949707
-0.12492522597312927 -0.11423522233963013 1.6049962043762207
-0.03733423352241516 -0.18822182714939117 0.9867539405822754
-0.08077169954776764 -0.03341321647167206 1.4403982162475586
-0.05997291952371597 -0.06228284537792206 1.425622582435608
-0.08012565970420837 -0.04642954468727112 1.419729232788086
-0.07259387522935867 -0.11360957473516464 1.5376869440078735
-0.11044685542583466 -0.10525838285684586 1.4849932193756104
-0.05578974634408951 -0.0031287744641304016 1.4504140615463257
-0.10830330103635788 -0.040808796882629395 0.643500030040741
-0.022980596870183945 0.020046845078468323 1.7655103206634521
-0.0336783304810524 0.1217380091547966 1.6740965843200684
-0.06114562228322029 -0.1301916092634201 1.4887045621871948
-0.07440101355314255 -0.10650388151407242 1.4434080123901367
-0.038977645337581635 -0.013001210987567902 1.426284909248352
-0.04846256598830223 -0.10997051000595093 1.444105625152588
-0.009686779230833054 0.005712252110242844 1.4029446840286255
-0.028966711834073067 -0.015472926199436188 1.2775071859359741
-0.01784389466047287 0.0737420916557312 1.7423638105392456
-0.019614411517977715 -0.014850843697786331 1.4544103145599365
-0.024533160030841827 -0.05695129930973053 1.4405616521835327
0.011285539716482162 0.08799947798252106 1.703763484954834
-0.009587705135345459 0.030418477952480316 1.7480467557907104
-0.019316695630550385 -0.04847908765077591 1.4286577701568604
0.008811239153146744 -0.07926663756370544 1.4650598764419556
-0.013802211731672287 -0.028586283326148987 1.4340198040008545
0.0802282765507698 -0.09163400530815125 0.5975685119628906
0.011620363220572472 0.0095394067466259 1.4849483966827393
0.11633729934692383 -0.11145799607038498 0.514674186706543
-0.0034248707816004753 -0.16311746835708618 1.268010139465332
0.045037832111120224 -0.04476771876215935 1.2579474449157715
0.047819364815950394 -0.07184885442256927 1.146567463874817
0.15134455263614655 -0.12928175926208496 0.07754970341920853
0.16677361726760864 -0.12100644409656525 0.058270394802093506
0.13759778439998627 -0.0006477981805801392 0.08844341337680817
0.011376644484698772 -0.14736619591712952 1.253690242767334
0.0010832101106643677 -0.1880398988723755 1.1790785789489746
0.07420580834150314 -0.14112436771392822 0.7378040552139282
0.13355691730976105 -0.05102553963661194 0.062380895018577576
0.03909505903720856 0.020541846752166748 1.7082090377807617
-0.004939422011375427 -0.12504881620407104 1.6135966777801514
-0.008797179907560349 -0.10844160616397858 1.5286352634429932
-0.006136015057563782 -0.10927312076091766 1.484869122505188
0.09888286888599396 -0.16149765253067017 0.8830710649490356
0.08679725229740143 0.011158447712659836 1.7364068031311035
0.017198940739035606 0.007835719734430313 1.5378667116165161
0.015719730406999588 -0.011482451111078262 1.5085430145263672
0.13966584205627441 -0.021023105829954147 0.3351442217826843
0.1318414956331253 -0.011780910193920135 0.2733329236507416
0.14968380331993103 0.009225435554981232 0.07109449803829193
0.030966579914093018 0.006367910653352737 1.7923953533172607
0.0500585213303566 -0.013460364192724228 1.406314492225647
0.09930923581123352 -0.2195587456226349 0.8695826530456543
0.09034248441457748 -0.13227558135986328 0.8703287839889526
0.13009826838970184 -0.19577656686306 0.8719322681427002
0.09878624975681305 -0.040721140801906586 0.7582989931106567
0.19381289184093475 -0.12072612345218658 0.07015056163072586
0.04824182018637657 0.009171601384878159 1.7192631959915161
0.03552260994911194 -0.15968123078346252 1.14616060256958
0.039739325642585754 -0.13363945484161377 1.2711889743804932
0.040721286088228226 -0.14975039660930634 1.2688089609146118
0.12512153387069702 -0.18989524245262146 0.9392231106758118
0.03641257435083389 -0.06522462517023087 1.5502774715423584
0.04647788405418396 0.007837526500225067 1.5485756397247314
0.04159852862358093 -0.017478790134191513 1.5356876850128174
0.04789263755083084 -0.03356221690773964 1.5307706594467163
0.056393202394247055 -0.045545563101768494 1.507603645324707
0.13971072435379028 -0.06598839908838272 0.656783938407898
0.1377309262752533 -0.1318053901195526 0.6762945652008057
0.06327483057975769 -0.04841470345854759 1.3883198499679565
0.06795799732208252 -0.002499409019947052 1.3277125358581543
0.03573961183428764 -0.005462862551212311 1.344564437866211
0.04559240862727165 -0.02649928256869316 1.3206393718719482
0.12675170600414276 -0.11920738965272903 0.8387723565101624
0.19419187307357788 -0.00747884064912796 0.07414539903402328
0.20761436223983765 -0.031455010175704956 0.06890472769737244
0.05842401459813118 0.0007849447429180145 1.673087477684021
0.074753537774086 -0.026895929127931595 1.3806724548339844
0.2029438614845276 -0.06665030121803284 0.3203527629375458
0.0826873779296875 0.017354879528284073 1.6485612392425537
0.06107538193464279 0.04444528743624687 1.6529150009155273
0.06906989216804504 0.014296900480985641 1.6170501708984375
0.21035945415496826 -0.039648111909627914 0.14502286911010742
0.21752378344535828 -0.0889846682548523 0.07143530994653702
0.2062624990940094 -0.11923860758543015 0.09772409498691559
0.15156437456607819 -0.015397812239825726 0.9794919490814209
0.1518278270959854 -0.016171157360076904 0.8806546330451965
0.08391030132770538 -0.007308736443519592 1.7330176830291748
0.16888532042503357 0.037191759794950485 0.8875939249992371
0.17995336651802063 0.000628381036221981 0.9512255191802979
0.09217967092990875 -0.012286093086004257 1.3226255178451538
0.10424814373254776 -0.032428350299596786 1.3099310398101807
0.07466594874858856 -0.05106832832098007 1.3564867973327637
0.10426883399486542 -0.02118503674864769 1.2687036991119385
0.09459322690963745 -0.024764254689216614 1.2483770847320557
0.10937902331352234 -0.09870438277721405 1.2359601259231567
0.1217026486992836 -0.054981350898742676 1.270615816116333
0.1434076577425003 -0.03306636959314346 1.2050292491912842
0.15993621945381165 -0.041574928909540176 1.1295020580291748
0.18453553318977356 -0.056745439767837524 1.1453120708465576
0.16897772252559662 -0.07049503177404404 1.1952707767486572
0.1409713476896286 -0.10488801449537277 1.2154314517974854
0.1889047771692276 -0.07916343212127686 1.0939816236495972
0.2020604908466339 -0.14354407787322998 1.1484264135360718
0.21243266761302948 -0.12221784889698029 1.128358006477356
0.2050008922815323 -0.09673333168029785 1.1002415418624878
0.15954482555389404 -0.17764517664909363 1.1321467161178589
0.18391887843608856 -0.14948970079421997 1.0985863208770752
0.18613891303539276 -0.13046298921108246 1.0847493410110474
0.21941278874874115 -0.21436136960983276 0.9858124256134033
0.16281773149967194 -0.16498276591300964 1.0990837812423706
0.16232869029045105 -0.18295307457447052 1.0708298683166504
0.20291893184185028 -0.16689765453338623 1.0161194801330566
0.16795344650745392 -0.1735108643770218 1.0452827215194702
0.1608395278453827 -0.2001483142375946 1.0494436025619507
0.18491198122501373 -0.19740332663059235 1.0191782712936401
0.20366129279136658 -0.20428739488124847 1.0142511129379272
0.15691156685352325 -0.22292041778564453 1.0233193635940552
0.18132251501083374 -0.21707683801651 1.0140196084976196
0.1683003008365631 -0.21794824302196503 1.0230263471603394
0.211773082613945 -0.22062990069389343 0.9660182595252991
0.17529766261577606 -0.2326582372188568 1.010941982269287
0.19625020027160645 -0.20368123054504395 0.9795373678207397
0.19570091366767883 -0.2365221530199051 0.9793941974639893
0.21232298016548157 -0.23088999092578888 0.9820558428764343
-0.3139858841896057 -0.04792001470923424 1.0921950340270996
-0.3027861714363098 -0.1036081314086914 1.082213044166565
-0.29069358110427856 -0.08726450055837631 1.078392505645752
-0.3058779835700989 -0.12032836675643921 1.1188560724258423
-0.26029467582702637 -0.04606786370277405 1.086530327796936
-0.28070706129074097 -0.12096364796161652 1.1020249128341675
-0.20525681972503662 -0.008521368727087975 1.230100393295288
-0.20197755098342896 -0.06156625598669052 1.2089672088623047
-0.1718083918094635 -0.09697583317756653 0.9679397344589233
-0.17562228441238403 -0.015041187405586243 0.9496090412139893
-0.1257869303226471 0.05122919753193855 0.9332199096679688
-0.09527706354856491 0.1490049660205841 1.2544620037078857
-0.08756963908672333 0.1460449993610382 1.1962810754776
-0.08621806651353836 0.16921797394752502 1.1686983108520508
-0.15029704570770264 -0.011132679879665375 0.9693866968154907
-0.20315322279930115 0.04127606004476547 1.7109283208847046
-0.15461498498916626 0.008543230593204498 1.3481661081314087
-0.17510059475898743 0.0076838210225105286 1.2823134660720825
-0.02045917697250843 0.15854987502098083 1.0730103254318237
-0.04344446584582329 0.1628822237253189 0.9934068918228149
-0.2966967821121216 -0.082158163189888 0.1271364986896515
-0.3151201903820038 -0.1333286017179489 0.07787875086069107
-0.18011638522148132 0.03112831711769104 1.69386625289917
-0.16440843045711517 0.042598795145750046 1.6396894454956055
-0.15746763348579407 -0.12127339839935303 1.2452964782714844
-0.1572207361459732 -0.13767629861831665 1.2192776203155518
-0.16144908964633942 -0.15763595700263977 1.2153857946395874
-0.10342754423618317 0.11131439357995987 1.3675599098205566
-0.09520019590854645 0.10292083770036697 1.3633873462677002
-0.13807033002376556 -0.12347602844238281 1.2603850364685059
-0.1481216847896576 -0.05342506989836693 1.2016947269439697
-0.26780325174331665 -0.09893957525491714 0.19220635294914246
-0.2748078405857086 -0.05377054587006569 0.19963081181049347
-0.04710423946380615 0.12538902461528778 1.249220371246338
-0.1602572500705719 -0.008383180946111679 1.4450699090957642
-0.15916843712329865 -0.0028244629502296448 1.424187421798706
-0.14541172981262207 -0.006649740040302277 1.4068500995635986
-0.15965339541435242 -0.0012213215231895447 1.4036030769348145
-0.15902037918567657 -0.019899528473615646 1.3945664167404175
-0.15048222243785858 -0.10818073153495789 0.7966746091842651
-0.16249306499958038 -0.06960021704435349 0.792481541633606
-0.011554957367479801 0.2161845564842224 1.0828214883804321
-0.01445690169930458 0.21398945152759552 1.1329792737960815
-0.1290852278470993 -0.11663894355297089 1.2559584379196167
-0.1284933090209961 -0.10887199640274048 0.868404746055603
-0.2695259749889374 -0.0196489617228508 0.1247510313987732
-0.27478310465812683 -0.019448082894086838 0.0875190794467926
-0.13932904601097107 -0.18554949760437012 0.8538045287132263
-0.04514206945896149 0.1851620078086853 1.2315666675567627
-0.1623840630054474 -0.08260189741849899 1.6025043725967407
-0.13101144134998322 0.027466051280498505 1.522461175918579
-0.09607947617769241 0.11019954085350037 1.493001937866211
-0.09788241237401962 0.07499437779188156 1.550288200378418
-0.11772605776786804 0.07490871101617813 1.5239386558532715
-0.10226139426231384 0.09172730147838593 1.4401021003723145
-0.05112849548459053 0.13029557466506958 1.5366876125335693
-0.12290365993976593 -0.007850538939237595 1.4747177362442017
-0.08382293581962585 0.043797463178634644 0.9760648608207703
-0.14062455296516418 0.03719665855169296 1.793782114982605
-0.15036600828170776 0.03096672147512436 1.78782057762146
-0.1544639766216278 0.0201076939702034 1.7739882469177246
-0.02042526938021183 0.07199284434318542 1.4342361688613892
-0.07329180836677551 0.12351017445325851 1.4108927249908447
-0.2140791267156601 -0.08197510242462158 0.04881744086742401
-0.021640416234731674 0.1590825617313385 1.3588829040527344
-0.12677215039730072 -0.08407866209745407 1.5163336992263794
-0.18355976045131683 -0.05951697379350662 0.4020689129829407
-0.061560194939374924 0.07195185124874115 1.4933748245239258
-0.08619001507759094 0.03333593159914017 1.4757544994354248
-0.02888285368680954 0.13428977131843567 1.4590909481048584
-0.032290589064359665 0.051144592463970184 0.85886549949646
-0.19231978058815002 0.003149858908727765 0.35266512632369995
0.0336558073759079 0.17443963885307312 0.9950176477432251
-0.03139328956604004 0.03623826801776886 1.033715844154358
-0.11064095050096512 -0.14850187301635742 1.2554545402526855
-0.10330841690301895 -0.1514519453048706 1.1554044485092163
-0.180941641330719 -0.024650808423757553 0.33030804991722107
-0.1663648933172226 -0.039298638701438904 0.26783332228660583
-0.19699858129024506 0.010010385885834694 0.2631991505622864
-0.06873771548271179 0.055038128048181534 1.5112553834915161
-0.09367161989212036 -0.10168735682964325 0.6913259625434875
-0.119373619556427 -0.027487820014357567 0.6648575067520142
0.039065226912498474 0.21683573722839355 1.1246196031570435
0.04523034766316414 0.2076217234134674 1.0414549112319946
-0.05800488218665123 -0.1844366490840912 1.1817450523376465
-0.1953791379928589 -0.06795001029968262 0.1324092149734497
0.03403447940945625 0.1584119200706482 1.0332579612731934
0.024232180789113045 0.1377212405204773 1.0695000886917114
-0.0012043043971061707 0.05100638419389725 1.5038081407546997
-0.09247647970914841 -0.08036607503890991 1.3887484073638916
0.030794568359851837 0.1632094532251358 1.3405874967575073
0.024385716766119003 0.0614103227853775 1.4249989986419678
-0.010496407747268677 0.04370446875691414 1.5040842294692993
0.08226917684078217 0.14898045361042023 1.0430774688720703
0.1002783328294754 0.13586223125457764 0.9997439980506897
-0.02927522547543049 -0.09782297909259796 1.3849077224731445
0.013464299961924553 0.0347098782658577 1.032184362411499
-0.030804060399532318 -0.19960331916809082 1.1104434728622437
0.09085358679294586 0.13237005472183228 1.3658256530761719
0.00841771624982357 -0.014507099986076355 1.2945950031280518
0.05959544703364372 0.10808733105659485 1.4661458730697632
0.025406386703252792 0.06299847364425659 1.4672073125839233
0.02302427962422371 -0.03314318135380745 1.206588625907898
0.045571185648441315 0.09320701658725739 0.9232854843139648
-0.013539038598537445 -0.015021216124296188 1.7304456233978271
0.1330059915781021 -0.10095144808292389 0.08936145156621933
0.1233927458524704 -0.10915421694517136 0.06460370123386383
0.12628163397312164 -0.04580993950366974 0.10236221551895142
-0.04941563680768013 -0.12895506620407104 1.606423020362854
0.07027342915534973 -0.06240493804216385 0.7219125628471375
0.08103714883327484 0.04796159267425537 1.436903476715088
0.020236821845173836 -0.04602612555027008 1.4749510288238525
0.05818868428468704 -0.03161102533340454 1.4243714809417725
0.018204273656010628 -0.0010119937360286713 1.4004497528076172
0.11884739249944687 -0.03467723727226257 0.4027450680732727
0.14211340248584747 -0.11930288374423981 0.24533477425575256
0.13657110929489136 -0.03264600783586502 0.20852120220661163
0.14537344872951508 0.13484007120132446 1.0520315170288086
0.1407611221075058 0.1612279713153839 1.0201388597488403
0.10765911638736725 -0.1459214687347412 0.7495959997177124
0.1135517954826355 -0.05244641751050949 0.6659600734710693
-0.015629637986421585 -0.06213543936610222 1.7160011529922485
0.024862829595804214 -0.07443705946207047 1.6733688116073608
0.1310269683599472 -0.1302529275417328 0.5585871338844299
0.007291553542017937 -0.009102016687393188 1.7441107034683228
0.03038213402032852 -0.026567526161670685 1.694301724433899
0.05938926339149475 -0.09899809956550598 1.1424496173858643
0.06438414007425308 -0.08744020760059357 1.116097331047058
0.054797813296318054 -0.15936008095741272 1.0990979671478271
0.008560743182897568 -0.1124914139509201 1.6057692766189575
0.033075254410505295 -0.04599990323185921 1.5046272277832031
0.021946636959910393 -0.08518310636281967 1.5024616718292236
0.18317781388759613 0.11207007616758347 1.0145000219345093
0.0550231970846653 -0.08989065885543823 1.2963378429412842
0.06506631523370743 -0.15331906080245972 1.259568691253662
0.064726822078228 -0.10235452651977539 1.2420965433120728
0.17848166823387146 -0.016349341720342636 0.16132605075836182
0.19363924860954285 -0.09748829901218414 0.18232037127017975
0.20804373919963837 -0.08454816788434982 0.1676970273256302
0.04704450070858002 -0.0053588710725307465 1.7182213068008423
0.06381488591432571 -0.09845878928899765 1.2981336116790771
0.19219447672367096 -0.038452863693237305 0.44342976808547974
0.1714971661567688 -0.09388329088687897 0.4960486590862274
0.20079749822616577 -0.05236174166202545 0.3867398798465729
0.07087065279483795 -0.04774157330393791 1.4179049730300903
0.057713720947504044 -0.044409818947315216 1.4143706560134888
0.07737403362989426 -0.03634747117757797 1.3731651306152344
0.11824698746204376 0.06333332508802414 0.9332401156425476
0.13117563724517822 -0.11707800626754761 0.873920738697052
0.20665787160396576 -0.03629368543624878 0.26095038652420044
0.22300367057323456 -0.06703844666481018 0.26821839809417725
0.08058896660804749 -0.016427572816610336 1.3662900924682617
0.15790148079395294 0.06786057353019714 1.2843074798583984
0.16949133574962616 0.09250058233737946 1.2617000341415405
0.07337594032287598 -0.22632098197937012 1.1587616205215454
0.14721354842185974 -0.06640340387821198 1.0048081874847412
0.1491924524307251 -0.12382135540246964 0.9994556903839111
0.10773837566375732 -0.018245384097099304 1.1936835050582886
0.12111843377351761 -0.13117656111717224 1.0936858654022217
0.14187929034233093 -0.09554773569107056 1.0743803977966309
0.12304766476154327 -0.1604175567626953 1.1605695486068726
