0.6256799697875977 -0.15383216738700867 1.1237558126449585
-0.4116848111152649 0.0916275829076767 0.8465681076049805
-0.41178587079048157 0.07015084475278854 0.863295316696167
-0.40607166290283203 0.04576616734266281 0.8347097635269165
-0.19732706248760223 -0.062144696712493896 0.5741835832595825
-0.18806949257850647 -0.10994750261306763 0.5431371927261353
-0.2686973810195923 -0.042096447199583054 0.7585108280181885
-0.2689164876937866 -0.053651485592126846 0.7031503915786743
-0.28074508905410767 -0.07669655233621597 0.7461959719657898
-0.24799485504627228 -0.08802195638418198 0.6350806951522827
-0.21599966287612915 -0.07379575073719025 0.6465142369270325
-0.2035083770751953 -0.10356985032558441 0.6185123920440674
-0.3269597589969635 0.0033524036407470703 0.8956998586654663
-0.30353474617004395 -0.030283823609352112 0.8525075316429138
-0.3133036494255066 -0.01289520412683487 0.84848952293396
-0.23564282059669495 -0.08891236782073975 0.6853471994400024
-0.22881020605564117 -0.06626227498054504 0.6846866011619568
-0.2725282907485962 -0.0616653673350811 0.7797216176986694
-0.257560670375824 -0.048931315541267395 0.7321187257766724
-0.3667021095752716 0.08976826071739197 1.0328071117401123
-0.2574955224990845 0.038120973855257034 0.8881878852844238
-0.23295465111732483 0.02836471050977707 0.9341069459915161
-0.22965508699417114 0.048470981419086456 0.9294778108596802
-0.3336934447288513 0.052086737006902695 1.0738449096679688
-0.26801615953445435 0.051002319902181625 1.021743655204773
-0.2402961552143097 0.05442002788186073 0.9639776945114136
-0.2377246618270874 0.0347023569047451 0.9575344324111938
-0.3271307349205017 0.0898495689034462 1.313723087310791
-0.24693098664283752 0.06958532333374023 1.0560896396636963
-0.24574996531009674 0.04661822319030762 1.1034554243087769
-0.22242334485054016 0.07021792978048325 1.063263177871704
-0.18989510834217072 0.046490781009197235 1.1127655506134033
-0.19755512475967407 0.06392361968755722 1.0811487436294556
-0.163826122879982 0.05176606774330139 1.1751163005828857
0.4278069734573364 -0.09383810311555862 1.0512655973434448
0.40524736046791077 -0.055421359837055206 1.5379619598388672
0.4947936236858368 -0.13444581627845764 1.0130432844161987
0.45080581307411194 -0.10092668235301971 0.9947268962860107
0.4631546139717102 -0.1416902393102646 0.990110456943512
0.474437952041626 -0.12878884375095367 0.9833781719207764
0.4536445736885071 -0.10021357983350754 1.1875853538513184
0.46594786643981934 -0.17622904479503632 1.014371633529663
0.4801172912120819 -0.19193299114704132 0.9589462280273438
0.46122685074806213 -0.21227727830410004 0.9824680685997009
0.4676821529865265 -0.21326811611652374 0.9533377885818481
0.48657166957855225 -0.20348742604255676 0.8999256491661072
0.5243428945541382 -0.2265353500843048 0.6997936964035034
0.5365273356437683 -0.23423509299755096 0.648286759853363
0.5657201409339905 -0.22576193511486053 0.6362659931182861
0.5171141624450684 -0.16307365894317627 0.9939089417457581
0.5287978053092957 -0.16671060025691986 0.9570443034172058
0.5042965412139893 -0.2188727855682373 0.9320276975631714
0.49572622776031494 -0.22813209891319275 0.8928857445716858
0.480892151594162 -0.25431588292121887 0.861993134021759
0.47996997833251953 -0.1275431215763092 1.3001728057861328
0.5731478929519653 -0.18987426161766052 0.9257287979125977
0.5981267094612122 -0.20809206366539001 0.8788970708847046
0.5629112720489502 -0.18197408318519592 1.0511833429336548
0.6170681715011597 -0.27452322840690613 0.7059201002120972
0.6266419291496277 -0.23826302587985992 0.6701233983039856
0.5914989113807678 -0.22000817954540253 0.9088850021362305
0.5967658162117004 -0.23520755767822266 0.8577920198440552
0.6749875545501709 -0.1828727275133133 1.0352228879928589
0.6268572807312012 -0.21752983331680298 0.9973540902137756
0.6468111872673035 -0.1996740996837616 0.9911594986915588
0.657483696937561 -0.23495057225227356 0.8615285158157349
0.6621941924095154 -0.21720924973487854 0.8709918856620789
-0.46060627698898315 0.13378611207008362 1.0099449157714844
-0.20587508380413055 -0.05467930808663368 0.5163010358810425
-0.33221372961997986 -0.002440590411424637 0.8299927115440369
-0.31123822927474976 -0.02568092569708824 0.8050930500030518
-0.35270488262176514 0.03059614822268486 0.8708160519599915
-0.48381200432777405 0.13877347111701965 1.3201942443847656
-0.3349803686141968 0.06434594839811325 0.9066870212554932
-0.32142066955566406 0.04321540519595146 0.8808774948120117
-0.1560991257429123 -0.06980790197849274 0.5598927140235901
-0.14297056198120117 -0.04491105303168297 0.555523157119751
-0.28901877999305725 -0.013974364846944809 0.8543158769607544
-0.2716493308544159 -0.037131939083337784 0.8021529912948608
-0.2861667275428772 -0.031717292964458466 0.8448243737220764
-0.4644404649734497 0.11589495837688446 1.27517569065094
-0.41086602210998535 0.1209803894162178 1.1748758554458618
-0.21282193064689636 0.08205697685480118 1.1806998252868652
0.1486353874206543 -0.011381955817341805 1.2285778522491455
0.1339763104915619 -0.023106370121240616 1.2363035678863525
0.2330041527748108 -0.05200676620006561 1.1791657209396362
0.24006791412830353 -0.038957200944423676 1.107689619064331
0.30594855546951294 -0.03992956876754761 1.2207223176956177
0.3640294075012207 -0.06961767375469208 1.1047892570495605
0.3548663854598999 -0.08339648693799973 1.090336561203003
0.4080582857131958 -0.10268104076385498 1.2364915609359741
0.42627015709877014 -0.10995788872241974 1.3161207437515259
0.4449504315853119 -0.1343832015991211 1.1326353549957275
0.47667890787124634 -0.24660374224185944 0.8667062520980835
0.5136160850524902 -0.24267497658729553 0.8166046738624573
0.5009385943412781 -0.2697899341583252 0.7747699022293091
0.5239026546478271 -0.2536137104034424 0.7218266129493713
0.5185099840164185 -0.17720040678977966 1.057079792022705
0.549930214881897 -0.2994686961174011 0.6518064141273499
-0.3999294936656952 0.055466435849666595 0.8593997955322266
-0.1995856612920761 -0.029722321778535843 0.7119472026824951
-0.17175178229808807 -0.0448044128715992 0.6607744097709656
-0.49624741077423096 0.144123837351799 1.4257465600967407
-0.24281847476959229 0.06442184001207352 1.0446630716323853
-0.22930674254894257 0.06100519374012947 1.0154938697814941
-0.21831786632537842 0.05461549386382103 1.0466656684875488
-0.18199926614761353 0.06237756460905075 1.0904033184051514
-0.14261093735694885 0.04301758110523224 1.2439861297607422
-0.1505613923072815 0.025855138897895813 1.2447583675384521
0.35152703523635864 -0.07579944282770157 1.3672595024108887
0.3760695457458496 -0.0825372189283371 1.4157562255859375
0.5165320038795471 -0.15064191818237305 1.0237118005752563
0.5143042206764221 -0.14930029213428497 0.9487124681472778
0.4712841808795929 -0.1540944129228592 1.1293672323226929
0.4955049455165863 -0.2124103158712387 0.8437702655792236
0.5347965359687805 -0.166276216506958 1.0984634160995483
0.5256368517875671 -0.14805442094802856 1.1853833198547363
0.6052206754684448 -0.19348423182964325 1.0219895839691162
0.6038554906845093 -0.2083958089351654 0.9592750668525696
0.6107404828071594 -0.2557639479637146 0.7933653593063354
0.5647488236427307 -0.2720361351966858 0.7107845544815063
0.6265020370483398 -0.2351807802915573 0.783297598361969
-0.2055274397134781 -0.07260230928659439 0.5434967875480652
-0.16491185128688812 -0.05195000767707825 0.544385552406311
-0.2711508870124817 -0.04366220533847809 0.7533364295959473
-0.206568643450737 -0.07274937629699707 0.6062893867492676
-0.1672085076570511 -0.07061774283647537 0.6046701669692993
-0.27729332447052 0.020793627947568893 0.9104025959968567
-0.23165547847747803 0.058289382606744766 1.191036343574524
-0.2168416976928711 0.057375963777303696 1.1380720138549805
-0.21413326263427734 0.0662788599729538 1.1107923984527588
-0.20015034079551697 0.04541527479887009 1.1867196559906006
-0.1704038381576538 0.03140360116958618 1.121655821800232
-0.16537988185882568 0.04659483581781387 1.1100373268127441
0.24436479806900024 -0.02300826646387577 1.1134295463562012
0.45085012912750244 -0.14919869601726532 1.0604431629180908
0.48094412684440613 -0.18316344916820526 1.0550051927566528
0.4915083050727844 -0.19903559982776642 1.0125640630722046
0.5809265375137329 -0.24974530935287476 0.8440742492675781
-0.26871711015701294 -0.029540587216615677 0.6092624068260193
-0.2577351927757263 -0.05547529458999634 0.5788228511810303
-0.25157779455184937 -0.04504142701625824 0.5730202794075012
-0.30004119873046875 0.0341767854988575 0.7940837740898132
-0.2537941038608551 -0.026959184557199478 0.7727310061454773
-0.2704070508480072 -0.02746640518307686 0.8243866562843323
-0.16869992017745972 0.03789577633142471 1.2061302661895752
-0.1425892561674118 0.03554604947566986 1.3134129047393799
-0.13111287355422974 0.03913652151823044 1.3020142316818237
0.13474544882774353 -0.031687479466199875 1.248805284500122
0.18997828662395477 -0.0009434595704078674 1.618382453918457
0.3477326035499573 -0.020050378516316414 1.5581107139587402
0.36880218982696533 -0.04055792838335037 1.5747262239456177
0.41886574029922485 -0.058789223432540894 1.5053398609161377
0.5670840740203857 -0.12015842646360397 1.2567123174667358
0.5918281078338623 -0.11811733990907669 1.2909235954284668
0.5913901329040527 -0.10430017113685608 1.2321572303771973
0.5932077169418335 -0.13134784996509552 1.215928554534912
0.6210207343101501 -0.11785831302404404 1.232140302658081
-0.45090657472610474 0.11420167982578278 0.9407088756561279
-0.431192547082901 0.12337349355220795 0.9248446822166443
-0.5138644576072693 0.16783258318901062 1.187018871307373
-0.492473304271698 0.1693650484085083 1.1740262508392334
-0.20430099964141846 -0.01944063790142536 0.5614631772041321
-0.18490645289421082 -0.03648386150598526 0.5221498012542725
-0.2402978241443634 -0.06895165145397186 0.6439709663391113
-0.27766793966293335 0.01873430609703064 0.7485305070877075
-0.3481813669204712 0.07751467823982239 0.9568454027175903
-0.49385568499565125 0.15036016702651978 1.47622811794281
0.24201855063438416 -0.028306324034929276 1.17801034450531
0.2651517987251282 -0.017636898905038834 1.3985356092453003
0.37966209650039673 -0.07500879466533661 1.1207714080810547
0.36869680881500244 -0.051244158297777176 1.2464643716812134
0.4160253405570984 -0.10108605027198792 1.0528957843780518
0.4321298897266388 -0.1171242967247963 1.0024465322494507
0.4193435609340668 -0.1312481313943863 1.082577109336853
0.5143140554428101 -0.18899644911289215 0.7998852133750916
0.5187764167785645 -0.2046118974685669 0.7902169823646545
0.5197557806968689 -0.24763384461402893 0.8551403880119324
0.5914615392684937 -0.17775623500347137 1.0203698873519897
0.6185325384140015 -0.2007366418838501 0.8042984008789062
-0.2251265048980713 -0.06066529452800751 0.5481992363929749
-0.1785982847213745 -0.061772387474775314 0.5135964751243591
-0.21574461460113525 0.07392233610153198 1.0182201862335205
-0.1908627152442932 0.07401318103075027 1.1097183227539062
-0.17060169577598572 0.04327389597892761 1.163581132888794
0.5921651721000671 -0.19389402866363525 0.8392631411552429
0.6137138605117798 -0.2480703592300415 0.6094927191734314
0.6188247203826904 -0.25176793336868286 0.6238245964050293
-0.29825514554977417 -0.030059166252613068 0.7884798049926758
-0.22320015728473663 -0.028744669631123543 0.7234205007553101
-0.2049955129623413 -0.05256398394703865 0.6821683645248413
0.45253708958625793 -0.0790325254201889 1.428941249847412
0.6281411647796631 -0.2288632094860077 0.6160218119621277
0.6355621814727783 -0.22379083931446075 0.9240549802780151
-0.23382629454135895 0.09165366739034653 1.2551772594451904
0.6207855939865112 -0.19057591259479523 1.0121928453445435
-0.23394864797592163 -0.002895347774028778 0.797412633895874
0.5258855223655701 -0.2791507840156555 0.6682990193367004
0.6076796054840088 -0.18685242533683777 1.0011613368988037
-0.28795745968818665 -0.05645526200532913 0.7549021244049072
-0.3569484353065491 -0.12103413045406342 0.9604761004447937
-0.3632758557796478 -0.11737978458404541 0.9705202579498291
-0.34545019268989563 -0.13932618498802185 0.969504177570343
-0.35486945509910583 -0.13680399954319 0.9785979390144348
-0.33270373940467834 -0.09284792840480804 1.0276672840118408
-0.33883199095726013 -0.10669025778770447 1.0067192316055298
-0.3293459117412567 -0.09736969321966171 0.9773954153060913
-0.3267391324043274 -0.06937108933925629 1.0093724727630615
-0.32907721400260925 -0.1222398579120636 1.0110056400299072
-0.3319433331489563 -0.14920273423194885 1.0001380443572998
-0.31571394205093384 -0.061991363763809204 1.086493968963623
-0.31276923418045044 -0.14861707389354706 1.0027557611465454
-0.3261098861694336 -0.11571124196052551 1.0025192499160767
-0.3151136040687561 -0.1318589597940445 1.0381766557693481
-0.31500840187072754 -0.10903938859701157 1.0322163105010986
-0.30460795760154724 -0.05082165449857712 1.0570898056030273
-0.30883586406707764 -0.09961675107479095 1.0308812856674194
-0.3084215819835663 -0.10679680109024048 1.0554145574569702
-0.3120051622390747 -0.08517336845397949 1.0833274126052856
-0.32706132531166077 -0.04761636257171631 1.1172388792037964
-0.3202516436576843 -0.09669633954763412 1.1121019124984741
-0.2933010458946228 0.00011700065806508064 1.1434671878814697
-0.3007160425186157 -0.011586185544729233 1.1011618375778198
-0.3171405494213104 -0.048501744866371155 1.151538372039795
-0.26961618661880493 -0.009005587548017502 1.0904161930084229
-0.2738807201385498 -0.03296437859535217 1.2011719942092896
-0.29002079367637634 -0.09180016815662384 1.159529685974121
-0.2691171169281006 0.009279366582632065 1.1334985494613647
-0.24018806219100952 0.001572396606206894 1.1437788009643555
-0.24237841367721558 0.008445972576737404 1.1998677253723145
-0.22002644836902618 0.008330162614583969 1.198591947555542
-0.21575835347175598 -0.042994968593120575 1.2694180011749268
-0.25495675206184387 -0.072484090924263 1.2041490077972412
-0.21025602519512177 0.013330943882465363 1.242292881011963
-0.2375791221857071 -0.013274403288960457 1.2493717670440674
-0.1983359307050705 0.009512778371572495 1.2802468538284302
-0.18403300642967224 0.007030319422483444 1.3151555061340332
-0.17903201282024384 -0.0396142452955246 1.3211392164230347
-0.21043556928634644 -0.08140011131763458 1.2279795408248901
-0.18359971046447754 0.04689357429742813 1.6998472213745117
-0.12416152656078339 0.09793519973754883 1.3820985555648804
-0.12847791612148285 0.0660109892487526 0.8622195720672607
-0.17427130043506622 0.01636154018342495 0.8706497550010681
-0.15093472599983215 -0.0760357677936554 0.8742924928665161
-0.19424301385879517 -0.10400260984897614 0.8660194873809814
-0.16538406908512115 0.061405036598443985 1.6113688945770264
-0.19243669509887695 0.03622300550341606 1.720695972442627
-0.15950427949428558 0.0414145365357399 1.6728675365447998
-0.13898791372776031 0.07186626642942429 1.627378225326538
-0.14900925755500793 0.0531482957303524 1.5759068727493286
-0.11530205607414246 -0.002625994384288788 1.0289020538330078
-0.15307816863059998 -0.0496554896235466 0.9930547475814819
-0.15969175100326538 -0.11749732494354248 0.980095624923706
-0.1477702111005783 0.035252369940280914 1.5096206665039062
-0.285189688205719 -0.06510798633098602 0.05995834618806839
-0.3008248805999756 -0.1256481111049652 0.026574552059173584
-0.30538803339004517 -0.14984403550624847 0.04437318071722984
-0.1523159295320511 -0.02931239828467369 1.3682910203933716
-0.1416780948638916 0.010906193405389786 1.3169591426849365
-0.13646849989891052 -0.015093691647052765 1.2973499298095703
-0.1607610583305359 -0.03999166935682297 1.3564122915267944
-0.144210547208786 -0.08315394073724747 1.311771273612976
-0.22368772327899933 -0.029627982527017593 0.47582417726516724
-0.2239656150341034 -0.057709988206624985 0.3914867043495178
-0.23658855259418488 -0.005105367861688137 0.3305347263813019
-0.24261155724525452 -0.03221132606267929 0.3580995798110962
-0.15261372923851013 0.051016438752412796 1.6427963972091675
-0.13895189762115479 -0.05480407923460007 1.2658307552337646
-0.1423138529062271 -0.06381887942552567 1.2244014739990234
-0.14551816880702972 -0.0879935771226883 1.2543468475341797
-0.16900984942913055 -0.10090470314025879 1.2548514604568481
-0.23223544657230377 0.005131945945322514 0.25598397850990295
-0.1511068344116211 -0.027687005698680878 1.5036263465881348
-0.1342111974954605 0.04061741754412651 1.5104148387908936
-0.14342395961284637 0.011482581496238708 1.5022214651107788
-0.19264504313468933 -0.06655893474817276 0.5740846395492554
-0.10764685273170471 0.03116476535797119 1.7334293127059937
-0.12933698296546936 -0.10867948830127716 1.1930594444274902
-0.11716531217098236 -0.03715422376990318 1.143715500831604
-0.1344590038061142 -0.1249101385474205 0.742297887802124
-0.1078115776181221 0.08070244640111923 1.687162160873413
-0.1315581053495407 -0.05933563783764839 1.3793282508850098
-0.1033257246017456 -0.11889155209064484 0.8474442958831787
-0.1382129192352295 -0.1305343061685562 0.868920087814331
-0.12253175675868988 -0.1967516839504242 0.9077942371368408
-0.10579898953437805 -0.2126058042049408 0.8461174964904785
-0.2786564528942108 -0.18813467025756836 0.06240135431289673
-0.07137081772089005 0.09755425155162811 1.686913251876831
-0.10133464634418488 0.04100104421377182 1.718554973602295
-0.14935508370399475 -0.0047254301607608795 1.418307900428772
-0.13260915875434875 -0.029853928834199905 1.4623281955718994
-0.20199617743492126 0.01611638441681862 0.3249902129173279
-0.22990189492702484 -0.008597997017204762 0.2077617198228836
-0.26806414127349854 -0.18487833440303802 0.10552899539470673
-0.23487895727157593 -0.0027172043919563293 0.06592990458011627
-0.11127258837223053 -0.011780478060245514 1.3024754524230957
-0.1735445261001587 -0.09288771450519562 0.5467803478240967
-0.2339562028646469 -0.14793412387371063 0.004466362297534943
-0.2743046283721924 -0.14843153953552246 0.0013111471198499203
-0.10088922828435898 0.030969824641942978 1.525492787361145
-0.10774187743663788 0.002819754183292389 1.4829684495925903
-0.03292445093393326 -0.21472713351249695 0.9001063704490662
-0.07788961380720139 0.08871281147003174 0.8595382571220398
-0.2292129546403885 -0.11059637367725372 0.2682873010635376
-0.20665343105793 -0.10781817138195038 0.19244322180747986
-0.21345683932304382 -0.011348430067300797 0.10827631503343582
-0.0961942970752716 -0.011631745845079422 1.2682085037231445
-0.10521037131547928 -0.030767308548092842 1.2281994819641113
-0.07914138585329056 -0.12969759106636047 1.2932672500610352
-0.1391534060239792 -0.02626541443169117 0.666542649269104
-0.11784395575523376 -0.1269574612379074 0.7347337603569031
-0.07392534613609314 -0.11829383671283722 0.8090539574623108
-0.1977367252111435 -0.11611253023147583 0.15865270793437958
-0.22157606482505798 -0.17891868948936462 0.06967098265886307
-0.12764231860637665 -0.08094760775566101 1.454555869102478
-0.09530556201934814 -0.0028889700770378113 1.3367218971252441
-0.06637830287218094 -0.00869535282254219 1.2746425867080688
-0.14310187101364136 -0.09468536078929901 0.5693093538284302
-0.12141004949808121 -0.07532082498073578 0.5690187215805054
-0.15948566794395447 0.020896364003419876 0.5122692584991455
-0.10078932344913483 -0.06844305992126465 1.4258626699447632
-0.07364633679389954 -0.03202003240585327 1.4117192029953003
-0.10191348195075989 0.011529780924320221 1.3762197494506836
-0.13293443620204926 -0.016685033217072487 0.5175862312316895
-0.05947012081742287 0.051536038517951965 1.7241696119308472
-0.12402817606925964 -0.121839739382267 1.582571029663086
-0.038505423814058304 -0.1880146861076355 0.9770041704177856
-0.07920637726783752 -0.04210715740919113 1.4244639873504639
-0.05950719863176346 -0.0709390789270401 1.4092501401901245
-0.07924525439739227 -0.054774295538663864 1.4031912088394165
-0.07288359105587006 -0.12172666192054749 1.5170862674713135
-0.10857550799846649 -0.11148688197135925 1.4659614562988281
-0.05343683063983917 -0.01288801059126854 1.4351240396499634
-0.10296138375997543 -0.04072585701942444 0.636662483215332
-0.020293008536100388 0.005501784384250641 1.7423886060714722
-0.027588292956352234 0.10602951794862747 1.6589174270629883
-0.06243671104311943 -0.13809072971343994 1.4679150581359863
-0.07471039891242981 -0.11303409934043884 1.4242886304855347
-0.037244752049446106 -0.023098569363355637 1.4114373922348022
-0.04891270771622658 -0.11837570369243622 1.4257155656814575
-0.008995529264211655 -0.005648273974657059 1.3897358179092407
-0.02712886594235897 -0.023310333490371704 1.2673090696334839
-0.014982547610998154 0.05762545019388199 1.7219321727752686
-0.019405590370297432 -0.02439321205019951 1.4383985996246338
-0.025031093508005142 -0.06547514349222183 1.4238207340240479
0.014566544443368912 0.07051804661750793 1.6863551139831543
-0.008250504732131958 0.01467522606253624 1.7267036437988281
-0.02055523544549942 -0.05740373581647873 1.4135241508483887
0.007929403334856033 -0.08791467547416687 1.447372555732727
-0.014252567663788795 -0.03844424709677696 1.4183070659637451
0.07665612548589706 -0.09130431711673737 0.5893404483795166
0.012595534324645996 -0.002122238278388977 1.4701589345932007
0.11295255273580551 -0.11191736906766891 0.5061140060424805
-0.008022540248930454 -0.16831788420677185 1.253038763999939
0.043290309607982635 -0.05421532690525055 1.2462207078933716
0.04537555202841759 -0.07683460414409637 1.1376129388809204
0.14574475586414337 -0.14780011773109436 0.07045869529247284
0.16117195785045624 -0.14166364073753357 0.049115728586912155
0.13190041482448578 -0.012086085975170135 0.07567338645458221
0.006362602114677429 -0.15294411778450012 1.239546537399292
-0.0028766822069883347 -0.19106820225715637 1.1651545763015747
0.07115471363067627 -0.1407051384449005 0.7285702228546143
0.12839655578136444 -0.06629976630210876 0.05016634613275528
0.03882564231753349 0.004929639399051666 1.6867647171020508
-0.007827870547771454 -0.13517607748508453 1.590258002281189
-0.009333759546279907 -0.11797680705785751 1.5077332258224487
-0.008892092853784561 -0.11798439919948578 1.4652314186096191
0.0962485671043396 -0.16221249103546143 0.8750507235527039
0.08599011600017548 -0.00575609877705574 1.7150688171386719
0.017882825806736946 -0.0034853480756282806 1.5202105045318604
0.01570466160774231 -0.024232860654592514 1.491148829460144
0.13531233370304108 -0.024961110204458237 0.32461583614349365
0.12763847410678864 -0.017620373517274857 0.2621232271194458
0.14437487721443176 -0.004012010991573334 0.05710061267018318
0.030531693249940872 -0.008855115622282028 1.7689237594604492
0.04853403568267822 -0.02620188146829605 1.389457106590271
0.09716084599494934 -0.21944299340248108 0.8616746664047241
0.08707490563392639 -0.132741779088974 0.8617763519287109
0.12798304855823517 -0.19622260332107544 0.8634114265441895
0.09551941603422165 -0.03989819809794426 0.749700665473938
0.18726584315299988 -0.14176605641841888 0.06159813702106476
0.04921063035726547 -0.006061479449272156 1.69754159450531
0.032264042645692825 -0.1637836992740631 1.133617877960205
0.03401599079370499 -0.14124953746795654 1.2558166980743408
0.033785734325647354 -0.15774355828762054 1.2533224821090698
0.12418682873249054 -0.19023838639259338 0.9302473068237305
0.03519398346543312 -0.07630961388349533 1.5297715663909912
0.04653863236308098 -0.0040394216775894165 1.5321617126464844
0.04206532984972 -0.029117662459611893 1.5173711776733398
0.047234274446964264 -0.044693723320961 1.5127842426300049
0.05363430455327034 -0.05703655630350113 1.4896211624145508
0.13605888187885284 -0.06597854942083359 0.647809624671936
0.13400746881961823 -0.13119928538799286 0.6670905351638794
0.058374758809804916 -0.06251135468482971 1.3729579448699951
0.06440383940935135 -0.019203100353479385 1.3127720355987549
0.03422081470489502 -0.020302176475524902 1.3313448429107666
0.04268183559179306 -0.040185317397117615 1.3067827224731445
0.12356117367744446 -0.11938892304897308 0.8297034502029419
0.18916989862918854 -0.023585952818393707 0.06005527824163437
0.20165464282035828 -0.048360925167798996 0.056351881474256516
0.05722882226109505 -0.013728052377700806 1.6523059606552124
0.07234465330839157 -0.038501109927892685 1.3648682832717896
0.19820091128349304 -0.07208357751369476 0.31017735600471497
0.08272309601306915 0.002083543688058853 1.6294511556625366
0.06145600229501724 0.02903546765446663 1.6346818208694458
0.06900904327630997 5.7891011238098145e-06 1.5984981060028076
0.2048032134771347 -0.05258559063076973 0.1333356499671936
0.2116621732711792 -0.10856500267982483 0.06184894219040871
0.20062878727912903 -0.13689734041690826 0.0897834524512291
0.15095344185829163 -0.0166570246219635 0.9698249101638794
0.14929600059986115 -0.017044074833393097 0.8712685108184814
0.08293422311544418 -0.022194337099790573 1.7101942300796509
0.16640493273735046 0.03624418377876282 0.8776658773422241
0.17854684591293335 -0.0003130934201180935 0.9406518340110779
0.08704173564910889 -0.03016757220029831 1.307584285736084
0.09574275463819504 -0.0510517954826355 1.2949638366699219
0.06867599487304688 -0.06478742510080338 1.3428192138671875
0.09694397449493408 -0.04134192317724228 1.2538185119628906
0.08687397837638855 -0.04355428367853165 1.233933687210083
0.09564760327339172 -0.1174883171916008 1.2244127988815308
0.10967506468296051 -0.07500630617141724 1.2561042308807373
0.13019053637981415 -0.05659160017967224 1.1896555423736572
0.14318275451660156 -0.06697854399681091 1.114914894104004
0.16696083545684814 -0.08165334165096283 1.1287493705749512
0.15426099300384521 -0.09292853623628616 1.18049955368042
0.12492478638887405 -0.12449288368225098 1.2011268138885498
0.16926999390125275 -0.10738837718963623 1.0783051252365112
0.18283548951148987 -0.16637015342712402 1.1337018013000488
0.19156117737293243 -0.14768651127815247 1.1131662130355835
0.18403980135917664 -0.1230771541595459 1.0860564708709717
0.13760943710803986 -0.19985035061836243 1.119896411895752
0.1624365895986557 -0.17354340851306915 1.0860811471939087
0.16408807039260864 -0.15614108741283417 1.0711175203323364
0.19304244220256805 -0.24127143621444702 0.9759691953659058
0.14077217876911163 -0.18765029311180115 1.0872509479522705
0.14081430435180664 -0.2070786952972412 1.0591312646865845
0.18030822277069092 -0.19183757901191711 1.0039489269256592
0.14541789889335632 -0.19767558574676514 1.0334330797195435
0.13756877183914185 -0.22323448956012726 1.038342833518982
0.1607561707496643 -0.22218720614910126 1.0090733766555786
0.17700979113578796 -0.22848622500896454 1.0049690008163452
0.1322997659444809 -0.24383720755577087 1.0138686895370483
0.1550409197807312 -0.2410375475883484 1.0046964883804321
0.14330053329467773 -0.24021506309509277 1.0136961936950684
0.18577058613300323 -0.2464972287416458 0.9568862318992615
0.14860986173152924 -0.2550387382507324 1.0018192529678345
0.17072901129722595 -0.2293042242527008 0.9701862335205078
0.17011365294456482 -0.26109910011291504 0.9703856110572815
0.18526914715766907 -0.25620055198669434 0.972869336605072
-0.30512553453445435 -0.04214657098054886 1.0808777809143066
-0.2975412607192993 -0.09555599093437195 1.0686801671981812
-0.28422605991363525 -0.08005040138959885 1.0658918619155884
-0.30177730321884155 -0.11177977174520493 1.1045135259628296
-0.2532612979412079 -0.042048823088407516 1.076127290725708
-0.27743807435035706 -0.11422502249479294 1.0876455307006836
-0.19951669871807098 -0.011275751516222954 1.220276117324829
-0.19952446222305298 -0.06280918419361115 1.1974313259124756
-0.1716507077217102 -0.09624037146568298 0.9594700336456299
-0.1757490336894989 -0.014645300805568695 0.9407428503036499
-0.1258087456226349 0.05102573335170746 0.9257728457450867
-0.08478988707065582 0.13791845738887787 1.251524567604065
-0.07818032801151276 0.13598164916038513 1.1939125061035156
-0.07409189641475677 0.15949076414108276 1.1695188283920288
-0.15041355788707733 -0.011045638471841812 0.9605931043624878
-0.19498790800571442 0.031148523092269897 1.6902761459350586
-0.15059247612953186 0.001177266240119934 1.3363081216812134
-0.17050699889659882 0.0019353218376636505 1.2719345092773438
-0.011325161904096603 0.14957895874977112 1.0766360759735107
-0.03246241807937622 0.15364643931388855 0.9989426136016846
-0.2872697710990906 -0.08055377751588821 0.11970171332359314
-0.30610910058021545 -0.13330112397670746 0.0718214139342308
-0.17318099737167358 0.01839708536863327 1.6742713451385498
-0.15825147926807404 0.03172147646546364 1.6211438179016113
-0.15687152743339539 -0.12326562404632568 1.230363368988037
-0.15691636502742767 -0.1385086625814438 1.205401062965393
-0.16160991787910461 -0.1578628122806549 1.2002812623977661
-0.09481477737426758 0.09986086934804916 1.3593555688858032
-0.08676141500473022 0.09234381467103958 1.3557798862457275
-0.1379564255475998 -0.1267496794462204 1.2459667921066284
-0.14575240015983582 -0.05702659487724304 1.191165566444397
-0.258331298828125 -0.09802008420228958 0.18379853665828705
-0.266385942697525 -0.053161587566137314 0.19278040528297424
-0.03855547308921814 0.11538268625736237 1.2461066246032715
-0.15624721348285675 -0.01702895388007164 1.4299348592758179
-0.15434691309928894 -0.011324670165777206 1.409754753112793
-0.1413431465625763 -0.013983365148305893 1.3927818536758423
-0.15587355196475983 -0.00966348871588707 1.3900229930877686
-0.1562211662530899 -0.026613935828208923 1.379663109779358
-0.14754487574100494 -0.1093652993440628 0.7891350388526917
-0.16003766655921936 -0.07058648020029068 0.7844183444976807
8.88630747795105e-05 0.20416802167892456 1.0885347127914429
-0.003153866156935692 0.20157629251480103 1.1368322372436523
-0.1289721429347992 -0.12011715024709702 1.2405314445495605
-0.12628768384456635 -0.10960732400417328 0.8613553047180176
-0.25994014739990234 -0.017795514315366745 0.11546958982944489
-0.2651279866695404 -0.018606796860694885 0.07784289121627808
-0.13779450953006744 -0.18459999561309814 0.8477237820625305
-0.03515220060944557 0.1740380823612213 1.2304036617279053
-0.15889863669872284 -0.09058082103729248 1.5804848670959473
-0.125545471906662 0.017241328954696655 1.5067555904388428
-0.08864206820726395 0.09732401371002197 1.4827075004577637
-0.09120688587427139 0.06322292238473892 1.5361762046813965
-0.11172810941934586 0.06385008990764618 1.5106840133666992
-0.09597109258174896 0.08095823973417282 1.4304258823394775
-0.04465712234377861 0.11593169718980789 1.527050495147705
-0.11892005056142807 -0.016475405544042587 1.4588123559951782
-0.08395238220691681 0.04366002976894379 0.9697522521018982
-0.135903999209404 0.023793064057826996 1.7710217237472534
-0.14409154653549194 0.01853293925523758 1.764606237411499
-0.15083226561546326 0.008280850946903229 1.7513775825500488
-0.015400825068354607 0.06059153005480766 1.4263790845870972
-0.06505109369754791 0.11191891878843307 1.4028255939483643
-0.20411010086536407 -0.08288151025772095 0.041581034660339355
-0.013625958934426308 0.1470634490251541 1.353275179862976
-0.12597116827964783 -0.09191259741783142 1.4955703020095825
-0.17554378509521484 -0.05890491232275963 0.39416658878326416
-0.05718022957444191 0.06036517396569252 1.4817737340927124
-0.08224251121282578 0.02244124561548233 1.4619513750076294
-0.022468797862529755 0.121489517390728 1.4512388706207275
-0.03241397812962532 0.050346240401268005 0.8535221815109253
-0.184372216463089 0.003183092689141631 0.34534353017807007
0.04453863203525543 0.16410821676254272 1.0035823583602905
-0.03055165708065033 0.034148283302783966 1.028766393661499
-0.11115170270204544 -0.15133178234100342 1.239683747291565
-0.1048361212015152 -0.1527101695537567 1.143096923828125
-0.17294606566429138 -0.02495165541768074 0.3225902020931244
-0.15827283263206482 -0.0393984392285347 0.26032522320747375
-0.18870681524276733 0.009709799662232399 0.2557789087295532
-0.0633469745516777 0.04334462061524391 1.4972459077835083
-0.08957034349441528 -0.10239991545677185 0.6852526664733887
-0.11533350497484207 -0.028491292148828506 0.6580250859260559
0.04826048016548157 0.20320481061935425 1.1296801567077637
0.05481281876564026 0.1962878406047821 1.0498489141464233
-0.06041371449828148 -0.18647897243499756 1.167691946029663
-0.1865735501050949 -0.06745515763759613 0.12477752566337585
0.04260529950261116 0.14888720214366913 1.0387009382247925
0.03173866122961044 0.12746691703796387 1.0732711553573608
0.002053532749414444 0.03845746070146561 1.491352915763855
-0.09293463081121445 -0.08792383968830109 1.3726052045822144
0.03790558874607086 0.14922425150871277 1.337263822555542
0.029012436047196388 0.050611406564712524 1.4171245098114014
-0.008089475333690643 0.031677838414907455 1.4905807971954346
0.08859372138977051 0.1374654918909073 1.0495727062225342
0.10631082952022552 0.1258644461631775 1.0056602954864502
-0.031971827149391174 -0.1049615740776062 1.368408203125
0.013580543920397758 0.03181399405002594 1.0270870923995972
-0.03363970294594765 -0.20168544352054596 1.0979773998260498
0.09531328082084656 0.11889217048883438 1.3616440296173096
0.00902983546257019 -0.022548656910657883 1.2836555242538452
0.0632246658205986 0.09383551776409149 1.4580446481704712
0.02880096063017845 0.05116727203130722 1.4574803113937378
0.022267568856477737 -0.04030197113752365 1.1978498697280884
0.04573909193277359 0.09218527376651764 0.9177519083023071
-0.013592321425676346 -0.02844218537211418 1.7074835300445557
0.12658455967903137 -0.11647676676511765 0.0796939879655838
0.11866070330142975 -0.1281367838382721 0.0534871444106102
0.12079130113124847 -0.05726507306098938 0.09059011936187744
-0.05075081065297127 -0.1372487097978592 1.583742380142212
0.06783375889062881 -0.06233816593885422 0.7130823731422424
0.08311019837856293 0.03487766534090042 1.427731990814209
0.01843377947807312 -0.05597679316997528 1.457014799118042
0.055986080318689346 -0.042826153337955475 1.4076869487762451
0.017730144783854485 -0.01426878571510315 1.3864167928695679
0.11456944793462753 -0.03848396614193916 0.3923463225364685
0.13605985045433044 -0.1265735626220703 0.23678451776504517
0.1327812671661377 -0.04023352637887001 0.19674189388751984
0.14893579483032227 0.12314775586128235 1.0569963455200195
0.14524738490581512 0.14827942848205566 1.027721643447876
0.10465410351753235 -0.14580672979354858 0.7403963804244995
0.11087774485349655 -0.0521274209022522 0.6573625206947327
-0.01702520251274109 -0.07451142370700836 1.691572904586792
0.023486599326133728 -0.08690251410007477 1.6500436067581177
0.12728312611579895 -0.1302536427974701 0.5500444769859314
0.008373290300369263 -0.022335711866617203 1.7213836908340454
0.0317935086786747 -0.03904655575752258 1.671724796295166
0.056819625198841095 -0.10296560823917389 1.132737636566162
0.06253034621477127 -0.09187696129083633 1.1072114706039429
0.05226151645183563 -0.16232404112815857 1.0891157388687134
0.005744330585002899 -0.12242532521486282 1.5828553438186646
0.03180323541164398 -0.05703001841902733 1.48727285861969
0.020672280341386795 -0.09640461951494217 1.4832086563110352
0.18641580641269684 0.10149924457073212 1.0210106372833252
0.04788724333047867 -0.10171518474817276 1.2823472023010254
0.055839184671640396 -0.16291531920433044 1.24580717086792
0.05955107882618904 -0.11064460128545761 1.2280998229980469
0.1726863831281662 -0.02573726326227188 0.1495988517999649
0.187214657664299 -0.10909425467252731 0.1733626425266266
0.20159442722797394 -0.0964442640542984 0.15879571437835693
0.04635166376829147 -0.019994255155324936 1.6965465545654297
0.05550655722618103 -0.11089001595973969 1.2850580215454102
0.18807601928710938 -0.040972962975502014 0.43350791931152344
0.16788803040981293 -0.09542126953601837 0.4870056211948395
0.19601133465766907 -0.056191135197877884 0.37615349888801575
0.0675385594367981 -0.05944729968905449 1.4006311893463135
0.054542191326618195 -0.05699717625975609 1.3973913192749023
0.07408571988344193 -0.048764120787382126 1.3576685190200806
0.11786723881959915 0.0620330348610878 0.9247483015060425
0.12813009321689606 -0.11729724705219269 0.8652514219284058
0.20071274042129517 -0.04369116947054863 0.25028887391090393
0.21726642549037933 -0.07415175437927246 0.25815314054489136
0.07688423246145248 -0.03145020082592964 1.349858283996582
0.1587197482585907 0.05449505150318146 1.2808287143707275
0.17097502946853638 0.07902789860963821 1.2600876092910767
0.06096656620502472 -0.23302271962165833 1.1453570127487183
0.14692673087120056 -0.06770400702953339 0.9957607984542847
0.14863581955432892 -0.1247001588344574 0.9890586137771606
0.09737236797809601 -0.04028165340423584 1.179600715637207
0.10135185718536377 -0.15461748838424683 1.0816494226455688
0.12191753834486008 -0.11983618885278702 1.0606862306594849
0.10492582619190216 -0.18167848885059357 1.1489439010620117
-0.2896852493286133 -0.05586846172809601 1.0559895038604736
-0.30067718029022217 -0.11079563945531845 1.0405278205871582
-0.23626793920993805 -0.09551243484020233 1.1318799257278442
-0.24798235297203064 -0.09551636874675751 1.1778018474578857
-0.21423739194869995 -0.06541480123996735 1.1418756246566772
-0.210962176322937 -0.02723345160484314 1.1602392196655273
-0.18904423713684082 -0.15074878931045532 0.8744434118270874
-0.06053679436445236 0.16305290162563324 1.0371766090393066
-0.07355137169361115 0.1524421125650406 1.1328483819961548
-0.1716659963130951 -0.2206173539161682 1.1110808849334717
-0.13898731768131256 -0.1584133356809616 0.95119309425354
-0.27133873105049133 -0.041949622333049774 0.2804993689060211
-0.24967145919799805 -0.09100229293107986 0.2950623035430908
-0.19780121743679047 0.012328206561505795 0.4988952875137329
-0.1486176997423172 -0.19071973860263824 0.8533423542976379
-0.17674078047275543 -0.0472196564078331 0.6408016085624695
-0.16647501289844513 -0.09105034172534943 0.6929672956466675
-0.14815735816955566 -0.0349528044462204 0.7003244161605835
-0.10232123732566833 -0.021732376888394356 1.0890469551086426
-0.11593583226203918 -0.07795941829681396 1.1106102466583252
0.00609845295548439 0.19124308228492737 1.2031768560409546
-0.11194382607936859 -0.019657304510474205 0.8570094108581543
-0.2058020532131195 -0.10273106396198273 0.30717337131500244
-0.11694496870040894 -0.026997659355401993 1.190577507019043
-0.09473338723182678 -0.042011722922325134 1.121048927307129
-0.18939091265201569 -0.08046076446771622 0.44707658886909485
-0.1396676003932953 0.003841552883386612 1.6909021139144897
-0.1473158299922943 -0.02980395406484604 1.6764031648635864
-0.11278115212917328 -0.06651197373867035 1.6845858097076416
-0.13238286972045898 -0.09959188103675842 1.6432669162750244
-0.145797461271286 -0.09262034296989441 1.5462088584899902
-0.18332931399345398 -0.06070011481642723 0.3393853008747101
-0.08204967528581619 -0.11587326973676682 0.734684407711029
-0.16170507669448853 -0.06951303780078888 0.26799026131629944
-0.18003904819488525 -0.09839242696762085 0.2742966413497925
-0.1971113383769989 -0.01782124489545822 0.20342585444450378
-0.045200128108263016 0.06377814710140228 0.9594401121139526
-0.09592350572347641 0.011514559388160706 1.734452486038208
-0.11366081237792969 0.0022046975791454315 1.7214411497116089
0.06935636699199677 0.11302796751260757 1.189386010169983
-0.00813603401184082 0.13263723254203796 1.1833980083465576
0.04401130601763725 0.10515257716178894 1.239790916442871
-0.008908141404390335 -0.03987520933151245 1.2337336540222168
0.0677281990647316 0.17514841258525848 1.2365477085113525
0.07394467294216156 0.12581971287727356 1.0787467956542969
0.12829110026359558 0.17894402146339417 1.1649779081344604
0.01439744047820568 0.09373460710048676 1.63358736038208
0.10281959176063538 0.10915149003267288 1.0891655683517456
0.0384410098195076 -0.2177281230688095 0.9029833674430847
0.10191601514816284 -0.08853801339864731 0.2549929916858673
0.13228310644626617 -0.10103629529476166 0.19492700695991516
0.06608276069164276 -0.12963847815990448 0.6958376169204712
0.0319962352514267 0.0024013910442590714 1.0639817714691162
0.09243997186422348 -0.04823930561542511 0.5662689208984375
0.09846232831478119 0.07249952852725983 1.3035579919815063
0.03715488687157631 -0.06849565356969833 1.3920315504074097
0.04418105632066727 0.07701420038938522 1.5982555150985718
0.031224964186549187 0.013445593416690826 1.5624232292175293
0.03667164221405983 0.029336072504520416 1.5417065620422363
0.002148229628801346 -0.01711336523294449 1.7671034336090088
0.03578146547079086 -0.09102653712034225 1.3305182456970215
0.15722346305847168 -0.018746694549918175 0.4984760880470276
0.12501148879528046 -0.006103938445448875 0.4939640760421753
0.15295344591140747 -0.014935644343495369 0.34356093406677246
0.17547665536403656 -0.019482549279928207 0.3147714138031006
0.055445071309804916 -0.05520760267972946 1.4782907962799072
0.04297220706939697 -0.06374865025281906 1.4873813390731812
0.055690694600343704 -0.05834311619400978 1.4719443321228027
0.12960857152938843 -0.05219963937997818 0.7650561928749084
0.14956961572170258 -0.0952807068824768 0.635299563407898
0.1173231452703476 0.02200728841125965 0.9654462933540344
0.0936494842171669 -0.08236198127269745 1.0876054763793945
0.08563323318958282 -0.13567125797271729 1.0754389762878418
0.09657695889472961 -0.15908214449882507 1.025301456451416
0.05821270868182182 -0.021976377815008163 1.5977706909179688
0.07000897824764252 -0.02623189613223076 1.5182526111602783
0.050727665424346924 -0.1557627022266388 1.2270793914794922
0.09451495856046677 0.041529349982738495 1.5092270374298096
0.07982934266328812 0.013766251504421234 1.5475564002990723
0.20313896238803864 -0.026736721396446228 0.08465011417865753
0.2165711522102356 -0.07215692102909088 0.07208720594644547
0.10276328027248383 0.020370930433273315 1.4756548404693604
0.11127004027366638 0.03254779428243637 1.4463951587677002
0.12159568071365356 0.02168026566505432 1.4148240089416504
0.12469913810491562 0.0332673154771328 1.4011863470077515
0.05871179327368736 -0.23455753922462463 1.163901925086975
0.17424988746643066 -0.15870077908039093 0.8790283799171448
0.07122150808572769 -0.21159960329532623 1.175485372543335
0.067711740732193 -0.23711660504341125 1.1647700071334839
0.20138274133205414 -0.11421889811754227 0.8987279534339905
0.2036469727754593 -0.09127792716026306 0.8794188499450684
0.21274667978286743 -0.056395869702100754 0.8896591067314148
-0.22013038396835327 -0.08870408684015274 1.184478998184204
-0.180575430393219 -0.08958867937326431 1.248030662536621
-0.18862029910087585 -0.0896863266825676 1.232600212097168
-0.18038204312324524 -0.08166483789682388 1.2379834651947021
-0.17471176385879517 -0.08175516128540039 1.255080223083496
-0.19451238214969635 0.0020659174770116806 0.8819175958633423
-0.14926019310951233 -0.05004602670669556 1.2729971408843994
-0.1459650993347168 -0.06461381167173386 1.061434268951416
-0.12877553701400757 0.09224905073642731 1.515816569328308
-0.14827731251716614 -0.08378022909164429 1.1817595958709717
-0.14791829884052277 -0.07800401002168655 1.1281108856201172
-0.09672129899263382 0.09378837794065475 1.4144231081008911
-0.08013509958982468 0.08697641640901566 1.3786784410476685
-0.13541413843631744 -0.13984110951423645 1.0240800380706787
-0.10131994634866714 -0.16492316126823425 0.9860442876815796
-0.13645285367965698 -0.027931759133934975 0.7855536341667175
-0.004239439964294434 0.16946369409561157 1.2677195072174072
-0.07204395532608032 0.11309599876403809 1.6088371276855469
-0.1922074556350708 -0.034262485802173615 0.06869231909513474
-0.2060796022415161 -0.0187076423317194 0.05974842607975006
-0.08078339695930481 0.024557264521718025 0.8629471659660339
0.0014768224209547043 0.09373347461223602 0.8503885269165039
-0.06614711135625839 -0.02198069728910923 0.8418856859207153
0.03199145942926407 0.0752999559044838 1.326346516609192
-0.05185173824429512 -0.08083491027355194 0.7606039047241211
-0.08352137356996536 -0.12452657520771027 1.559072494506836
-0.007016601040959358 0.014141784980893135 0.8690828084945679
-0.0059421733021736145 -0.02753225527703762 0.8478820323944092
0.0163535438477993 -0.11937841027975082 0.852814793586731
-0.07797287404537201 -0.16246333718299866 0.8532180190086365
-0.00867876224219799 -0.22348091006278992 0.8457542061805725
0.03540802747011185 -0.11139962822198868 0.8318898677825928
-0.009882217273116112 -0.15964913368225098 0.8571220636367798
-0.0177774541079998 0.015425067394971848 1.459153175354004
0.028126705437898636 -0.03813667222857475 0.8449422717094421
0.03285053372383118 -0.05072295665740967 0.8276572227478027
-0.004401654005050659 0.02131137251853943 1.5367547273635864
0.0004164166748523712 0.028514444828033447 1.5129879713058472
0.04415736719965935 -0.12499701231718063 0.8479127883911133
0.1302606612443924 0.055769190192222595 0.8595887422561646
0.10298671573400497 -0.06015503406524658 0.25328874588012695
0.053572267293930054 -0.035850875079631805 0.8172914385795593
0.10360407084226608 0.10412289202213287 1.2176074981689453
0.13163533806800842 -0.08792926371097565 0.3789944350719452
0.12883824110031128 -0.07128837704658508 0.31781256198883057
0.1450210064649582 -0.09274250268936157 0.3344021439552307
0.14258365333080292 -0.13147804141044617 0.27800625562667847
0.08249188959598541 0.057033050805330276 1.4790836572647095
0.0809326320886612 -0.017545487731695175 0.8515687584877014
0.10747431218624115 -0.036388300359249115 0.8318701982498169
0.06092986464500427 -0.08348262310028076 1.231827735900879
0.16273805499076843 -0.10214659571647644 0.42804110050201416
0.06538239866495132 0.031975965946912766 1.5827016830444336
0.04768514633178711 -0.04070214182138443 1.2785499095916748
0.17582905292510986 -0.09201439470052719 0.33509591221809387
0.13274237513542175 0.15912754833698273 1.2201766967773438
0.07049962133169174 -0.06684475392103195 1.2054738998413086
0.16222599148750305 -0.030232179909944534 0.20789334177970886
0.17667821049690247 0.1449575275182724 1.1428459882736206
0.15988874435424805 -0.019744766876101494 0.2440994530916214
0.1865864396095276 -0.1321665495634079 0.25471818447113037
0.13335350155830383 0.05076463893055916 1.3258146047592163
0.06388768553733826 -0.04177965223789215 1.4347338676452637
0.07098972797393799 -0.04172159731388092 1.403869867324829
0.06214845925569534 -0.03954324871301651 1.4355456829071045
0.08566280454397202 -0.039891403168439865 1.3838167190551758
0.06663837283849716 -0.17802053689956665 1.2142032384872437
0.052251145243644714 -0.18841347098350525 1.208444356918335
0.16382725536823273 0.06804691255092621 1.2398542165756226
0.19362036883831024 0.09733927249908447 1.1845688819885254
0.18873140215873718 0.09313631802797318 1.1516399383544922
0.07337034493684769 -0.057394690811634064 1.2352533340454102
0.0635606050491333 -0.08747254312038422 1.250882863998413
0.15793533623218536 -0.1837778091430664 0.8886836171150208
0.07132059335708618 -0.0967700183391571 1.2626595497131348
0.06438437104225159 -0.1263434886932373 1.1631009578704834
0.08777031302452087 -0.0719972774386406 1.1392838954925537
0.0732438713312149 -0.10997235029935837 1.1300628185272217
0.11741827428340912 -0.15782767534255981 1.1799471378326416
0.1433531492948532 -0.15668991208076477 1.0510733127593994
0.11293308436870575 -0.19280514121055603 1.1061445474624634
-0.17423813045024872 -0.20612093806266785 1.1484895944595337
-0.16705287992954254 -0.14150305092334747 1.1954269409179688
-0.17432713508605957 -0.12756162881851196 1.2155065536499023
-0.16350305080413818 -0.19403743743896484 1.1510024070739746
-0.11384124308824539 0.09945753216743469 1.4436633586883545
-0.11833952367305756 0.08770351856946945 1.4275476932525635
-0.11365831643342972 0.10336840897798538 1.3857064247131348
-0.1620088815689087 0.006727054715156555 1.6549766063690186
-0.16644683480262756 -0.025826316326856613 1.5714434385299683
-0.2411256730556488 -0.057857446372509 0.33758828043937683
-0.13205309212207794 -0.06822032481431961 0.8532687425613403
-0.13486014306545258 -0.09265482425689697 0.8346689343452454
-0.046113863587379456 0.1741776019334793 1.0169459581375122
-0.11755341291427612 -0.11813008785247803 1.2340306043624878
-0.11853935569524765 -0.030255094170570374 0.8306961059570312
-0.1176740974187851 -0.013359472155570984 1.700032114982605
