-0.20735813677310944 -0.13825646042823792 1.616081953048706
-0.25519484281539917 -0.10200498253107071 1.5891897678375244
-0.14457623660564423 -0.0779072493314743 1.4221529960632324
-0.1816382110118866 -0.08587975800037384 1.5253705978393555
-0.165961354970932 -0.0835859477519989 1.4771645069122314
-0.17151892185211182 -0.027914103120565414 1.4035258293151855
-0.141714408993721 -0.059306010603904724 1.430024266242981
-0.143922358751297 -0.04414522275328636 1.4204021692276
-0.17066442966461182 -0.02390838786959648 1.380878210067749
-0.10078053176403046 -0.053327128291130066 1.3620867729187012
-0.0834924504160881 -0.03310438618063927 1.3683363199234009
-0.08825301378965378 -0.034859154373407364 1.3950788974761963
-0.08010345697402954 -0.05800972878932953 1.380866289138794
0.06216977536678314 -0.059422992169857025 1.406423807144165
0.08563308417797089 -0.05674455314874649 1.3817713260650635
0.07407710701227188 -0.07755168527364731 1.3927870988845825
0.07638484239578247 -0.044749412685632706 1.3997457027435303
0.10727916657924652 -0.07987333089113235 1.4366397857666016
0.1110696941614151 -0.06286445260047913 1.4388402700424194
0.15149612724781036 -0.06118464469909668 1.3892098665237427
0.15662488341331482 -0.09944932162761688 1.462709903717041
0.15773296356201172 -0.07309113442897797 1.3902678489685059
0.1410701870918274 -0.0988643616437912 1.4802346229553223
0.16368475556373596 -0.046483613550662994 1.4044734239578247
0.14146052300930023 -0.07583370804786682 1.4816125631332397
0.1467774212360382 -0.09970877319574356 1.5466326475143433
0.14323627948760986 -0.13331469893455505 1.61018705368042
0.2344355583190918 -0.11129101365804672 1.4615199565887451
0.14630895853042603 -0.15932780504226685 1.6377809047698975
0.1923220455646515 -0.13930842280387878 1.5475682020187378
0.15911075472831726 -0.13562747836112976 1.641243815422058
0.15326657891273499 -0.1777268648147583 1.7139581441879272
0.16029612720012665 -0.16627131402492523 1.7285749912261963
0.15375620126724243 -0.18476957082748413 1.764305830001831
0.14864975214004517 -0.21280357241630554 1.7803927659988403
0.16172251105308533 -0.2255392223596573 1.7889834642410278
0.1808716505765915 -0.2307300865650177 1.818522334098816
0.21014787256717682 -0.19816824793815613 1.8230456113815308
0.18002714216709137 -0.2120061069726944 1.8292677402496338
0.2340628057718277 -0.22984030842781067 1.7954140901565552
0.31973278522491455 -0.1747044324874878 1.7326726913452148
0.21375875174999237 -0.22839827835559845 1.8270729780197144
0.2604275345802307 -0.2170257270336151 1.8565609455108643
0.26120948791503906 -0.23711444437503815 1.8498964309692383
0.33319640159606934 -0.2372514307498932 1.8470518589019775
0.3113161027431488 -0.22687923908233643 1.7958883047103882
0.39519771933555603 -0.21529334783554077 1.7165625095367432
0.4157853424549103 -0.15710997581481934 1.6684434413909912
0.321180522441864 -0.21733826398849487 1.8627090454101562
0.4509325921535492 -0.2254946231842041 1.8535630702972412
0.33590933680534363 -0.22610972821712494 1.8668937683105469
0.3806290626525879 -0.23094424605369568 1.8728463649749756
0.37037229537963867 -0.20383219420909882 1.829187273979187
0.3815153241157532 -0.21273833513259888 1.8829522132873535
0.4375096559524536 -0.20561538636684418 1.8612724542617798
0.45003822445869446 -0.194987490773201 1.8385858535766602
0.40507572889328003 -0.22018331289291382 1.8141961097717285
0.400470495223999 -0.21924802660942078 1.8571325540542603
0.45485416054725647 -0.20989413559436798 1.829543948173523
0.5018312335014343 -0.17230108380317688 1.8193273544311523
0.510577380657196 -0.18866366147994995 1.8164278268814087
0.5415639281272888 -0.16944587230682373 1.789644479751587
0.561779260635376 -0.18967878818511963 1.7924546003341675
0.5743229389190674 -0.16744133830070496 1.831180453300476
0.571370542049408 -0.18426889181137085 1.827004313468933
0.6041513681411743 -0.16443052887916565 1.7907260656356812
0.5704310536384583 -0.17803236842155457 1.803215742111206
0.6280547976493835 -0.1576520949602127 1.750780463218689
0.6378611922264099 -0.17220750451087952 1.7524406909942627
0.6900345087051392 -0.14098790287971497 1.7483919858932495
0.6986329555511475 -0.13797733187675476 1.7123768329620361
0.6831419467926025 -0.16318903863430023 1.7012865543365479
0.7282013893127441 -0.13321416079998016 1.681419014930725
0.6126471757888794 -0.18264789879322052 1.7825089693069458
0.6531729698181152 -0.1616077721118927 1.7905257940292358
0.6777695417404175 -0.1610698401927948 1.7452175617218018
0.6454075574874878 -0.18617111444473267 1.7830493450164795
0.8011478185653687 -0.1355784684419632 1.7292695045471191
0.7442244291305542 -0.16389203071594238 1.7158493995666504
0.7733451128005981 -0.14154832065105438 1.7075817584991455
0.7347437143325806 -0.15535712242126465 1.7494056224822998
0.7576450109481812 -0.15429265797138214 1.6975550651550293
0.7852488160133362 -0.13073039054870605 1.6884939670562744
0.7860614061355591 -0.15003398060798645 1.6815615892410278
0.7988067865371704 -0.1395941823720932 1.741860270500183
0.8054763674736023 -0.1537148803472519 1.7245486974716187
0.7948733568191528 -0.1536242514848709 1.7423384189605713
0.8366424441337585 -0.13301707804203033 1.6921015977859497
0.9053887128829956 -0.11906561255455017 1.7030344009399414
0.8544191122055054 -0.11972072720527649 1.6769053936004639
0.9184711575508118 -0.11175261437892914 1.6851801872253418
0.9136425256729126 -0.13396304845809937 1.6750657558441162
1.0863878726959229 -0.10306573659181595 1.5594710111618042
1.059905767440796 -0.132094606757164 1.5623407363891602
1.1131134033203125 -0.13361108303070068 1.5383814573287964
1.0944740772247314 -0.11269953846931458 1.5689849853515625
1.0718460083007812 -0.1633300632238388 1.5167174339294434
1.157691478729248 -0.16295593976974487 1.5234873294830322
1.1517595052719116 -0.17750462889671326 1.5201215744018555
-1.115554928779602 -0.29807916283607483 1.354067087173462
-1.1245701313018799 -0.28975582122802734 1.3091157674789429
-1.1474289894104004 -0.3068012595176697 1.2911996841430664
-1.1070609092712402 -0.3016999661922455 1.299884557723999
-1.1589757204055786 -0.27676093578338623 1.2528069019317627
-1.1471861600875854 -0.29084086418151855 1.2308883666992188
-1.0933735370635986 -0.25098133087158203 1.4141554832458496
-1.0098174810409546 -0.28157633543014526 1.3891865015029907
-1.058693528175354 -0.27894625067710876 1.3592288494110107
-1.0495007038116455 -0.27513232827186584 1.3425605297088623
-1.0985932350158691 -0.2719072997570038 1.2838189601898193
-1.095799446105957 -0.29433348774909973 1.2429862022399902
-1.1374237537384033 -0.31100350618362427 1.2371553182601929
-1.2073150873184204 -0.2845377027988434 1.1649435758590698
-1.1776189804077148 -0.3039473593235016 1.1697336435317993
-1.1762505769729614 -0.3104664385318756 1.1092898845672607
-1.0401138067245483 -0.2780616879463196 1.2688629627227783
-1.1058036088943481 -0.27425387501716614 1.2423890829086304
-1.206275463104248 -0.26471102237701416 1.1520096063613892
-1.1075894832611084 -0.2841191291809082 1.2259361743927002
-1.0861343145370483 -0.26955440640449524 1.2446714639663696
-1.1204948425292969 -0.29525521397590637 1.2094988822937012
-1.090613842010498 -0.30706703662872314 1.1834789514541626
-0.8687343001365662 -0.23535287380218506 1.4183530807495117
-1.144742727279663 -0.3408010005950928 1.0466837882995605
-1.2083059549331665 -0.3336169719696045 0.986796498298645
-0.7590977549552917 -0.26179859042167664 1.4617282152175903
-0.8484073877334595 -0.26661351323127747 1.446339726448059
-0.8768599629402161 -0.23548927903175354 1.3880873918533325
-0.7556009888648987 -0.2666182518005371 1.5001888275146484
-0.835098147392273 -0.2198193371295929 1.4944666624069214
-0.9882030487060547 -0.3259969651699066 1.1828911304473877
-0.675317108631134 -0.22604171931743622 1.6184731721878052
-0.6749023199081421 -0.2118474394083023 1.5358660221099854
-1.118362545967102 -0.20404142141342163 1.0720824003219604
-1.195514440536499 -0.198248490691185 1.0251781940460205
-1.0238232612609863 -0.21710284054279327 1.1889828443527222
-1.1796740293502808 -0.20579254627227783 0.9868811368942261
-0.868803858757019 -0.22513534128665924 1.266011118888855
-0.9241070747375488 -0.26242533326148987 1.2382960319519043
-0.9541383385658264 -0.21158558130264282 1.2047098875045776
-0.9005637168884277 -0.19503313302993774 1.2055374383926392
-0.9044637084007263 -0.17424997687339783 1.2160608768463135
-0.8362876176834106 -0.20894190669059753 1.2593302726745605
-0.5514729619026184 -0.23880600929260254 1.6006413698196411
-0.5801230669021606 -0.2175586223602295 1.6601389646530151
-0.7908467054367065 -0.1487809419631958 1.242792010307312
-0.6706173419952393 -0.16909241676330566 1.392914056777954
-0.7004345655441284 -0.21552681922912598 1.3824838399887085
-0.4467073082923889 -0.22330574691295624 1.6615595817565918
-0.5262773036956787 -0.21499043703079224 1.566782832145691
-0.5019057989120483 -0.2069990038871765 1.6771976947784424
-0.6842800378799438 -0.15785081684589386 1.2847046852111816
-0.6709903478622437 -0.12969064712524414 1.306459665298462
-0.7143935561180115 -0.15144723653793335 1.2584311962127686
-0.7113277912139893 -0.1342875063419342 1.2491719722747803
-0.5247171521186829 -0.14287059009075165 1.4849276542663574
-0.5355821847915649 -0.11801684647798538 1.4042178392410278
-0.3474351763725281 -0.15269747376441956 1.5456072092056274
-0.6093588471412659 -0.059835631400346756 1.1857072114944458
-0.379445344209671 -0.1598348617553711 1.6512054204940796
-0.2578931748867035 -0.1157299131155014 1.5074259042739868
-0.33091455698013306 -0.0957820862531662 1.518183946609497
-0.29241448640823364 -0.09446388483047485 1.4219685792922974
-0.29210856556892395 -0.054675228893756866 1.4293699264526367
-0.3427049219608307 -0.025244802236557007 1.3175383806228638
-0.33963561058044434 -0.012987464666366577 1.265081524848938
0.3572459816932678 -0.0444512814283371 1.2923963069915771
0.3221702575683594 -0.06651715189218521 1.2882511615753174
0.4018477499485016 -0.05919569358229637 1.2586901187896729
0.3172163963317871 -0.08185355365276337 1.4431992769241333
0.3127090334892273 -0.09332692623138428 1.3459317684173584
0.32135939598083496 -0.06584401428699493 1.3675200939178467
0.42570316791534424 -0.06882505118846893 1.3418360948562622
0.45383378863334656 -0.10654585063457489 1.3323619365692139
0.5046223998069763 -0.05523926019668579 1.2610952854156494
0.5420333743095398 -0.05204668268561363 1.2423276901245117
0.5023309588432312 -0.0722167044878006 1.2574585676193237
0.5393176674842834 -0.07218410074710846 1.2464135885238647
0.5722062587738037 -0.05944220721721649 1.2735776901245117
0.31675007939338684 -0.1353071928024292 1.6249648332595825
0.33967357873916626 -0.16180609166622162 1.5730103254318237
0.6429639458656311 -0.06852680444717407 1.279763102531433
0.6180171370506287 -0.10031352192163467 1.273429036140442
0.5687458515167236 -0.07506902515888214 1.2742230892181396
0.6328032612800598 -0.07484657317399979 1.2673454284667969
0.6935649514198303 -0.0720629170536995 1.2596102952957153
0.4263650178909302 -0.1490243673324585 1.4951378107070923
0.6658918857574463 -0.10686403512954712 1.4009262323379517
0.6332151293754578 -0.12251308560371399 1.302015781402588
0.6216030120849609 -0.09470431506633759 1.3204318284988403
0.5536586046218872 -0.12162835896015167 1.5112545490264893
0.659706175327301 -0.13591262698173523 1.3777854442596436
0.7654339075088501 -0.10965912789106369 1.3542494773864746
0.704677164554596 -0.0988781675696373 1.3768689632415771
0.7362619638442993 -0.11771735548973083 1.3539260625839233
0.7338380217552185 -0.1606944501399994 1.3790069818496704
0.5488035678863525 -0.13848745822906494 1.568558931350708
0.6442644596099854 -0.12912945449352264 1.4686845541000366
0.6219200491905212 -0.16761520504951477 1.4747437238693237
0.48566579818725586 -0.2061401903629303 1.6976468563079834
0.7625721096992493 -0.1275012344121933 1.4022375345230103
0.5195345878601074 -0.1648309975862503 1.69680655002594
0.5667324662208557 -0.16253937780857086 1.6468099355697632
0.5552611351013184 -0.20007124543190002 1.6925984621047974
0.9927133321762085 -0.14785534143447876 1.315029501914978
0.6245706081390381 -0.1936974823474884 1.643848180770874
0.6808274984359741 -0.1879768669605255 1.628392219543457
0.6948714256286621 -0.14528721570968628 1.5787265300750732
0.7821305394172668 -0.18227089941501617 1.5079255104064941
0.7786343097686768 -0.1399354338645935 1.5119917392730713
0.7093151807785034 -0.1447547972202301 1.6040079593658447
0.7667340040206909 -0.14440594613552094 1.5668600797653198
0.8395459651947021 -0.14863906800746918 1.5374128818511963
0.7236884832382202 -0.13936610519886017 1.6531187295913696
0.753425657749176 -0.1650145798921585 1.6377006769180298
1.168071985244751 -0.25104856491088867 1.237096905708313
1.2912553548812866 -0.24402540922164917 1.1452295780181885
1.312027096748352 -0.1682211458683014 1.1642355918884277
1.2623679637908936 -0.18911190330982208 1.1644487380981445
1.0248217582702637 -0.17834259569644928 1.418854832649231
1.0580379962921143 -0.17127957940101624 1.387562870979309
0.8813103437423706 -0.1365688145160675 1.5669227838516235
1.2960515022277832 -0.10179290175437927 1.2148851156234741
1.235205888748169 -0.11717921495437622 1.2593544721603394
1.1320316791534424 -0.15169639885425568 1.446272611618042
1.2226370573043823 -0.15468192100524902 1.3853451013565063
1.1746997833251953 -0.16643483936786652 1.3535867929458618
1.2036042213439941 -0.19011768698692322 1.3904409408569336
-1.1974272727966309 -0.31581759452819824 1.261169195175171
-1.1746090650558472 -0.33063942193984985 1.2531839609146118
-0.9214262962341309 -0.25845804810523987 1.5140235424041748
-0.9217848777770996 -0.24061447381973267 1.5236663818359375
-0.9426531195640564 -0.24830782413482666 1.4748574495315552
-0.9975391626358032 -0.25842392444610596 1.3778712749481201
-0.9388978481292725 -0.24892739951610565 1.3788179159164429
-1.020141363143921 -0.29315048456192017 1.3416155576705933
-0.9946696162223816 -0.24948526918888092 1.3115805387496948
-0.8862667083740234 -0.27631813287734985 1.3966734409332275
-0.7693326473236084 -0.2601872682571411 1.524381399154663
-0.8024163246154785 -0.2514760196208954 1.4995431900024414
-1.0949949026107788 -0.21551088988780975 1.1155883073806763
-1.1811121702194214 -0.24255108833312988 1.1455342769622803
-1.2066075801849365 -0.21908073127269745 1.063598871231079
-0.7589362263679504 -0.22057050466537476 1.5068506002426147
-0.7362436056137085 -0.26006004214286804 1.556602954864502
-1.0363798141479492 -0.29447299242019653 1.1775448322296143
-1.0438640117645264 -0.2979777157306671 1.1522880792617798
-1.1625862121582031 -0.2939009964466095 1.0412088632583618
-1.191792607307434 -0.3048138916492462 0.9973308444023132
-0.9599463939666748 -0.2233213186264038 1.2664761543273926
-0.6789611577987671 -0.26047199964523315 1.6477400064468384
-0.9275481104850769 -0.22779902815818787 1.2949823141098022
-0.9740445017814636 -0.20410844683647156 1.2346633672714233
-0.8978845477104187 -0.26806288957595825 1.3101427555084229
-0.9125282764434814 -0.27428820729255676 1.292095422744751
-0.8923337459564209 -0.19971588253974915 1.275913953781128
-0.829853355884552 -0.25205761194229126 1.3649616241455078
-0.9923230409622192 -0.20990590751171112 1.183739185333252
-1.0363610982894897 -0.2128540724515915 1.1296104192733765
-0.7968860864639282 -0.21557238698005676 1.4392424821853638
-0.7988725900650024 -0.1974942833185196 1.3496859073638916
-0.8316685557365417 -0.2329149842262268 1.3285099267959595
-0.5856514573097229 -0.24119608104228973 1.6513962745666504
-0.706994354724884 -0.2562870681285858 1.4768399000167847
-0.7243829965591431 -0.20728543400764465 1.342966914176941
-0.518161416053772 -0.2454419881105423 1.678807020187378
-0.5469339489936829 -0.17170435190200806 1.566581130027771
-0.6290448904037476 -0.2189018577337265 1.4664684534072876
-0.7371124029159546 -0.1445871740579605 1.264907956123352
-0.7402147054672241 -0.1836545467376709 1.281942367553711
-0.6203546524047852 -0.17090968787670135 1.4637318849563599
-0.6426317691802979 -0.14736615121364594 1.3797873258590698
-0.41716623306274414 -0.14059951901435852 1.574545979499817
-0.5458385944366455 -0.16007907688617706 1.405428171157837
-0.5681064128875732 -0.13008469343185425 1.2974238395690918
-0.5546935796737671 -0.0895327776670456 1.2924326658248901
-0.6056545972824097 -0.08847903460264206 1.2362654209136963
-0.47380971908569336 -0.10277728736400604 1.2994331121444702
-0.5658676028251648 -0.06159389764070511 1.2268154621124268
-0.4459275007247925 -0.11797022819519043 1.4811136722564697
-0.4127626121044159 -0.12191937118768692 1.4182038307189941
-0.5080904960632324 -0.03499066084623337 1.193237543106079
-0.4582655131816864 -0.02052910253405571 1.2042088508605957
-0.22973716259002686 -0.07031501829624176 1.5061217546463013
-0.33465105295181274 -0.06435684859752655 1.318350911140442
0.45508670806884766 -0.07456628978252411 1.253556728363037
0.21628358960151672 -0.09095415472984314 1.5244765281677246
0.5080220699310303 -0.06369142234325409 1.3270307779312134
0.5122547149658203 -0.09284857660531998 1.3108338117599487
0.5402497053146362 -0.04917462542653084 1.2617689371109009
0.4944177269935608 -0.10574473440647125 1.4429868459701538
0.5616004467010498 -0.13195978105068207 1.3702510595321655
0.6987544298171997 -0.06244426593184471 1.2736754417419434
0.4800804555416107 -0.14752449095249176 1.6216859817504883
0.7027602791786194 -0.15820232033729553 1.3973864316940308
0.619572639465332 -0.15646682679653168 1.6251447200775146
1.0704741477966309 -0.1412220299243927 1.256617784500122
1.0974098443984985 -0.12580356001853943 1.2537788152694702
1.1799085140228271 -0.12335677444934845 1.1660927534103394
1.24078369140625 -0.11438924074172974 1.1106575727462769
1.2265803813934326 -0.1384914070367813 1.1191685199737549
0.868467390537262 -0.14046400785446167 1.4741426706314087
1.1889818906784058 -0.1034194827079773 1.1814517974853516
1.2422888278961182 -0.10034697502851486 1.1256392002105713
1.0423681735992432 -0.2065628170967102 1.3034430742263794
1.010529637336731 -0.22846806049346924 1.341928482055664
1.0249404907226562 -0.24723799526691437 1.3083677291870117
1.0904245376586914 -0.2101268619298935 1.273258090019226
1.1992790699005127 -0.10543039441108704 1.2279168367385864
1.263374924659729 -0.10695058107376099 1.1666103601455688
1.0720863342285156 -0.14537957310676575 1.353234887123108
1.065213918685913 -0.2045549899339676 1.3142895698547363
1.1345808506011963 -0.211150124669075 1.294813632965088
1.062957763671875 -0.22977404296398163 1.3187335729599
1.1338363885879517 -0.25004470348358154 1.2746260166168213
1.0146949291229248 -0.1963256448507309 1.3761857748031616
1.0909082889556885 -0.1934260129928589 1.369202971458435
1.2725085020065308 -0.19281791150569916 1.1872280836105347
1.3080017566680908 -0.22394970059394836 1.1303775310516357
1.3173301219940186 -0.13154147565364838 1.1602259874343872
1.0274156332015991 -0.14756280183792114 1.421380639076233
1.1929980516433716 -0.14327499270439148 1.2624496221542358
1.2193161249160767 -0.23234595358371735 1.2352286577224731
1.2428821325302124 -0.2108626663684845 1.2423681020736694
1.3172184228897095 -0.18043187260627747 1.1932740211486816
1.123665452003479 -0.14605697989463806 1.411900520324707
1.1636621952056885 -0.13708609342575073 1.3985214233398438
1.3004416227340698 -0.15553559362888336 1.2648993730545044
1.2834932804107666 -0.1693928837776184 1.277379035949707
0.9492650628089905 -0.1440853774547577 1.5019850730895996
1.061854600906372 -0.11086776852607727 1.5313758850097656
1.0376168489456177 -0.14064602553844452 1.5003483295440674
0.8950687646865845 -0.13449186086654663 1.6490319967269897
0.9234286546707153 -0.1320873498916626 1.611987590789795
0.9201980829238892 -0.12624704837799072 1.6057664155960083
0.940636157989502 -0.14676858484745026 1.5970823764801025
1.0108541250228882 -0.12403754889965057 1.5695409774780273
0.9916748404502869 -0.13617901504039764 1.5792800188064575
-1.0773954391479492 -0.27206721901893616 1.3852142095565796
-1.0526362657546997 -0.293768972158432 1.3808039426803589
-1.0708054304122925 -0.31337568163871765 1.353590726852417
-1.2049102783203125 -0.27599242329597473 1.0462783575057983
-1.2173830270767212 -0.3197360634803772 1.00917649269104
-1.0478878021240234 -0.29296717047691345 1.1560781002044678
-1.101226806640625 -0.3115854561328888 1.1367987394332886
-1.0500524044036865 -0.33927613496780396 1.1404335498809814
-1.1489030122756958 -0.3368113040924072 1.0894241333007812
-1.128538966178894 -0.2959156334400177 1.0733263492584229
-1.1408084630966187 -0.31819894909858704 1.037057876586914
-0.947582483291626 -0.28546977043151855 1.255453109741211
-0.9693752527236938 -0.30215534567832947 1.2063006162643433
-0.9843872785568237 -0.29509350657463074 1.2294564247131348
-1.0883901119232178 -0.3234833776950836 1.0831336975097656
-1.0964173078536987 -0.29446959495544434 1.0909802913665771
-1.0144015550613403 -0.31734058260917664 1.1477006673812866
-1.0675926208496094 -0.2933347821235657 1.1315370798110962
-0.860420286655426 -0.21638162434101105 1.3684760332107544
-0.9416661262512207 -0.1932951956987381 1.2160625457763672
-0.8769853115081787 -0.17876434326171875 1.1966112852096558
-0.8882910013198853 -0.15551407635211945 1.199601411819458
-0.765537440776825 -0.21288099884986877 1.3053480386734009
-0.7892236709594727 -0.16386792063713074 1.2379759550094604
-0.8545401692390442 -0.14990757405757904 1.2121217250823975
-0.8548393845558167 -0.16691134870052338 1.199878215789795
-0.4772443175315857 -0.1525549292564392 1.4424540996551514
-0.6935386061668396 -0.10878773033618927 1.2173104286193848
-0.6157331466674805 -0.11834046989679337 1.2190958261489868
-0.6534134745597839 -0.07769737392663956 1.19626784324646
-0.5143023133277893 -0.05300331115722656 1.184760570526123
-0.5660000443458557 -0.0488336943089962 1.1767802238464355
-0.4073489308357239 -0.023006653413176537 1.2219033241271973
0.8324046730995178 -0.11655869334936142 1.3410907983779907
0.5138469934463501 -0.20310860872268677 1.768009901046753
0.9381718635559082 -0.133003368973732 1.3755682706832886
0.8999034762382507 -0.11009335517883301 1.3172029256820679
0.9327706694602966 -0.1489405781030655 1.3330249786376953
0.9408780336380005 -0.12858885526657104 1.3352094888687134
0.7720066905021667 -0.14275941252708435 1.478966236114502
0.9348140954971313 -0.19152526557445526 1.3643195629119873
0.9905429482460022 -0.194991335272789 1.335160255432129
0.9708654284477234 -0.22701767086982727 1.3420469760894775
0.9954614639282227 -0.22127854824066162 1.3215081691741943
1.0419070720672607 -0.19493350386619568 1.2920061349868774
1.2130935192108154 -0.16906654834747314 1.1553664207458496
1.2552142143249512 -0.15934868156909943 1.1226961612701416
1.2880194187164307 -0.144317165017128 1.1348650455474854
0.9867624044418335 -0.154138445854187 1.3841114044189453
1.0241568088531494 -0.1491711288690567 1.3668209314346313
1.0454462766647339 -0.21329373121261597 1.3372647762298584
1.066854476928711 -0.21612119674682617 1.2982380390167236
1.0892419815063477 -0.24881112575531006 1.2663686275482178
0.7416582107543945 -0.19068120419979095 1.6002190113067627
1.0929216146469116 -0.15766431391239166 1.3791956901550293
1.1510138511657715 -0.15734058618545532 1.3637597560882568
0.9999856352806091 -0.1746959686279297 1.4743080139160156
1.3118168115615845 -0.19525225460529327 1.2512152194976807
1.3240883350372314 -0.1430222988128662 1.216328740119934
1.1333682537078857 -0.17853109538555145 1.386243224143982
1.1794419288635254 -0.18723081052303314 1.3503451347351074
1.1056530475616455 -0.1375276893377304 1.5508018732070923
1.1047195196151733 -0.1834806352853775 1.4870357513427734
1.11628258228302 -0.15325239300727844 1.494382381439209
1.2305266857147217 -0.1687460094690323 1.4037699699401855
1.2204465866088867 -0.1498933881521225 1.4094438552856445
-0.9443425536155701 -0.25690093636512756 1.4827735424041748
-1.2792421579360962 -0.28228098154067993 1.0525015592575073
-1.0193827152252197 -0.2998211979866028 1.2489674091339111
-1.023402214050293 -0.3093385100364685 1.2117372751235962
-0.9972333312034607 -0.28227144479751587 1.2963274717330933
-0.6503370404243469 -0.25038444995880127 1.6085484027862549
-0.9674359560012817 -0.23187237977981567 1.3089163303375244
-0.9829026460647583 -0.24154433608055115 1.2758944034576416
-1.199951171875 -0.25441521406173706 1.0057384967803955
-1.207093358039856 -0.21118302643299103 0.999824047088623
-0.9670192003250122 -0.27425700426101685 1.2040677070617676
-1.0032715797424316 -0.2883967459201813 1.1679935455322266
-0.9679393768310547 -0.2907654047012329 1.1878381967544556
-0.6608893275260925 -0.2555388808250427 1.5523312091827393
-0.7415969967842102 -0.2097572684288025 1.4574501514434814
-0.4760056734085083 -0.04087003692984581 1.2626957893371582
0.27153775095939636 -0.04992629587650299 1.3099472522735596
0.24792525172233582 -0.06460163742303848 1.3074779510498047
0.4416716992855072 -0.09436992555856705 1.2903239727020264
0.48152023553848267 -0.0525469146668911 1.230839490890503
0.5150405764579773 -0.08694016933441162 1.3734105825424194
0.6714249849319458 -0.08981424570083618 1.3079078197479248
0.6727301478385925 -0.10146092623472214 1.2888106107711792
0.6949775815010071 -0.1688806414604187 1.4782525300979614
0.6772277355194092 -0.19484858214855194 1.5677604675292969
0.8204803466796875 -0.17549090087413788 1.4351649284362793
1.0777802467346191 -0.23975057899951935 1.2671830654144287
1.1366783380508423 -0.20905077457427979 1.249367594718933
1.1687535047531128 -0.2418842762708664 1.2132394313812256
1.213758945465088 -0.2055855095386505 1.1800556182861328
0.9544516205787659 -0.18317148089408875 1.4425952434539795
1.3055227994918823 -0.2342180609703064 1.1579033136367798
-1.0445899963378906 -0.2937965393066406 1.3570175170898438
-1.0716986656188965 -0.22930565476417542 1.0906555652618408
-1.110194444656372 -0.22908437252044678 1.0520371198654175
-0.5751625299453735 -0.2567753791809082 1.684584379196167
-0.6966161727905273 -0.10924899578094482 1.2031081914901733
-0.7003958225250244 -0.0989135354757309 1.174316167831421
-0.6533703804016113 -0.09052447229623795 1.172947645187378
-0.5401141047477722 -0.03383757919073105 1.1712595224380493
-0.28269797563552856 -0.01981184259057045 1.2837367057800293
-0.27327150106430054 -0.04383064806461334 1.282862663269043
0.5363329648971558 -0.17476476728916168 1.5569452047348022
0.5458419919013977 -0.1938304305076599 1.6271430253982544
0.960606038570404 -0.1479661911725998 1.4061849117279053
1.0054038763046265 -0.13025428354740143 1.3420517444610596
0.8564331531524658 -0.18785721063613892 1.4608025550842285
1.0905669927597046 -0.18835128843784332 1.2533612251281738
0.9358641505241394 -0.1769709289073944 1.4882910251617432
0.8631046414375305 -0.17292679846286774 1.5497968196868896
1.0602980852127075 -0.16606277227401733 1.4875328540802002
1.1079587936401367 -0.17341241240501404 1.435131549835205
1.241770625114441 -0.1923767328262329 1.3120863437652588
1.2656035423278809 -0.20830142498016357 1.2090556621551514
1.2525891065597534 -0.16422931849956512 1.3147797584533691
-1.238569736480713 -0.29629114270210266 1.0441583395004272
-1.2302188873291016 -0.24031589925289154 1.0184733867645264
-1.0515577793121338 -0.30094385147094727 1.1565661430358887
-1.169691562652588 -0.2903375029563904 1.052868366241455
-1.1552350521087646 -0.2585504651069641 1.0177593231201172
-0.9173076152801514 -0.22585658729076385 1.2272101640701294
-0.4779721796512604 -0.08186160027980804 1.2673102617263794
-0.5233079791069031 -0.06997650116682053 1.2200050354003906
-0.5637102723121643 -0.06379201263189316 1.206597089767456
-0.4317755401134491 -0.061066292226314545 1.2430901527404785
-0.4714434742927551 -0.04935566335916519 1.1724624633789062
-0.48743653297424316 -0.030866025015711784 1.1687477827072144
0.4785740375518799 -0.03675268217921257 1.2412135601043701
0.8838333487510681 -0.17774271965026855 1.3873995542526245
0.9250440001487732 -0.20195458829402924 1.4137954711914062
0.9704124927520752 -0.20962649583816528 1.3870351314544678
1.1820664405822754 -0.2038876712322235 1.3312736749649048
-1.2206555604934692 -0.29873645305633545 1.1429868936538696
-1.235147476196289 -0.3168070912361145 1.112514853477478
-1.2429612874984741 -0.3035481870174408 1.1108547449111938
-1.056027889251709 -0.2445020079612732 1.2344104051589966
-1.0293784141540527 -0.2689483165740967 1.1497570276260376
-0.9850859642028809 -0.2732338011264801 1.1712093353271484
-0.35959625244140625 -0.038230545818805695 1.2461824417114258
-0.17411355674266815 -0.05340120941400528 1.3782293796539307
-0.16818282008171082 -0.036375951021909714 1.3687204122543335
0.2420104295015335 -0.0770324170589447 1.3186924457550049
0.21914717555046082 -0.20112381875514984 1.7316327095031738
0.43080341815948486 -0.18060944974422455 1.7540721893310547
0.45304423570632935 -0.205746591091156 1.7810702323913574
0.5431976318359375 -0.19142508506774902 1.7444382905960083
0.8363049030303955 -0.14416362345218658 1.631463646888733
0.8372541069984436 -0.14441615343093872 1.6801669597625732
0.8692430853843689 -0.11340364813804626 1.6308939456939697
0.8927937150001526 -0.13849137723445892 1.6233341693878174
0.9021841883659363 -0.11770804971456528 1.6549230813980103
-1.0065311193466187 -0.2708185911178589 1.4507386684417725
-1.0186716318130493 -0.2552904486656189 1.4413723945617676
-0.802027702331543 -0.24911583960056305 1.5839871168136597
-0.8005965948104858 -0.23284414410591125 1.5589238405227661
-1.2437256574630737 -0.23886717855930328 1.078412413597107
-1.272562861442566 -0.2452685832977295 1.0458985567092896
-1.147281289100647 -0.31178587675094604 1.0958423614501953
-1.0898566246032715 -0.2433965504169464 1.1943979263305664
-0.9260861277580261 -0.2238377034664154 1.3342969417572021
-0.5332444906234741 -0.24783793091773987 1.712637186050415
0.4395671784877777 -0.06317806243896484 1.299605369567871
0.36467233300209045 -0.11402580142021179 1.535037875175476
0.7020049095153809 -0.10640428215265274 1.3428549766540527
0.5975983142852783 -0.10714755207300186 1.4416502714157104
0.8233343958854675 -0.1272708773612976 1.3320717811584473
0.8875954151153564 -0.1344173103570938 1.3143398761749268
0.8235598802566528 -0.1703699380159378 1.3668804168701172
1.1213480234146118 -0.1496257185935974 1.2244528532028198
1.1409339904785156 -0.16260530054569244 1.2237845659255981
1.119356632232666 -0.22344191372394562 1.2873070240020752
1.0371066331863403 -0.15002846717834473 1.471139907836914
1.214704990386963 -0.1294756978750229 1.3142642974853516
-1.2498085498809814 -0.2980978190898895 1.0726425647735596
-1.2668259143829346 -0.26818782091140747 1.022438406944275
-0.6924651861190796 -0.07560667395591736 1.1714656352996826
-0.5393242835998535 -0.03300691395998001 1.1960080862045288
-0.42604178190231323 -0.03809593245387077 1.2098398208618164
1.168534517288208 -0.13799737393856049 1.3211063146591187
1.3585654497146606 -0.15057910978794098 1.1532272100448608
1.357333779335022 -0.15511415898799896 1.1755292415618896
-1.0340687036514282 -0.3048396706581116 1.190488338470459
-1.0668879747390747 -0.24735844135284424 1.110454797744751
-1.0941240787506104 -0.26500052213668823 1.076112151145935
0.618699312210083 -0.17962384223937988 1.6937140226364136
1.3583921194076538 -0.12598827481269836 1.1705365180969238
1.1637308597564697 -0.17146922647953033 1.4334299564361572
-0.4140305519104004 -0.055871885269880295 1.3399324417114258
1.0737813711166382 -0.15556249022483826 1.4873642921447754
-1.0031988620758057 -0.2271602600812912 1.1531181335449219
1.2637909650802612 -0.22537752985954285 1.1439422369003296
1.074965476989746 -0.1574142575263977 1.471176266670227
-1.0550278425216675 -0.3272629380226135 1.164348840713501
-0.49968940019607544 -0.05113572999835014 0.9483705759048462
-0.5036251544952393 -0.05190933868288994 0.9623653292655945
-0.48746564984321594 -0.08132375031709671 0.949251115322113
-0.49628984928131104 -0.08488821238279343 0.9594193696975708
-0.44934484362602234 -0.0563788078725338 1.0231095552444458
-0.46142134070396423 -0.062392156571149826 0.9964248538017273
-0.4535848796367645 -0.032139942049980164 0.9713861346244812
-0.4372939169406891 -0.01896478794515133 1.013755440711975
-0.4505360722541809 -0.08584675192832947 0.9943710565567017
-0.46230316162109375 -0.11379975825548172 0.9724470973014832
-0.40590041875839233 -0.04989592358469963 1.0895488262176514
-0.4365387558937073 -0.11596110463142395 0.9737811088562012
-0.4491802453994751 -0.07147292047739029 0.9879785776138306
-0.42817580699920654 -0.11540648341178894 1.0151317119598389
-0.4255862236022949 -0.08051563054323196 1.0185394287109375
-0.392856240272522 -0.021582452580332756 1.0650229454040527
-0.41581666469573975 -0.06839880347251892 1.0188195705413818
-0.4132061004638672 -0.09282614290714264 1.040657639503479
-0.40672194957733154 -0.07872011512517929 1.077803134918213
-0.4104269742965698 -0.04902570694684982 1.1300413608551025
-0.4155072867870331 -0.11068149656057358 1.1050114631652832
-0.34920769929885864 -0.001923042582347989 1.1697893142700195
-0.3683775067329407 0.007034321781247854 1.125135898590088
-0.39313411712646484 -0.06997846066951752 1.1624799966812134
-0.32968080043792725 0.014406803995370865 1.1107069253921509
-0.3211231827735901 -0.07758425176143646 1.21254563331604
-0.36506468057632446 -0.1327240765094757 1.1484230756759644
-0.31795433163642883 0.017225325107574463 1.160596489906311
-0.2788735628128052 0.0020812489092350006 1.165878415107727
-0.270591676235199 -0.021564364433288574 1.2274407148361206
-0.240427628159523 -0.020351124927401543 1.2261998653411865
-0.22504185140132904 -0.12426906824111938 1.2804055213928223
-0.3018360733985901 -0.13061952590942383 1.2018444538116455
-0.22277118265628815 -0.041001565754413605 1.2735393047332764
-0.25599414110183716 -0.07696745544672012 1.270234227180481
-0.2035619467496872 -0.061157263815402985 1.3108086585998535
-0.18043172359466553 -0.08153708279132843 1.3446884155273438
-0.1694244146347046 -0.13590791821479797 1.3330843448638916
-0.22931639850139618 -0.15586675703525543 1.2216579914093018
-0.20307666063308716 -0.03265653923153877 1.7618918418884277
-0.17065246403217316 0.01287943497300148 1.4085968732833862
-0.1385769098997116 0.06791520118713379 0.8491274118423462
-0.1829134076833725 0.022103019058704376 0.8457623720169067
-0.1560022532939911 -0.06735531985759735 0.8611868619918823
-0.2002345770597458 -0.09901656210422516 0.8516992330551147
-0.18794462084770203 -0.023544875904917717 1.6599109172821045
-0.20561295747756958 -0.04532033950090408 1.7906697988510132
-0.17201480269432068 -0.0371006540954113 1.7324668169021606
-0.15974901616573334 -0.0035507120192050934 1.673656940460205
-0.1689612716436386 -0.03291255608201027 1.622590184211731
-0.124150350689888 -0.00724702887237072 1.0414855480194092
-0.15511921048164368 -0.05685070529580116 1.001840353012085
-0.15374355018138885 -0.1275200992822647 0.9877714514732361
-0.1638205498456955 -0.060908444225788116 1.5558416843414307
-0.26612335443496704 0.19734494388103485 0.17753095924854279
-0.2797241806983948 0.1935042440891266 0.10246273875236511
-0.28690236806869507 0.16547740995883942 0.08954669535160065
-0.14161857962608337 -0.1343357414007187 1.3840411901474
-0.1364293247461319 -0.07116584479808807 1.3441760540008545
-0.12516385316848755 -0.08925443887710571 1.3179330825805664
-0.14650310575962067 -0.14529064297676086 1.3671867847442627
-0.12558495998382568 -0.17029865086078644 1.3071465492248535
-0.20288671553134918 -0.07142186909914017 0.4974621832370758
-0.20872606337070465 -0.054316196590662 0.4105597138404846
-0.21863873302936554 0.018214315176010132 0.38293227553367615
-0.22588558495044708 -0.016579534858465195 0.3955199420452118
-0.17003493010997772 -0.03034403920173645 1.697632074356079
-0.12454397976398468 -0.1254296451807022 1.275161623954773
-0.1280604898929596 -0.11724990606307983 1.2349131107330322
-0.13035951554775238 -0.15689584612846375 1.2499072551727295
-0.1601676046848297 -0.17677375674247742 1.2436115741729736
-0.21335551142692566 0.05967818945646286 0.3305080831050873
-0.146335631608963 -0.13167168200016022 1.5661139488220215
-0.15007418394088745 -0.050726357847452164 1.5537670850753784
-0.1490006297826767 -0.08910726010799408 1.5533322095870972
-0.17198391258716583 -0.15131518244743347 0.5632634162902832
-0.10852427780628204 -0.029605494812130928 1.803173303604126
-0.10942890495061874 -0.1502913534641266 1.1927839517593384
-0.11839357018470764 -0.056256506592035294 1.1657793521881104
-0.12237167358398438 -0.15112487971782684 0.7455040812492371
-0.12665195763111115 0.01823418214917183 1.7373443841934204
-0.11323090642690659 -0.16675806045532227 1.390317440032959
-0.1035814881324768 -0.11185421049594879 0.8423854112625122
-0.14318230748176575 -0.12544387578964233 0.8669716119766235
-0.12190164625644684 -0.20445671677589417 0.9097692966461182
-0.10917951166629791 -0.2161514163017273 0.8485732078552246
-0.2636537253856659 0.1233157217502594 0.06432510912418365
-0.09023889154195786 0.0451994314789772 1.7294979095458984
-0.10535544902086258 -0.01867431029677391 1.785001277923584
-0.14267779886722565 -0.12267091870307922 1.4554169178009033
-0.12454730272293091 -0.13950911164283752 1.5187759399414062
-0.18205146491527557 0.03618260845541954 0.3865114152431488
-0.2087184190750122 0.08383612334728241 0.30808141827583313
-0.25848764181137085 0.08567917346954346 0.09203639626502991
-0.20652002096176147 0.22431516647338867 0.23271556198596954
-0.10158099234104156 -0.08205701410770416 1.3253175020217896
-0.1564289778470993 -0.1616365760564804 0.5256864428520203
-0.21123898029327393 0.1915581077337265 0.06543206423521042
-0.25244322419166565 0.19965511560440063 0.06299799680709839
-0.1100878193974495 -0.05264892056584358 1.5704518556594849
-0.1060633510351181 -0.09309785068035126 1.5320085287094116
-0.026237865909934044 -0.22078749537467957 0.9010080099105835
-0.08997872471809387 0.08860430866479874 0.8534557223320007
-0.22348524630069733 -0.03952508419752121 0.27399030327796936
-0.20049665868282318 0.03496800735592842 0.2063829004764557
-0.18975788354873657 0.1766355037689209 0.247930645942688
-0.08636429905891418 -0.06730593740940094 1.2956269979476929
-0.09563440084457397 -0.07668061554431915 1.2497060298919678
-0.051291629672050476 -0.20082294940948486 1.2871898412704468
-0.12899956107139587 -0.08719874173402786 0.6434608697891235
-0.10363979637622833 -0.1552378535270691 0.7381242513656616
-0.06892051547765732 -0.11681325733661652 0.8076540231704712
-0.19085313379764557 0.06464892625808716 0.17848950624465942
-0.2078046053647995 0.11556501686573029 0.07341853529214859
-0.10435804724693298 -0.1916317641735077 1.5259116888046265
-0.08682156354188919 -0.08105944097042084 1.3633428812026978
-0.05607268586754799 -0.061764512211084366 1.3030502796173096
-0.123568095266819 -0.17733916640281677 0.5421610474586487
-0.10248816013336182 -0.16359533369541168 0.5498066544532776
-0.1334661841392517 -0.05233326554298401 0.5444947481155396
-0.082467220723629 -0.17822378873825073 1.482751727104187
-0.060561325401067734 -0.13454705476760864 1.4434317350387573
-0.10227873176336288 -0.08479908853769302 1.416473150253296
-0.10915267467498779 -0.08971967548131943 0.5308231711387634
-0.05821836367249489 0.0026151686906814575 1.7863284349441528
-0.09043795615434647 -0.2162703573703766 1.681718349456787
-0.018921855837106705 -0.19614289700984955 0.9842056035995483
-0.06174168363213539 -0.1449624001979828 1.4679770469665527
-0.03662358224391937 -0.17506831884384155 1.4517005681991577
-0.06065729632973671 -0.15771517157554626 1.432786226272583
-0.0332709401845932 -0.21403637528419495 1.611575961112976
-0.07705888152122498 -0.21820588409900665 1.5490379333496094
-0.0409877672791481 -0.10876163840293884 1.4822980165481567
-0.08480586111545563 -0.11873676627874374 0.6215916872024536
-0.0010496824979782104 -0.0360039547085762 1.8183982372283936
-0.048181403428316116 0.0632244199514389 1.6939539909362793
-0.020438823848962784 -0.23709139227867126 1.5574487447738647
-0.04148922860622406 -0.22337877750396729 1.4928654432296753
-0.022495733574032784 -0.11614739894866943 1.4459413290023804
-0.01303442195057869 -0.2234618216753006 1.4938961267471313
0.006258757784962654 -0.08571907877922058 1.4266130924224854
-0.013984886929392815 -0.0666946992278099 1.2959840297698975
-0.010750722140073776 0.020496658980846405 1.7800276279449463
0.00039879046380519867 -0.11452003568410873 1.4894505739212036
0.0002745743840932846 -0.1676747053861618 1.4714423418045044
0.016972608864307404 0.038841016590595245 1.733646273612976
0.009898349642753601 -0.022600090131163597 1.7969223260879517
-0.0011988859623670578 -0.1625962108373642 1.439981460571289
0.04716598615050316 -0.1796633005142212 1.5165878534317017
0.004550544545054436 -0.13926836848258972 1.4525609016418457
0.06729307025671005 -0.2600003480911255 0.6330759525299072
0.028987102210521698 -0.07222335040569305 1.5208970308303833
0.10427841544151306 -0.29169535636901855 0.568484902381897
0.03089367225766182 -0.21852852404117584 1.2366435527801514
0.0702459067106247 -0.08049236983060837 1.2734389305114746
0.07356739044189453 -0.06834656000137329 1.1487475633621216
0.19254396855831146 -0.2588016986846924 0.1355123519897461
0.22368107736110687 -0.24112270772457123 0.12170625478029251
0.16908156871795654 -0.1417175531387329 0.2238708734512329
0.04360269010066986 -0.1943085789680481 1.2314777374267578
0.03554491698741913 -0.210481196641922 1.1558575630187988
0.05741165950894356 -0.21287746727466583 0.7719699144363403
0.1723802387714386 -0.1710718870162964 0.16651391983032227
0.06264110654592514 -0.029137015342712402 1.7535688877105713
0.04495471343398094 -0.2041558474302292 1.6914881467819214
0.035717934370040894 -0.19760459661483765 1.5989129543304443
0.034323450177907944 -0.20917512476444244 1.5482488870620728
0.08742883801460266 -0.14084170758724213 0.8779478669166565
0.12042329460382462 -0.02702140249311924 1.7857658863067627
0.034919675439596176 -0.06558181345462799 1.5762660503387451
0.03578156977891922 -0.0929892361164093 1.5509334802627563
0.1500115990638733 -0.21496672928333282 0.40078654885292053
0.15146422386169434 -0.2050657570362091 0.3477935492992401
0.18771064281463623 -0.12787708640098572 0.21002066135406494
0.06308400630950928 -0.0373469702899456 1.84881591796875
0.08089036494493484 -0.11364324390888214 1.4390764236450195
0.09595075249671936 -0.20292919874191284 0.8674138784408569
0.07439957559108734 -0.1217922493815422 0.8584566116333008
0.12081163376569748 -0.1770167201757431 0.8646461963653564
0.09869956970214844 -0.12220454216003418 0.7275591492652893
0.24565379321575165 -0.25609034299850464 0.13331027328968048
0.07846543192863464 -0.036957718431949615 1.768412470817566
0.06784187257289886 -0.16684558987617493 1.1302971839904785
0.07732801884412766 -0.18914419412612915 1.2458845376968384
0.08389680087566376 -0.20870566368103027 1.2360708713531494
0.12968158721923828 -0.16571977734565735 0.9187244772911072
0.07417389750480652 -0.13931381702423096 1.6094715595245361
0.0648365318775177 -0.05932607501745224 1.5871964693069458
0.0683634951710701 -0.08829690515995026 1.5778201818466187
0.07866272330284119 -0.1034354418516159 1.5795221328735352
0.0889987200498581 -0.12122184783220291 1.5570642948150635
0.13326552510261536 -0.21279774606227875 0.6706314086914062
0.12048305571079254 -0.2560478746891022 0.7228066921234131
0.10016597807407379 -0.16747689247131348 1.3935754299163818
0.11255946755409241 -0.08565084636211395 1.3600478172302246
0.0712512880563736 -0.09223667532205582 1.3687026500701904
0.08073778450489044 -0.09930440783500671 1.3361046314239502
0.10920502245426178 -0.13102909922599792 0.8402509093284607
0.23322409391403198 -0.15741220116615295 0.20174477994441986
0.2504984140396118 -0.17458713054656982 0.18652784824371338
0.08603742718696594 -0.049587227404117584 1.7219957113265991
0.11268308013677597 -0.11993417143821716 1.4177385568618774
0.2127978503704071 -0.2633603811264038 0.39307674765586853
0.11075429618358612 -0.02951410599052906 1.6906620264053345
0.07834863662719727 -0.004519499838352203 1.6896097660064697
0.09430032968521118 -0.03837871551513672 1.6576933860778809
0.24566276371479034 -0.2180275022983551 0.23893478512763977
0.26969683170318604 -0.2312701940536499 0.15252800285816193
0.23855683207511902 -0.27496618032455444 0.15517650544643402
0.1588176041841507 0.005668026395142078 0.9328606128692627
0.14939191937446594 -0.01587631180882454 0.8271629810333252
0.12401964515447617 -0.04683801531791687 1.7862050533294678
0.16956079006195068 0.03921877592802048 0.827459990978241
0.184615820646286 0.021097419783473015 0.8887273073196411
0.14981630444526672 -0.09901062399148941 1.3610718250274658
0.17238076031208038 -0.11853443086147308 1.3411378860473633
0.11826486885547638 -0.16021184623241425 1.3595921993255615
0.1839168667793274 -0.08443468064069748 1.3152354955673218
0.17764000594615936 -0.07782135158777237 1.2911375761032104
0.23228739202022552 -0.16330264508724213 1.2449584007263184
0.21265438199043274 -0.12763836979866028 1.303051233291626
0.23445889353752136 -0.05924341455101967 1.2678110599517822
0.2718410789966583 -0.01585376262664795 1.205397605895996
0.30011844635009766 -0.019926607608795166 1.2257152795791626
0.2881869673728943 -0.07283136248588562 1.2569029331207275
0.2819436192512512 -0.13119851052761078 1.2467190027236938
0.3303837478160858 -0.013244986534118652 1.175482988357544
0.38602036237716675 -0.0906050056219101 1.2076263427734375
0.3821299076080322 -0.05503714457154274 1.202411413192749
0.360408753156662 -0.021320924162864685 1.1857612133026123
0.380359411239624 -0.13956981897354126 1.1618813276290894
0.3897610306739807 -0.07901615649461746 1.152212142944336
0.37713778018951416 -0.05194536969065666 1.1472381353378296
0.49788323044776917 -0.05724272131919861 1.0432713031768799
0.38122856616973877 -0.1052982360124588 1.1383798122406006
0.4016101062297821 -0.11184847354888916 1.1044002771377563
0.43888941407203674 -0.038004569709300995 1.0800665616989136
0.4047221541404724 -0.08431731164455414 1.0880910158157349
0.41915810108184814 -0.11489329487085342 1.0781844854354858
0.44583597779273987 -0.07990803569555283 1.0646095275878906
0.47105512022972107 -0.070349782705307 1.0666784048080444
0.44360974431037903 -0.12167836725711823 1.0450843572616577
0.46111613512039185 -0.09620918333530426 1.0522671937942505
0.44971537590026855 -0.10897746682167053 1.0521613359451294
0.5007269978523254 -0.056090690195560455 1.0211395025253296
0.46971824765205383 -0.1153392568230629 1.038590669631958
0.46997079253196716 -0.05753236636519432 1.0336148738861084
0.49952831864356995 -0.08746684342622757 1.0189661979675293
0.5085642337799072 -0.07480484247207642 1.032977819442749
-0.38864991068840027 -0.02212418243288994 1.0927815437316895
-0.3917391896247864 -0.0859740823507309 1.0580284595489502
-0.37221822142601013 -0.06401940435171127 1.057893991470337
-0.3965078890323639 -0.12681758403778076 1.0870888233184814
-0.31977710127830505 -0.018152624368667603 1.0815424919128418
-0.3667983412742615 -0.12102629989385605 1.0694197416305542
-0.20950420200824738 -0.059085093438625336 1.2433451414108276
-0.2252320796251297 -0.11812946200370789 1.1966683864593506
-0.1700834035873413 -0.10118019580841064 0.9559007883071899
-0.17756924033164978 -0.016073089092969894 0.9196778535842896
-0.1312095671892166 0.049419984221458435 0.9168696403503418
-0.1689966917037964 0.0730629563331604 1.2323408126831055
-0.17198456823825836 0.0717536062002182 1.1675877571105957
-0.18152479827404022 0.09902302920818329 1.1357336044311523
-0.1551365852355957 -0.013693475164473057 0.952855110168457
-0.21276329457759857 -0.05562494322657585 1.7592370510101318
-0.14494700729846954 -0.09033454954624176 1.3599849939346313
-0.17074699699878693 -0.06541603803634644 1.3003199100494385
-0.11759206652641296 0.10911179333925247 1.021768569946289
-0.16143497824668884 0.11254408955574036 0.9361371994018555
-0.27397656440734863 0.13574473559856415 0.1963885873556137
-0.29013359546661377 0.14979058504104614 0.1207076832652092
