-0.11233638972043991 -0.040658898651599884 0.6455503106117249
-0.09495368599891663 -0.13995760679244995 0.7218430042266846
-0.061179012060165405 -0.1252383589744568 0.8030527234077454
-0.14167547225952148 -0.12278212606906891 0.12915091216564178
-0.15846095979213715 -0.18751826882362366 0.06301767379045486
-0.10479260981082916 -0.13439996540546417 1.4433635473251343
-0.07887803763151169 -0.047587085515260696 1.3347910642623901
-0.053802572190761566 -0.04534594714641571 1.2783117294311523
-0.10343144834041595 -0.11305313557386398 0.547185480594635
-0.08422905951738358 -0.093996062874794 0.5473331809043884
-0.11899387091398239 0.0023258309811353683 0.4897136688232422
-0.08228341490030289 -0.12099048495292664 1.4153081178665161
-0.055413875728845596 -0.08466696739196777 1.4022666215896606
-0.08363553881645203 -0.036960992962121964 1.3760604858398438
-0.09378676116466522 -0.03508326783776283 0.49672460556030273
-0.027157161384820938 -0.019521525129675865 1.7139170169830322
-0.09866739809513092 -0.1815359741449356 1.5640287399291992
-0.04030131176114082 -0.1890023797750473 0.9705460071563721
-0.0596604160964489 -0.09452687203884125 1.4153504371643066
-0.042494334280490875 -0.1227017492055893 1.3979202508926392
-0.062102776020765305 -0.10646370053291321 1.3907339572906494
-0.050038695335388184 -0.1773240566253662 1.5007537603378296
-0.08566316962242126 -0.16379448771476746 1.452718734741211
-0.033331356942653656 -0.06772562116384506 1.4292700290679932
-0.07157652080059052 -0.056012529879808426 0.6203103065490723
0.011038905009627342 -0.0640072152018547 1.7251615524291992
0.002804080955684185 0.03816442936658859 1.6582834720611572
-0.04267575219273567 -0.1907987892627716 1.4500160217285156
-0.0556659922003746 -0.16430512070655823 1.4091167449951172
-0.02006368525326252 -0.07508248090744019 1.403598427772522
-0.031432222574949265 -0.171644926071167 1.4110559225082397
0.008556395769119263 -0.057263992726802826 1.3849326372146606
-0.016505492851138115 -0.05825556814670563 1.2689950466156006
0.015973670408129692 -0.011963514611124992 1.710945963859558
-0.000601649284362793 -0.0780661329627037 1.4301365613937378
-0.009183187037706375 -0.12022002786397934 1.4126867055892944
0.045673396438360214 0.0014534443616867065 1.6781188249588013
0.021800952032208443 -0.05387328192591667 1.7101753950119019
-0.008855020627379417 -0.11325564980506897 1.402583360671997
0.02744961343705654 -0.14158262312412262 1.433740496635437
0.0011186664924025536 -0.09475000202655792 1.4087939262390137
0.0534556545317173 -0.09208352118730545 0.5706915855407715
0.032866306602954865 -0.05682818964123726 1.4652031660079956
0.08704013377428055 -0.116130530834198 0.4863174557685852
-0.007323036901652813 -0.2033366560935974 1.2317957878112793
0.04888520762324333 -0.09007738530635834 1.2411078214645386
0.04492715746164322 -0.09347942471504211 1.1360129117965698
0.11333239078521729 -0.20727229118347168 0.058381471782922745
0.13389642536640167 -0.20863215625286102 0.03209666535258293
0.10335543751716614 -0.04403539001941681 0.033466801047325134
0.005805123597383499 -0.18690738081932068 1.222029685974121
-0.0027227699756622314 -0.2094917595386505 1.1445707082748413
0.051949597895145416 -0.14098002016544342 0.7091965079307556
0.09833863377571106 -0.11496862769126892 0.0058075860142707825
0.06594571471214294 -0.059624042361974716 1.670478105545044
0.014739513397216797 -0.19251903891563416 1.5679137706756592
0.01229190081357956 -0.17157772183418274 1.4910914897918701
0.009659523144364357 -0.17017321288585663 1.4483460187911987
0.08899551630020142 -0.16110314428806305 0.8582234978675842
0.1143023818731308 -0.07207170873880386 1.6967246532440186
0.039806049317121506 -0.059577133506536484 1.510036587715149
0.03596000373363495 -0.07926815748214722 1.4811594486236572
0.10798371583223343 -0.04120507836341858 0.2971225082874298
0.10131745040416718 -0.034926511347293854 0.2342483401298523
0.11837738752365112 -0.040489401668310165 0.010565143078565598
0.06122291833162308 -0.07866042107343674 1.7486202716827393
0.06399919092655182 -0.08282489329576492 1.3774166107177734
0.09133072197437286 -0.21920526027679443 0.8478957414627075
0.0760171189904213 -0.1320478916168213 0.8421763181686401
0.12045228481292725 -0.1953994482755661 0.8431171178817749
0.08016421645879745 -0.0396883450448513 0.7312774062156677
0.1565602570772171 -0.20938169956207275 0.04718789830803871
0.0791463851928711 -0.06938532739877701 1.6808688640594482
0.03050500713288784 -0.17969444394111633 1.1183682680130005
0.03084961697459221 -0.18576458096504211 1.2373692989349365
0.029720855876803398 -0.2035747766494751 1.2340826988220215
0.1262948215007782 -0.19191674888134003 0.9110627174377441
0.05763464793562889 -0.1305696666240692 1.5140845775604248
0.06847384572029114 -0.05835076794028282 1.5236400365829468
0.06433428078889847 -0.08236955106258392 1.5052800178527832
0.06820055842399597 -0.0967622846364975 1.5006017684936523
0.07128363102674484 -0.11009663343429565 1.4768238067626953
0.1152729019522667 -0.0668100044131279 0.6274930834770203
0.11231206357479095 -0.13280825316905975 0.6458117961883545
0.06830491125583649 -0.13199502229690552 1.3572978973388672
0.07680761814117432 -0.0900530144572258 1.3025823831558228
0.04731277376413345 -0.08735378086566925 1.3247103691101074
0.05168209224939346 -0.10114063322544098 1.2980470657348633
0.10924741625785828 -0.11956550925970078 0.8081825375556946
0.1631798893213272 -0.07286221534013748 0.01284145936369896
0.17464326322078705 -0.10290863364934921 0.01213034987449646
0.08205196261405945 -0.0747641772031784 1.6367442607879639
0.08583419024944305 -0.09363768249750137 1.3517603874206543
0.16974186897277832 -0.09121568500995636 0.28198498487472534
0.10801494121551514 -0.05776631087064743 1.6160767078399658
0.086795374751091 -0.03243858367204666 1.6240572929382324
0.09444649517536163 -0.05766913667321205 1.5857877731323242
0.1771625280380249 -0.09723680466413498 0.09526669979095459
0.1827058643102646 -0.17425654828548431 0.03671564161777496
0.16603408753871918 -0.19640836119651794 0.07578688859939575
0.1588076949119568 -0.019924622029066086 0.9480996131896973
0.14180657267570496 -0.018165575340390205 0.8453776836395264
0.1108345240354538 -0.08589310199022293 1.6899949312210083
0.16254857182502747 0.03459716588258743 0.8518481254577637
0.18109893798828125 -0.0029896306805312634 0.9115594029426575
0.09758467972278595 -0.1052277684211731 1.2939586639404297
0.10151845216751099 -0.13185659050941467 1.2776814699172974
0.07581671327352524 -0.13683165609836578 1.3289704322814941
0.10085146129131317 -0.12046512961387634 1.2384519577026367
0.08955985307693481 -0.12064050137996674 1.2190550565719604
0.08924585580825806 -0.19917497038841248 1.2069014310836792
0.10871747881174088 -0.15814268589019775 1.2369451522827148
0.11942556500434875 -0.13907888531684875 1.1689417362213135
0.12024041265249252 -0.14553901553153992 1.0914030075073242
0.1456633061170578 -0.15664750337600708 1.1012128591537476
0.14326272904872894 -0.16920047998428345 1.154371738433838
0.1187649741768837 -0.2011919468641281 1.177103877067566
0.14365139603614807 -0.1821671575307846 1.0503798723220825
0.16994091868400574 -0.23441466689109802 1.1015862226486206
0.1729852706193924 -0.21613240242004395 1.0814199447631836
0.16046372056007385 -0.19333688914775848 1.0565812587738037
0.12759074568748474 -0.271701455116272 1.0920439958572388
0.1456931233406067 -0.24273398518562317 1.0593221187591553
0.1435888707637787 -0.22509990632534027 1.0437772274017334
0.17574399709701538 -0.2975606918334961 0.9509775638580322
0.12669289112091064 -0.25793927907943726 1.0600650310516357
0.1287502646446228 -0.27683931589126587 1.033036470413208
0.16220586001873016 -0.252666711807251 0.9772570133209229
0.12907977402210236 -0.26365941762924194 1.0085482597351074
0.12511393427848816 -0.2895434498786926 1.0108855962753296
0.1451912522315979 -0.2846592664718628 0.9835853576660156
0.15967631340026855 -0.28663286566734314 0.9800708293914795
0.12294098734855652 -0.30598485469818115 0.9888079166412354
0.14096522331237793 -0.30099982023239136 0.9803913831710815
0.13167357444763184 -0.30170243978500366 0.9882634878158569
0.17020420730113983 -0.3013451099395752 0.9323053359985352
0.13675524294376373 -0.31572967767715454 0.9757447242736816
0.1548043191432953 -0.2867829501628876 0.9473981857299805
0.15869948267936707 -0.31719130277633667 0.9449984431266785
0.17121046781539917 -0.31121543049812317 0.9479434490203857
-0.2813442051410675 -0.025873500853776932 1.0607165098190308
-0.2850915789604187 -0.07960949838161469 1.0398375988006592
-0.26576295495033264 -0.06350541859865189 1.0409762859344482
-0.2947705388069153 -0.10361124575138092 1.0693256855010986
-0.22789250314235687 -0.029982542619109154 1.0624065399169922
-0.2700199484825134 -0.10732277482748032 1.0554488897323608
-0.1733963042497635 -0.03599963337182999 1.2146247625350952
-0.18398374319076538 -0.086972177028656 1.1808607578277588
-0.17793527245521545 -0.09489177912473679 0.9455565214157104
-0.18173347413539886 -0.014029924757778645 0.9217559099197388
-0.13091471791267395 0.05134173110127449 0.9150987267494202
-0.07086031138896942 0.09605233371257782 1.280810832977295
-0.06878118216991425 0.09915661066770554 1.225631594657898
-0.06361603736877441 0.12479925155639648 1.2067067623138428
-0.15727967023849487 -0.009718026965856552 0.9479235410690308
-0.16226883232593536 -0.03929927200078964 1.6798938512802124
-0.13245052099227905 -0.04627959430217743 1.334305763244629
-0.15031661093235016 -0.034629471600055695 1.2694339752197266
-0.006372800096869469 0.12734562158584595 1.1180009841918945
-0.02888467349112034 0.13535639643669128 1.0458471775054932
-0.2305299937725067 -0.08188153058290482 0.08900726586580276
-0.2452085167169571 -0.1471012681722641 0.05339891463518143
-0.1408831626176834 -0.05217311903834343 1.6639455556869507
-0.12808886170387268 -0.035688064992427826 1.61301851272583
-0.1465623676776886 -0.15336839854717255 1.2119081020355225
-0.14663714170455933 -0.16423894464969635 1.1856778860092163
-0.1528923213481903 -0.18382874131202698 1.1770955324172974
-0.07696360349655151 0.05181006342172623 1.3772003650665283
-0.06718754023313522 0.04635073244571686 1.374321460723877
-0.12864892184734344 -0.1592073142528534 1.2282639741897583
-0.13785867393016815 -0.08308905363082886 1.189880609512329
-0.2040090411901474 -0.10787414014339447 0.15325288474559784
-0.21208147704601288 -0.06243042275309563 0.16734768450260162
-0.026190875098109245 0.07896877080202103 1.2733328342437744
-0.134005606174469 -0.07463942468166351 1.4234929084777832
-0.13323907554149628 -0.06781183183193207 1.4036521911621094
-0.12133199721574783 -0.06807113438844681 1.3851213455200195
-0.13602641224861145 -0.06362472474575043 1.3836719989776611
-0.1382596790790558 -0.07804009318351746 1.3697696924209595
-0.13316664099693298 -0.11973465979099274 0.7724471092224121
-0.14668090641498566 -0.08145254850387573 0.763831615447998
0.006680402904748917 0.176570326089859 1.1350353956222534
0.00495374109596014 0.1698756217956543 1.1800391674041748
-0.11968617886304855 -0.1527990698814392 1.2250083684921265
-0.12017359584569931 -0.11421703547239304 0.8481912612915039
-0.20387738943099976 -0.0162898451089859 0.08150425553321838
-0.2083629071712494 -0.020667828619480133 0.03917421028017998
-0.13441479206085205 -0.18632179498672485 0.8402704000473022
-0.024794897064566612 0.13639822602272034 1.2653852701187134
-0.13248126208782196 -0.15169066190719604 1.5647735595703125
-0.10139898955821991 -0.04241925850510597 1.5016474723815918
-0.06361913681030273 0.038955170661211014 1.4920215606689453
-0.06484273076057434 0.002315159887075424 1.5359859466552734
-0.08658897876739502 0.0031508952379226685 1.5119426250457764
-0.07423893362283707 0.028661858290433884 1.442197322845459
-0.02014642208814621 0.05684725195169449 1.5369224548339844
-0.09672894328832626 -0.07263452559709549 1.4526029825210571
-0.08888265490531921 0.04467402398586273 0.9666610360145569
-0.10304262489080429 -0.05074525624513626 1.756184697151184
-0.11001775413751602 -0.05602291226387024 1.7487692832946777
-0.11917785555124283 -0.06442010402679443 1.735599160194397
0.004465833306312561 0.013055738061666489 1.4385640621185303
-0.043984074145555496 0.062420234084129333 1.4205372333526611
-0.1435726135969162 -0.09732411056756973 0.013957545161247253
0.004604557063430548 0.10277611017227173 1.3755323886871338
-0.10314799100160599 -0.1477905511856079 1.4812692403793335
-0.12890170514583588 -0.0760498121380806 0.3697833716869354
-0.0349370501935482 0.005863599479198456 1.485888123512268
-0.06034839525818825 -0.035388145595788956 1.4591281414031982
-0.0012221280485391617 0.07020566612482071 1.4662275314331055
-0.03259933367371559 0.04963228106498718 0.8516396284103394
-0.1363534778356552 -0.01379991602152586 0.3217962384223938
0.048670656979084015 0.14998282492160797 1.0522441864013672
-0.029172444716095924 0.028566468507051468 1.0351512432098389
-0.10285113751888275 -0.17982786893844604 1.2204153537750244
-0.10439329594373703 -0.16890272498130798 1.1291581392288208
-0.12293151766061783 -0.04255093261599541 0.2991581857204437
-0.1066112071275711 -0.0562058761715889 0.23758739233016968
-0.138004869222641 -0.009079951792955399 0.2333715707063675
-0.03973611071705818 -0.013506386429071426 1.496619462966919
-0.06138717010617256 -0.11650398373603821 0.6735789775848389
-0.08772239089012146 -0.04345502704381943 0.6397095322608948
0.05510460585355759 0.17470934987068176 1.1731903553009033
0.057588301599025726 0.17730695009231567 1.0985866785049438
-0.05981389060616493 -0.20493842661380768 1.1476788520812988
-0.12846778333187103 -0.07025150954723358 0.09855781495571136
0.04571704939007759 0.13207107782363892 1.0816669464111328
0.035466134548187256 0.10629696398973465 1.1130315065383911
0.023581473156809807 -0.015420805662870407 1.4929546117782593
-0.07865498960018158 -0.13652369379997253 1.3574544191360474
0.05491826683282852 0.1062784194946289 1.3619464635849
0.04755077511072159 0.007384557276964188 1.4282855987548828
0.013835733756422997 -0.023033570498228073 1.4879951477050781
0.09100858867168427 0.12314479798078537 1.0912795066833496
0.10647600889205933 0.1164633110165596 1.0477895736694336
-0.02241532690823078 -0.15423694252967834 1.3516311645507812
0.017708739265799522 0.025744499638676643 1.0327752828598022
-0.03576023504137993 -0.21278110146522522 1.0838286876678467
0.11160355806350708 0.08009428530931473 1.3806042671203613
0.01882713846862316 -0.05984676629304886 1.2829176187515259
0.08183148503303528 0.04403134062886238 1.4688520431518555
0.047305990010499954 0.004040729254484177 1.465065836906433
0.027041174471378326 -0.06518632173538208 1.1993377208709717
0.04752926155924797 0.09138978272676468 0.9164129495620728
0.014607047662138939 -0.09431988000869751 1.6889214515686035
0.08995766192674637 -0.16378828883171082 0.05547918379306793
0.08929023891687393 -0.18563179671764374 0.02607247605919838
0.08542366325855255 -0.09059679508209229 0.05627403035759926
-0.025523707270622253 -0.19356587529182434 1.5631927251815796
0.05021402984857559 -0.06289169192314148 0.6948943734169006
0.09964743256568909 -0.007771853357553482 1.4358530044555664
0.036541737616062164 -0.10927379131317139 1.4456615447998047
0.0711413249373436 -0.10293074697256088 1.3924996852874756
0.03291991353034973 -0.07410867512226105 1.3801548480987549
0.08780360221862793 -0.0509067066013813 0.3655714988708496
0.10052911937236786 -0.14728209376335144 0.21507862210273743
0.10851503908634186 -0.05793870985507965 0.16745050251483917
0.14824916422367096 0.11209286749362946 1.09560227394104
0.14558127522468567 0.1372193992137909 1.0708011388778687
0.08651575446128845 -0.14627864956855774 0.7204184532165527
0.09076851606369019 -0.052423421293497086 0.6374918222427368
0.010666977614164352 -0.13837215304374695 1.6689738035202026
0.050138335675001144 -0.1472427248954773 1.627487301826477
0.10253383964300156 -0.13328422605991364 0.5313467383384705
0.037350818514823914 -0.08804339915513992 1.7016654014587402
0.0603463239967823 -0.09961721301078796 1.6525150537490845
0.056355442851781845 -0.11904790997505188 1.1268752813339233
0.0631975531578064 -0.10488247871398926 1.1041866540908813
0.05242198333144188 -0.17366081476211548 1.0797325372695923
0.029387986287474632 -0.17780500650405884 1.5608792304992676
0.051320694386959076 -0.10936375707387924 1.4761110544204712
0.04162246361374855 -0.14976610243320465 1.467909336090088
0.1848374903202057 0.09738831222057343 1.0607036352157593
0.04767901450395584 -0.15954172611236572 1.268646478652954
0.04760102927684784 -0.21531108021736145 1.2270824909210205
0.05990416556596756 -0.14629405736923218 1.2132568359375
0.14826175570487976 -0.05630044266581535 0.11407461762428284
0.15032465755939484 -0.14840415120124817 0.14597228169441223
0.1643516719341278 -0.13914354145526886 0.1294698417186737
0.0742286741733551 -0.08437658846378326 1.6787325143814087
0.05378229171037674 -0.17518502473831177 1.2714751958847046
0.16332276165485382 -0.05289192870259285 0.4055950939655304
0.14205974340438843 -0.10277968645095825 0.4632304310798645
0.16880279779434204 -0.07288890331983566 0.3482562005519867
0.08101114630699158 -0.12156055867671967 1.3817380666732788
0.06714950501918793 -0.11930771172046661 1.3807296752929688
0.08469208329916 -0.1045973002910614 1.3428043127059937
0.12141462415456772 0.06019953638315201 0.9100885987281799
0.1174142062664032 -0.11732728779315948 0.8414223194122314
0.17517708241939545 -0.06764709949493408 0.21856756508350372
0.18822471797466278 -0.09758977591991425 0.22893017530441284
0.08979514241218567 -0.09761853516101837 1.3362364768981934
0.16877639293670654 0.026812301948666573 1.296582579612732
0.17960697412490845 0.054870035499334335 1.2805018424987793
0.0423891544342041 -0.274193674325943 1.120591640472412
0.15505895018577576 -0.07182089984416962 0.9790507555007935
0.15640276670455933 -0.12813276052474976 0.9672281742095947
0.08951083570718765 -0.12137142568826675 1.1643505096435547
0.0840066596865654 -0.23172825574874878 1.060976505279541
0.09899511933326721 -0.19566652178764343 1.0375750064849854
0.09886278212070465 -0.2582370340824127 1.1267085075378418
-0.26752373576164246 -0.03567609190940857 1.0351738929748535
-0.2886931896209717 -0.08823172003030777 1.0101500749588013
-0.22720754146575928 -0.10173293203115463 1.106654405593872
-0.242635577917099 -0.11075331270694733 1.1490144729614258
-0.19556759297847748 -0.07512615621089935 1.1261017322540283
-0.18335983157157898 -0.03709555044770241 1.1511242389678955
-0.18654143810272217 -0.1525704264640808 0.8599616289138794
-0.05549943447113037 0.14030352234840393 1.083078384399414
-0.06707341969013214 0.12095564603805542 1.1725512742996216
-0.16615310311317444 -0.2324030101299286 1.0825260877609253
-0.14358843863010406 -0.15777762234210968 0.9409681558609009
-0.2208341509103775 -0.061766862869262695 0.25425997376441956
-0.19983482360839844 -0.1101420596241951 0.2687329649925232
-0.15749338269233704 -0.005857601761817932 0.47370725870132446
-0.14516903460025787 -0.19226905703544617 0.8458907604217529
-0.14503289759159088 -0.06448977440595627 0.6151052713394165
-0.14075055718421936 -0.10591799020767212 0.6710889339447021
-0.12492167949676514 -0.04861797019839287 0.6789666414260864
-0.10115322470664978 -0.03273547440767288 1.0932716131210327
-0.11521469056606293 -0.0922417938709259 1.1091969013214111
0.016553200781345367 0.15431025624275208 1.2395188808441162
-0.10923732817173004 -0.022751763463020325 0.8436943888664246
-0.15588794648647308 -0.12018455564975739 0.2832075357437134
-0.10934439301490784 -0.05348365008831024 1.1946418285369873
-0.09155571460723877 -0.05719422549009323 1.1257120370864868
-0.14491145312786102 -0.09845086187124252 0.4236254096031189
-0.108557790517807 -0.06462977826595306 1.6790647506713867
-0.11701341718435287 -0.09671686589717865 1.6597793102264404
-0.08343890309333801 -0.13216134905815125 1.6651902198791504
-0.10403433442115784 -0.1614719033241272 1.6230255365371704
-0.12036238610744476 -0.15232503414154053 1.5297036170959473
-0.1360032856464386 -0.07910933345556259 0.3155674338340759
-0.060434479266405106 -0.12588907778263092 0.7258022427558899
-0.11040067672729492 -0.08707790076732635 0.24380818009376526
-0.12900413572788239 -0.11709705740213394 0.25014767050743103
-0.1438944786787033 -0.02999749965965748 0.18314723670482635
-0.047487106174230576 0.06456941366195679 0.9614887833595276
-0.06414153426885605 -0.05885348096489906 1.7194230556488037
-0.08175244927406311 -0.06667257100343704 1.7057324647903442
0.07440578937530518 0.08729708939790726 1.220439076423645
9.523611515760422e-05 0.09970013797283173 1.2155652046203613
0.05257381498813629 0.07485289871692657 1.2665653228759766
-0.0018403306603431702 -0.06988631188869476 1.2340120077133179
0.07808174192905426 0.1411610245704651 1.2691051959991455
0.07714714854955673 0.10723608732223511 1.1176931858062744
0.13450093567371368 0.1542242169380188 1.202023983001709
0.041869912296533585 0.0300185214728117 1.6333718299865723
0.10583564639091492 0.0921572595834732 1.1248865127563477
0.03765874356031418 -0.21780961751937866 0.8980170488357544
0.0690164789557457 -0.10604433715343475 0.23231849074363708
0.09487920254468918 -0.12351281940937042 0.17145222425460815
0.046039845794439316 -0.1303481161594391 0.6781144738197327
0.036922015249729156 -0.007828112691640854 1.0694241523742676
0.06956565380096436 -0.04782149940729141 0.5450400710105896
0.11301836371421814 0.039750270545482635 1.3200422525405884
0.044688593596220016 -0.13759203255176544 1.3784493207931519
0.07033081352710724 0.015548136085271835 1.596584439277649
0.05452726408839226 -0.04475780203938484 1.553184986114502
0.05960048362612724 -0.026696762070059776 1.5368130207061768
0.03281943500041962 -0.08593983948230743 1.7464125156402588
0.03525716811418533 -0.1596357822418213 1.31876802444458
0.1339406818151474 -0.024639330804347992 0.4709853529930115
0.10259950160980225 -0.011804165318608284 0.4661196768283844
0.12784667313098907 -0.029543370008468628 0.31439656019210815
0.14984570443630219 -0.03660788759589195 0.28476351499557495
0.07413812726736069 -0.10867127031087875 1.4670536518096924
0.06441343575716019 -0.11648592352867126 1.4739750623703003
0.07391388714313507 -0.10828137397766113 1.459575891494751
0.11383828520774841 -0.05417388677597046 0.7449177503585815
0.12827612459659576 -0.09680001437664032 0.6142221689224243
0.12521812319755554 0.019183345139026642 0.9504327178001404
0.0973186120390892 -0.09387601912021637 1.0859034061431885
0.08775459229946136 -0.14529848098754883 1.0692625045776367
0.10087105631828308 -0.1651817262172699 1.0148788690567017
0.08159277588129044 -0.0802634060382843 1.583796739578247
0.09103257954120636 -0.07809850573539734 1.5074214935302734
0.04229935258626938 -0.205882728099823 1.2089271545410156
0.11574800312519073 -0.012485798448324203 1.5052108764648438
0.10102010518312454 -0.04324943572282791 1.5383988618850708
0.17677432298660278 -0.0726434662938118 0.042062994092702866
0.1874397248029709 -0.1293681114912033 0.03610972315073013
0.1219935268163681 -0.028452642261981964 1.4704773426055908
0.1276324987411499 -0.014579171314835548 1.447439432144165
0.13647203147411346 -0.017856590449810028 1.4177803993225098
0.1390058696269989 -0.0060380809009075165 1.4072754383087158
0.04207751527428627 -0.2776399552822113 1.1386892795562744
0.16788648068904877 -0.15924644470214844 0.8504495024681091
0.055044762790203094 -0.25777193903923035 1.1513092517852783
0.049295730888843536 -0.2808006703853607 1.1399844884872437
0.19624507427215576 -0.11562804132699966 0.8662727475166321
0.19634345173835754 -0.09262873977422714 0.8466174006462097
0.20737800002098083 -0.05799590051174164 0.8565085530281067
-0.2117266058921814 -0.10889928787946701 1.1613118648529053
-0.16838553547859192 -0.12335003167390823 1.2294902801513672
-0.17676612734794617 -0.12129336595535278 1.2137442827224731
-0.16754530370235443 -0.11347217857837677 1.2219208478927612
-0.1619967222213745 -0.11745097488164902 1.2401297092437744
-0.1948462426662445 -0.0004014931619167328 0.8593384027481079
-0.13435401022434235 -0.0887371152639389 1.2648146152496338
-0.1470947116613388 -0.0729454755783081 1.0608274936676025
-0.10251804441213608 0.03034312278032303 1.5195426940917969
-0.1427258849143982 -0.10724382102489471 1.17620050907135
-0.1466662883758545 -0.09469907730817795 1.1256111860275269
-0.07485834509134293 0.04276072978973389 1.4270745515823364
-0.06074314936995506 0.03887949883937836 1.3944882154464722
-0.13853219151496887 -0.14368662238121033 1.0153847932815552
-0.10454171150922775 -0.16607266664505005 0.9778429269790649
-0.12442021816968918 -0.0371568463742733 0.7669209241867065
0.010263003408908844 0.12843546271324158 1.2993124723434448
-0.0432252399623394 0.04605455696582794 1.6124814748764038
-0.13336820900440216 -0.03590645641088486 0.036607272922992706
-0.14821411669254303 -0.019259776920080185 0.02442571148276329
-0.07992321252822876 0.023041119799017906 0.8550970554351807
-0.0002835150808095932 0.09332630038261414 0.8508260250091553
-0.06054560840129852 -0.02552502229809761 0.8328667879104614
0.047770045697689056 0.0378643199801445 1.344114899635315
-0.034655336290597916 -0.08937524259090424 0.7542531490325928
-0.05845753103494644 -0.18143367767333984 1.5388959646224976
-0.007143254391849041 0.014238445088267326 0.8679337501525879
-0.005811420269310474 -0.027988610789179802 0.845471203327179
0.009303588420152664 -0.11823668330907822 0.8483719229698181
-0.07718902826309204 -0.16286887228488922 0.8523712158203125
-0.007956350222229958 -0.2237803339958191 0.8450433611869812
0.022445587441325188 -0.11074349284172058 0.819259762763977
-0.010738351382315159 -0.15939399600028992 0.8562642335891724
0.0011508502066135406 -0.03961724042892456 1.455183506011963
0.018611978739500046 -0.03758063167333603 0.8381933569908142
0.022105464711785316 -0.050050027668476105 0.815579891204834
0.019148550927639008 -0.03740754723548889 1.5308208465576172
0.022214017808437347 -0.027118653059005737 1.5092267990112305
0.03290162235498428 -0.12423782795667648 0.8367009162902832
0.1246386170387268 0.05466765910387039 0.842624843120575
0.07173780351877213 -0.07733714580535889 0.22804538905620575
0.04000839218497276 -0.03564663603901863 0.8015727996826172
0.11086413264274597 0.07838135957717896 1.2439401149749756
0.10202604532241821 -0.10197586566209793 0.3545735478401184
0.10004783421754837 -0.08910884708166122 0.29289811849594116
0.11551310122013092 -0.10918079316616058 0.30990684032440186
0.10962894558906555 -0.15098726749420166 0.25635749101638794
0.10334748029708862 0.005240626633167267 1.4795658588409424
0.07269278168678284 -0.017427802085876465 0.8368303775787354
0.09487049281597137 -0.03663024306297302 0.8114064931869507
0.06381428986787796 -0.1181466206908226 1.2222834825515747
0.13357365131378174 -0.11374280601739883 0.404725581407547
0.08992314338684082 -0.02543373592197895 1.5742301940917969
0.05495705083012581 -0.08965044468641281 1.2712361812591553
0.14686982333660126 -0.11056812107563019 0.3095094561576843
0.1396053284406662 0.13134820759296417 1.2517387866973877
0.07376290112733841 -0.09540198743343353 1.2000887393951416
0.14176954329013824 -0.05132175236940384 0.1758614033460617
0.17988047003746033 0.12552474439144135 1.1769287586212158
0.13383932411670685 -0.039935678243637085 0.21380071341991425
0.15239112079143524 -0.1550104320049286 0.23140348494052887
0.14736208319664001 0.020326392725110054 1.3395525217056274
0.08122887462377548 -0.1051398441195488 1.415353775024414
0.08710730075836182 -0.10367097705602646 1.38720703125
0.08151596784591675 -0.10157246887683868 1.4177379608154297
0.09912940859794617 -0.09064485132694244 1.3665164709091187
0.05608981475234032 -0.22819998860359192 1.1923139095306396
0.040071357041597366 -0.23839743435382843 1.187306523323059
0.17100559175014496 0.04552238807082176 1.2596670389175415
0.19911685585975647 0.07706252485513687 1.211632490158081
0.19236138463020325 0.07772160321474075 1.180637240409851
0.07204420864582062 -0.13356676697731018 1.2219080924987793
0.05761014670133591 -0.16415438055992126 1.238017201423645
0.15258926153182983 -0.18434537947177887 0.8634915947914124
0.06753711402416229 -0.17745190858840942 1.2484058141708374
0.057867906987667084 -0.2095872461795807 1.1490161418914795
0.07252193987369537 -0.15737730264663696 1.12319016456604
0.06114494055509567 -0.19393110275268555 1.1157007217407227
0.11397245526313782 -0.23172563314437866 1.1564748287200928
0.12651678919792175 -0.22895973920822144 1.0245281457901
0.10369828343391418 -0.2668931186199188 1.082763671875
-0.1675461232662201 -0.22268176078796387 1.1197456121444702
-0.15557432174682617 -0.1665528565645218 1.1745281219482422
-0.16377417743206024 -0.15623739361763 1.1958304643630981
-0.15575413405895233 -0.21244731545448303 1.1252150535583496
-0.09053698927164078 0.04450477659702301 1.455590844154358
-0.09574785083532333 0.032843172550201416 1.4388563632965088
-0.09306619316339493 0.053431473672389984 1.4023706912994385
-0.1310897171497345 -0.060031644999980927 1.6440362930297852
-0.13803207874298096 -0.0867333859205246 1.560449481010437
-0.19400644302368164 -0.07602962106466293 0.310578852891922
-0.12633638083934784 -0.07338592410087585 0.8371373414993286
-0.1262773722410202 -0.09930691123008728 0.8190094232559204
-0.04064464196562767 0.15251785516738892 1.0639188289642334
-0.10867041349411011 -0.14756280183792114 1.2198870182037354
-0.11115830391645432 -0.03648887202143669 0.8145740032196045
-0.08614053577184677 -0.08140639960765839 1.6842752695083618
-0.11064895242452621 -0.13507969677448273 1.109437108039856
-0.07929258048534393 -0.19386257231235504 1.0973676443099976
0.004182850942015648 0.12045077979564667 1.1548656225204468
0.07079312205314636 0.10545770078897476 1.152313470840454
-0.06850532442331314 -0.047578103840351105 1.1428509950637817
-0.048944488167762756 -0.11746945977210999 0.8440647125244141
-0.06750424951314926 -0.19581963121891022 1.0357012748718262
-0.05078523978590965 0.006631527096033096 1.054842472076416
-0.04634459316730499 -0.17460688948631287 1.6323639154434204
0.018033737316727638 -0.10153502225875854 0.7519252300262451
0.001544766128063202 0.0569930374622345 1.3157423734664917
0.08775114268064499 -0.13830354809761047 0.009796332567930222
0.168318971991539 0.1456267535686493 1.1264065504074097
0.1293160766363144 0.09855660796165466 1.1698942184448242
0.12667596340179443 0.16592071950435638 1.1390962600708008
0.09503954648971558 0.08445575833320618 0.8503801822662354
0.14870595932006836 -0.03873390704393387 0.026767872273921967
0.11308792233467102 -0.039017751812934875 0.8352031707763672
0.13762444257736206 -0.1072235256433487 0.3622857332229614
0.07617080956697464 -0.13510288298130035 1.3589038848876953
0.05757669731974602 -0.16289439797401428 1.287278652191162
0.1932273805141449 -0.0040659429505467415 0.8495954275131226
0.19715556502342224 -0.055706098675727844 0.9152097702026367
0.11569181084632874 -0.253875732421875 1.0444778203964233
-0.2528751492500305 -0.11705251038074493 1.116344690322876
-0.1969234049320221 -0.08195104449987411 0.9140681028366089
-0.20976299047470093 -0.0754854828119278 0.8610374927520752
-0.09555671364068985 0.041054610162973404 1.3953680992126465
-0.07346120476722717 0.07778631895780563 1.279427170753479
-0.12071128934621811 -0.03936970233917236 1.492081642150879
-0.14200462400913239 -0.05987614393234253 1.0275965929031372
-0.1485355943441391 -0.09357594698667526 1.0639243125915527
-0.11859971284866333 -0.03745163232088089 1.4923218488693237
-0.1201348528265953 -0.04888331517577171 1.4799771308898926
-0.12239445745944977 -0.041402775794267654 1.4895305633544922
-0.12276144325733185 -0.046790532767772675 1.4903126955032349
-0.12827904522418976 -0.05775775760412216 1.4783401489257812
-0.1792382001876831 -0.12695181369781494 0.15590615570545197
-0.13952720165252686 -0.12263112515211105 1.6043627262115479
-0.03926001861691475 -0.04702616110444069 1.1960514783859253
-0.1373702734708786 -0.1417546272277832 0.048126645386219025
-0.0557398647069931 -0.05531299114227295 1.233871340751648
-0.015574447810649872 -0.055012065917253494 1.153856635093689
-0.037087664008140564 0.09227266162633896 0.9210289716720581
-0.03370770812034607 -0.09766587615013123 1.6967332363128662
-0.04884897172451019 -0.07723940908908844 0.6892737746238708
0.023825403302907944 0.06076028570532799 1.2885103225708008
-0.0047690533101558685 -0.19529257714748383 0.9890800714492798
-0.05951035022735596 -0.20669254660606384 1.1920289993286133
0.07332029193639755 0.09068012982606888 1.1890318393707275
0.08986208587884903 -0.08245078474283218 0.15750764310359955
0.05284806340932846 -0.1832907646894455 0.9800982475280762
0.10968739539384842 -0.177329421043396 0.9593213200569153
0.07767488062381744 -0.022612106055021286 1.5054497718811035
0.034108005464076996 -0.19064970314502716 1.144265055656433
0.019841628149151802 -0.06453898549079895 1.152718186378479
0.08288823068141937 -0.04912567138671875 1.0835387706756592
0.08501860499382019 0.05393647029995918 0.9511758089065552
0.14414960145950317 -0.1902868151664734 -0.010712344199419022
0.12078448385000229 -0.18077754974365234 -0.018452666699886322
0.17084453999996185 -0.16354414820671082 -0.009201578795909882
0.1701127141714096 -0.13901567459106445 0.2130279541015625
0.07977891713380814 -0.10276614874601364 1.4134316444396973
0.08289545774459839 -0.10410679876804352 1.4158967733383179
0.052578799426555634 -0.12463125586509705 1.2900110483169556
0.05574476718902588 -0.15504193305969238 1.2763303518295288
0.20869432389736176 0.10295489430427551 1.1242834329605103
0.20486071705818176 0.08551965653896332 1.0820342302322388
0.214758038520813 0.08948914706707001 1.080816626548767
0.1343812346458435 -0.2204081416130066 1.0293275117874146
0.11486837267875671 -0.27474236488342285 1.0263561010360718
0.12109903991222382 -0.29851076006889343 1.0193771123886108
-0.23323959112167358 -0.0625784769654274 1.0568599700927734
-0.17156359553337097 -0.1914326697587967 1.1607798337936401
-0.16199104487895966 -0.08117936551570892 0.3439099192619324
-0.007704276591539383 0.13497216999530792 1.041386604309082
-0.11880508810281754 -0.14859655499458313 1.0567564964294434
-0.03160971403121948 -0.04651843383908272 0.8365737199783325
-0.05052318423986435 -0.037099000066518784 0.7968315482139587
-0.045536912977695465 -0.08964242786169052 0.8022526502609253
-0.008190936408936977 -0.012371862307190895 1.1016000509262085
0.021032392978668213 -0.20671437680721283 0.8329149484634399
0.09199410676956177 0.012618309818208218 0.8527978658676147
0.14218655228614807 0.09837059676647186 1.1419979333877563
0.09113947302103043 -0.060951802879571915 1.5128860473632812
0.1030089408159256 -0.03985246270895004 1.4968796968460083
0.1833004355430603 -0.12399455904960632 0.9149300456047058
-0.17530182003974915 -0.19895881414413452 1.1300784349441528
-0.1120591089129448 0.001853160560131073 1.530737042427063
0.01897260546684265 0.13898473978042603 1.0851795673370361
-0.08973867446184158 0.02023778110742569 1.5637544393539429
-0.07194826006889343 -0.011249162256717682 1.5469471216201782
-0.045700959861278534 -0.021324561908841133 1.5262376070022583
0.012818604707717896 -0.20423400402069092 1.0446418523788452
0.021619152277708054 -0.18014490604400635 1.2300952672958374
0.11942483484745026 -0.14714795351028442 0.1333097368478775
0.059985168278217316 -0.1667984127998352 1.1909419298171997
0.07495777308940887 -0.14712826907634735 1.1434118747711182
0.12428654730319977 -0.0025654342025518417 1.4184527397155762
0.11646642535924911 0.026958830654621124 1.4369876384735107
0.08252577483654022 -0.10982191562652588 1.1555233001708984
0.11579067260026932 -0.07660108059644699 0.820999026298523
0.030214272439479828 -0.22105255722999573 1.215710163116455
0.15043994784355164 0.030235687270760536 1.3588231801986694
-0.0713379979133606 0.06658732146024704 1.3526818752288818
-0.1557483673095703 -0.006174510810524225 0.3510034680366516
0.030578013509511948 -0.1024804413318634 0.7097879648208618
0.0006500743329524994 -0.18240927159786224 1.616572380065918
-0.05372421070933342 0.1487877070903778 1.1225571632385254
-0.1555745005607605 -0.11724741756916046 1.2438569068908691
-0.11326999217271805 -0.043846067041158676 0.3824344873428345
0.043430835008621216 0.06242350488901138 1.4702695608139038
0.09959722310304642 -0.18374115228652954 -0.00496639683842659
0.0787334144115448 -0.1103924959897995 1.4567017555236816
0.07499770820140839 -0.10812469571828842 1.456797480583191
0.07313002645969391 -0.1084083691239357 1.3770712614059448
0.16409295797348022 -0.12764865159988403 0.17853397130966187
0.16887129843235016 -0.09352217614650726 0.16024422645568848
0.06740181148052216 -0.20429787039756775 1.196485996246338
-0.17264920473098755 -0.1546647846698761 0.9158949255943298
-0.07950834929943085 0.053052760660648346 1.3760004043579102
-0.0794694572687149 0.05042143166065216 1.3784477710723877
-0.08417363464832306 0.049618255347013474 1.377251386642456
-0.1251903772354126 -0.07290124893188477 0.18121612071990967
-0.03006509691476822 -0.09960727393627167 0.8397679328918457
0.09141457825899124 -0.1206730306148529 0.12290968000888824
0.07410655915737152 -0.23021352291107178 1.158206820487976
0.06353415548801422 -0.14202135801315308 1.5794031620025635
0.12830430269241333 -0.09837128221988678 0.7727018594741821
0.14136584103107452 -0.004706555511802435 1.3908885717391968
0.14456000924110413 0.013597927056252956 1.3655840158462524
0.0913611650466919 -0.07326506078243256 0.013517137616872787
-0.05421768128871918 -0.5316755175590515 1.090193748474121
-0.04793452471494675 -0.511443018913269 1.06089186668396
-0.051737621426582336 -0.5176935791969299 1.064741611480713
-0.05710683390498161 -0.5082308650016785 1.073132038116455
-0.05909624323248863 -0.5291184782981873 1.0760772228240967
-0.052397940307855606 -0.5268020033836365 1.0880439281463623
0.01799478754401207 -0.4207690358161926 1.0487308502197266
0.005770902615040541 -0.42159438133239746 1.047109603881836
0.007001470774412155 -0.44056108593940735 1.0563122034072876
-0.0005691703408956528 -0.4467601180076599 1.0610893964767456
0.06879691779613495 -0.3123590052127838 0.9684078097343445
0.065182626247406 -0.3161710798740387 0.9863260984420776
0.06855098903179169 -0.32213589549064636 0.9644773602485657
-0.0057528577744960785 -0.4341840445995331 1.0162032842636108
-0.009459491819143295 -0.4468603730201721 1.0329906940460205
0.0006066132336854935 -0.4638136625289917 1.0814282894134521
0.000576801598072052 -0.45693439245224 1.0719951391220093
0.04987797141075134 -0.3449956178665161 0.9539272785186768
0.043324679136276245 -0.35205429792404175 0.9729858636856079
0.051773618906736374 -0.3742222785949707 1.0393794775009155
0.05041045695543289 -0.3702124059200287 1.0323108434677124
-0.032063987106084824 -0.5144656896591187 1.0978264808654785
-0.037764210253953934 -0.5016489028930664 1.055230736732483
0.07013875246047974 -0.3221299350261688 0.9524193406105042
0.06266504526138306 -0.3266564607620239 0.948570966720581
0.17637023329734802 -0.1937824785709381 1.0085614919662476
0.17304682731628418 -0.20006439089775085 1.008378505706787
0.17397776246070862 -0.1924552023410797 0.987599790096283
-0.019641824066638947 -0.4824548661708832 1.0794661045074463
-0.026417158544063568 -0.4992842972278595 1.084629774093628
0.06968662142753601 -0.3245728015899658 0.9481163024902344
0.0658898651599884 -0.3269120454788208 0.9386079907417297
-0.06913024187088013 -0.5525627136230469 1.0424246788024902
-0.06977923959493637 -0.5595289468765259 1.0532901287078857
0.1902649700641632 -0.181332528591156 1.0003997087478638
0.18499712646007538 -0.18932901322841644 1.0128885507583618
0.18431638181209564 -0.18145272135734558 0.9940443634986877
0.1777992844581604 -0.18843737244606018 0.9857799410820007
-0.07725021243095398 -0.581592321395874 1.107675552368164
-0.08173401653766632 -0.597051739692688 1.1213778257369995
-0.08416880667209625 -0.5967971682548523 1.1022601127624512
0.019565993919968605 -0.3987100124359131 0.9868983626365662
0.01733025535941124 -0.4122810959815979 0.9915724396705627
0.002995590213686228 -0.4264521598815918 0.9831529259681702
0.012710054405033588 -0.4219473600387573 0.9856309294700623
0.18430417776107788 -0.19806642830371857 1.0163546800613403
0.1873420774936676 -0.18374913930892944 0.9877533316612244
-0.0038522034883499146 -0.4790695011615753 1.0945507287979126
0.0038099978119134903 -0.4805467128753662 1.0976353883743286
-0.013221854344010353 -0.4905162453651428 1.0978256464004517
-0.019066346809267998 -0.5053534507751465 1.1036975383758545
0.04014815390110016 -0.3729690611362457 0.9708849787712097
0.03337428718805313 -0.38392260670661926 0.9685806035995483
0.029776332899928093 -0.3836750388145447 0.9767315983772278
0.19095662236213684 -0.18600653111934662 0.9927152395248413
0.1849132776260376 -0.19746217131614685 1.0144250392913818
0.1822144091129303 -0.1974036544561386 0.9893801212310791
0.071956105530262 -0.3092299699783325 0.9067749977111816
0.06874881684780121 -0.3118046522140503 0.901353120803833
0.07182808220386505 -0.3166657090187073 0.9249604940414429
0.07129882276058197 -0.32002848386764526 0.9154660105705261
0.06830170750617981 -0.3143993318080902 0.9102713465690613
0.004755277186632156 -0.4459824562072754 0.9810572862625122
0.0014059590175747871 -0.43430376052856445 0.9759327173233032
-0.00012766756117343903 -0.43929770588874817 0.9651124477386475
-0.005978744011372328 -0.4389716386795044 0.9682738184928894
0.18139515817165375 -0.19671091437339783 0.9999349117279053
-0.07586909085512161 -0.6020352840423584 1.1262062788009644
-0.08322683721780777 -0.6000517010688782 1.1098331212997437
-0.07987665385007858 -0.6128242015838623 1.1240406036376953
-0.08813244104385376 -0.610673725605011 1.1299564838409424
-0.08517336845397949 -0.5938233137130737 1.094555139541626
0.09060636907815933 -0.32152509689331055 0.9643117785453796
0.07471638917922974 -0.3277072012424469 0.9534334540367126
-0.05612986534833908 -0.5433114171028137 1.0356476306915283
-0.07285863161087036 -0.5618782043457031 1.0478702783584595
-0.07362893223762512 -0.5738246440887451 1.0632126331329346
0.06679847836494446 -0.37701255083084106 1.0347707271575928
0.058732304722070694 -0.388705313205719 1.0397182703018188
0.05473291873931885 -0.39798182249069214 1.0365965366363525
0.0037227561697363853 -0.4790993332862854 1.0973243713378906
0.0007118619978427887 -0.4858803153038025 1.0899243354797363
-0.020673394203186035 -0.5210882425308228 1.1042003631591797
0.008144309744238853 -0.45949864387512207 1.0781675577163696
-0.032044995576143265 -0.5244200229644775 1.047035574913025
-0.05294546112418175 -0.5466012954711914 1.0512912273406982
0.06871095299720764 -0.3752012550830841 1.0314884185791016
0.007546456530690193 -0.4719824194908142 1.0628732442855835
0.021467823535203934 -0.4581395983695984 1.056402564048767
0.004367327317595482 -0.481959730386734 1.0713062286376953
-0.06811261177062988 -0.5823819637298584 1.0957672595977783
-0.06315606087446213 -0.5724631547927856 1.0844205617904663
-0.0005527753382921219 -0.45853549242019653 1.015815258026123
0.003141034860163927 -0.46317461133003235 1.0264192819595337
-0.006303047761321068 -0.47649067640304565 1.0349645614624023
0.0003543216735124588 -0.48006847500801086 1.0428242683410645
0.03832532465457916 -0.4217910170555115 1.0400731563568115
0.013700620271265507 -0.44654756784439087 1.0536376237869263
-0.02345416322350502 -0.5189239978790283 1.0874855518341064
-0.031565483659505844 -0.5384622812271118 1.0838834047317505
-0.03955669701099396 -0.5364378094673157 1.0910862684249878
-0.023695208132267 -0.5155747532844543 1.0616341829299927
-0.02717405930161476 -0.5224855542182922 1.0578960180282593
0.024531159549951553 -0.4386465847492218 1.0111281871795654
0.01274058036506176 -0.45087891817092896 1.0162608623504639
0.020377255976200104 -0.4283299446105957 0.9955840706825256
0.012961666099727154 -0.4479149580001831 1.0066893100738525
0.0033627813681960106 -0.45432335138320923 1.017439842224121
0.033572081476449966 -0.4231562912464142 1.0194013118743896
0.04171019047498703 -0.4162876307964325 1.0194993019104004
0.03899086266756058 -0.4046778082847595 0.9923636317253113
0.03963373228907585 -0.4132133424282074 1.0072141885757446
-0.034981220960617065 -0.5294697284698486 1.0627264976501465
-0.038441844284534454 -0.5430755019187927 1.0719077587127686
-0.03833417594432831 -0.5346065759658813 1.0665888786315918
-0.02870008535683155 -0.5403460264205933 1.0689231157302856
0.09442546963691711 -0.33509302139282227 0.9782079458236694
-0.03898517042398453 -0.4927951395511627 1.0769786834716797
-0.0483848974108696 -0.5030420422554016 1.0710604190826416
-0.010044625960290432 -0.4490415155887604 1.0554739236831665
-0.012414912693202496 -0.4491170644760132 1.050445795059204
-0.020973466336727142 -0.45871907472610474 1.060194969177246
-0.017986610531806946 -0.45356109738349915 1.050701379776001
-0.01768656261265278 -0.46163272857666016 1.0608580112457275
0.00860808789730072 -0.42863398790359497 1.0295354127883911
-0.0025911787524819374 -0.43162739276885986 1.0325340032577515
0.012077645398676395 -0.41469767689704895 1.0234454870224
-0.017265958711504936 -0.463173508644104 1.0636162757873535
-0.05189558118581772 -0.5208536386489868 1.0451709032058716
-0.05802208557724953 -0.5313413739204407 1.0693644285202026
-0.014007925987243652 -0.4536924958229065 1.0292879343032837
-0.06888189166784286 -0.5439795255661011 1.0868192911148071
-0.07462400197982788 -0.5629642605781555 1.0864336490631104
-0.06550824642181396 -0.5512394309043884 1.0760183334350586
-0.0799754187464714 -0.574313759803772 1.0998958349227905
0.08463466912508011 -0.3092769384384155 0.9840984344482422
0.08295249938964844 -0.3423715829849243 1.0534816980361938
0.07506271451711655 -0.3435084819793701 1.049865484237671
0.08136652410030365 -0.3465156555175781 1.0557401180267334
0.04263872653245926 -0.3650856018066406 0.9749175310134888
0.16748195886611938 -0.19734680652618408 0.9798636436462402
0.17376290261745453 -0.2057105004787445 1.0217061042785645
0.1656353920698166 -0.21571169793605804 1.0169949531555176
0.1628117859363556 -0.21234813332557678 1.0077812671661377
0.025767873972654343 -0.4285680055618286 1.0573174953460693
-0.037657447159290314 -0.5260396599769592 1.1114718914031982
-0.08100492507219315 -0.5766415596008301 1.079235553741455
0.13483767211437225 -0.23917308449745178 0.9806205630302429
0.1275223046541214 -0.2617326080799103 0.9771136045455933
0.03469375893473625 -0.4129684269428253 1.0603140592575073
0.024678440764546394 -0.41725075244903564 1.0554145574569702
0.008041896857321262 -0.44475728273391724 1.0647093057632446
-0.0827823057770729 -0.585245668888092 1.0793448686599731
-0.08383035659790039 -0.6032266616821289 1.1309982538223267
-0.0837220698595047 -0.610824704170227 1.1347781419754028
-0.09081437438726425 -0.6059196591377258 1.1173014640808105
0.10048344731330872 -0.2949594557285309 0.9812582731246948
0.09486224502325058 -0.3080144226551056 0.9852328300476074
0.016930505633354187 -0.44749706983566284 1.0626803636550903
0.08130133152008057 -0.31063294410705566 0.9676546454429626
-0.07279908657073975 -0.567189633846283 1.0558674335479736
0.11313553899526596 -0.3142961263656616 1.0643094778060913
0.11401745676994324 -0.31487739086151123 1.0601446628570557
0.1047888845205307 -0.3222196698188782 1.0528925657272339
0.10389825701713562 -0.3268238604068756 1.0639574527740479
0.09972535818815231 -0.3370683491230011 1.0665483474731445
0.09114698320627213 -0.3244119882583618 1.0289087295532227
0.10164963454008102 -0.32343918085098267 1.0347305536270142
-0.08773104101419449 -0.6113325953483582 1.1367686986923218
-0.014865744858980179 -0.46628308296203613 1.0196951627731323
-0.016858069226145744 -0.47726428508758545 1.0264047384262085
-0.020147234201431274 -0.4781268537044525 1.0292128324508667
-0.005132374353706837 -0.4535791873931885 1.0020536184310913
0.11053763329982758 -0.326646625995636 1.0600529909133911
0.10152126103639603 -0.3408965468406677 1.064378261566162
0.06876813620328903 -0.33106493949890137 0.9403140544891357
