-0.04162358492612839 -0.15991654992103577 1.7660239934921265
-0.05194426327943802 -0.16517457365989685 1.7596399784088135
-0.05699154734611511 -0.17341017723083496 1.7456766366958618
0.029601411893963814 -0.04875289648771286 1.4650686979293823
-0.02797672152519226 -0.0047272127121686935 1.459814190864563
-0.0438767708837986 -0.11209453642368317 -0.025689296424388885
0.012425091117620468 0.04448411241173744 1.4194164276123047
-0.05644901841878891 -0.23412808775901794 1.4907090663909912
-0.05719337612390518 -0.1026562973856926 0.34310126304626465
-0.001745767891407013 -0.07220868021249771 1.5105364322662354
-0.02409224584698677 -0.1158006340265274 1.4754419326782227
0.021200483664870262 -0.0003371015191078186 1.4988389015197754
-0.03649955242872238 0.05161004513502121 0.8569283485412598
-0.06101404130458832 -0.03857502341270447 0.2938515245914459
0.017897626385092735 0.14712151885032654 1.1149370670318604
-0.032319407910108566 0.02162918634712696 1.0511261224746704
-0.08181598037481308 -0.22800478339195251 1.2130954265594482
-0.0940796285867691 -0.1977592557668686 1.1265987157821655
-0.045769840478897095 -0.06667223572731018 0.2722679078578949
-0.02357007935643196 -0.08033765107393265 0.2115921974182129
-0.0546632744371891 -0.031637322157621384 0.20721299946308136
-0.002737460657954216 -0.09372762590646744 1.5154869556427002
-0.02042657509446144 -0.13362640142440796 0.6670316457748413
-0.045521561056375504 -0.06218057870864868 0.623422384262085
0.035275623202323914 0.15405449271202087 1.233220100402832
0.03250241279602051 0.16595467925071716 1.161252498626709
-0.045746419578790665 -0.23405960202217102 1.1373445987701416
-0.03422956541180611 -0.06501594930887222 0.06632804870605469
0.020852774381637573 0.12345126271247864 1.143418550491333
0.01556117832660675 0.09565411508083344 1.1685373783111572
0.05923634395003319 -0.08379736542701721 1.510372519493103
-0.04381594806909561 -0.208507239818573 1.3540537357330322
0.06258077919483185 0.059808358550071716 1.4017055034637451
0.07230333983898163 -0.04775751382112503 1.4518823623657227
0.05152011290192604 -0.09801134467124939 1.5022401809692383
0.07076717913150787 0.12272388488054276 1.145792007446289
0.08233426511287689 0.12276735156774521 1.1043095588684082
0.007497429847717285 -0.2265414297580719 1.3463971614837646
0.01996508054435253 0.02122393436729908 1.0479907989501953
-0.026026908308267593 -0.22972403466701508 1.0765421390533447
0.1275421380996704 0.04000585153698921 1.4090461730957031
0.03947019204497337 -0.10790735483169556 1.2946938276290894
0.11090302467346191 -0.011221813969314098 1.493129014968872
0.07755419611930847 -0.056815676391124725 1.4856235980987549
0.04104258865118027 -0.09331665933132172 1.2122021913528442
0.04590677097439766 0.09452161192893982 0.9204604625701904
0.0772126168012619 -0.18398180603981018 1.6895352602005005
0.03225509449839592 -0.22691094875335693 0.036432359367609024
0.04001092538237572 -0.2655133008956909 0.005737712606787682
0.029826585203409195 -0.13157156109809875 0.01768639124929905
0.028829991817474365 -0.27950888872146606 1.5615065097808838
0.02648145705461502 -0.06292633712291718 0.6784254312515259
0.12964946031570435 -0.05399474874138832 1.451385736465454
0.08006229996681213 -0.18477976322174072 1.4517877101898193
0.1070515438914299 -0.1867501139640808 1.3875566720962524
0.06670904159545898 -0.15455155074596405 1.3862979412078857
0.04717956855893135 -0.06544584035873413 0.3387013077735901
0.04725317284464836 -0.1709766983985901 0.1917637586593628
0.07040312886238098 -0.07593148201704025 0.1374126523733139
0.1320105940103531 0.11935973167419434 1.144047737121582
0.1243632361292839 0.14775414764881134 1.1254664659500122
0.06364133208990097 -0.148849219083786 0.7019296884536743
0.06345002353191376 -0.05385695397853851 0.6157382726669312
0.07383020222187042 -0.2279188632965088 1.6676596403121948
0.10796739161014557 -0.22758609056472778 1.6241613626480103
0.06420354545116425 -0.1383083462715149 0.5101394057273865
0.09740045666694641 -0.17869196832180023 1.7015748023986816
0.11672966182231903 -0.18433398008346558 1.6529285907745361
0.06471388787031174 -0.13567407429218292 1.1290415525436401
0.07386983186006546 -0.11718593537807465 1.1090126037597656
0.0634048730134964 -0.18449810147285461 1.0769662857055664
0.08720128238201141 -0.2564224600791931 1.559013843536377
0.09793542325496674 -0.18098893761634827 1.4784696102142334
0.08582274615764618 -0.2203296720981598 1.4702593088150024
0.16394461691379547 0.11466003954410553 1.1043412685394287
0.067247673869133 -0.23868292570114136 1.2624523639678955
0.05902836471796036 -0.2912702262401581 1.2106647491455078
0.07787664234638214 -0.19233155250549316 1.209451675415039
0.1152910590171814 -0.09564314782619476 0.07330924272537231
0.08871620893478394 -0.1944950968027115 0.11442190408706665
0.10813696682453156 -0.19597883522510529 0.09358241409063339
0.13472536206245422 -0.16581377387046814 1.676632285118103
0.07049918174743652 -0.26309460401535034 1.2624105215072632
0.12407343834638596 -0.0694618672132492 0.37416955828666687
0.10280779749155045 -0.11318368464708328 0.4367741644382477
0.1269993782043457 -0.09290208667516708 0.3180212378501892
0.11571027338504791 -0.2052888572216034 1.3736129999160767
0.10289022326469421 -0.200538769364357 1.375413417816162
0.1166982650756836 -0.17781084775924683 1.3390837907791138
0.12559007108211517 0.06329930573701859 0.8962472081184387
0.104646235704422 -0.11776857078075409 0.815217137336731
0.140008807182312 -0.09499099850654602 0.18303968012332916
0.14475509524345398 -0.12735231220722198 0.19583894312381744
0.1267368048429489 -0.1829308569431305 1.3364343643188477
0.18264329433441162 0.01387203112244606 1.3188151121139526
0.18845263123512268 0.04312010109424591 1.3047834634780884
0.03969447314739227 -0.3340480327606201 1.0969820022583008
0.16847258806228638 -0.0713270902633667 0.9620764255523682
0.17127099633216858 -0.12803611159324646 0.9444236755371094
0.09932464361190796 -0.2214527726173401 1.1535625457763672
0.0977901816368103 -0.3207419216632843 1.038086175918579
0.09858047217130661 -0.2832493484020233 1.015350580215454
0.13125860691070557 -0.34978678822517395 1.097194790840149
-0.23844186961650848 -0.020043008029460907 1.0177671909332275
-0.2724469006061554 -0.07219189405441284 0.974457323551178
-0.207891047000885 -0.12637557089328766 1.0858852863311768
-0.2310834527015686 -0.14887943863868713 1.123028039932251
-0.16547814011573792 -0.0985555425286293 1.1174010038375854
-0.14473146200180054 -0.06100933253765106 1.154994010925293
-0.1889442503452301 -0.15747356414794922 0.8457686901092529
-0.08289264142513275 0.11510356515645981 1.150770902633667
-0.08340665698051453 0.08301740884780884 1.2322824001312256
-0.142033651471138 -0.2625357210636139 1.0582900047302246
-0.14695121347904205 -0.16213065385818481 0.9405292272567749
-0.14085735380649567 -0.08595102280378342 0.21627488732337952
-0.11852563917636871 -0.13529753684997559 0.23194491863250732
-0.09517014771699905 -0.033680740743875504 0.4473215639591217
-0.14576563239097595 -0.19660742580890656 0.8428896069526672
-0.09784103184938431 -0.09000816196203232 0.588248610496521
-0.10037379711866379 -0.12686195969581604 0.6495864391326904
-0.0921022966504097 -0.06476859003305435 0.656275749206543
-0.10103879123926163 -0.048797789961099625 1.111828088760376
-0.10981501638889313 -0.11636032909154892 1.1247159242630005
0.003745117224752903 0.11727926135063171 1.2976789474487305
-0.10926692932844162 -0.023678066208958626 0.8318871259689331
-0.07497439533472061 -0.14607016742229462 0.24949266016483307
-0.09853646159172058 -0.08979671448469162 1.216475486755371
-0.08749315142631531 -0.0819123238325119 1.144425630569458
-0.07624030858278275 -0.12610596418380737 0.39336097240448
-0.05309955030679703 -0.16672375798225403 1.688846230506897
-0.061225660145282745 -0.1971568465232849 1.670750379562378
-0.02485661581158638 -0.2307007759809494 1.6700658798217773
-0.04639187455177307 -0.2596738636493683 1.6265941858291626
-0.06882531940937042 -0.241468608379364 1.5389535427093506
-0.05658792704343796 -0.10285641998052597 0.286912739276886
-0.030544059351086617 -0.13862158358097076 0.7245262861251831
-0.026462532579898834 -0.11022716760635376 0.2168598771095276
-0.043984513729810715 -0.14000138640403748 0.21945074200630188
-0.054819028824567795 -0.04519839584827423 0.1589629054069519
-0.05560965836048126 0.06497463583946228 0.9728742837905884
-0.005143564194440842 -0.16078676283359528 1.7281413078308105
-0.021272815763950348 -0.17121075093746185 1.7149358987808228
0.06969702243804932 0.0654444545507431 1.2604436874389648
-0.011406820267438889 0.06509549170732498 1.2692418098449707
0.054612621665000916 0.04173360392451286 1.3056139945983887
0.016263918951153755 -0.1091780960559845 1.247633457183838
0.07159451395273209 0.1101955696940422 1.318170428276062
0.05738966912031174 0.10099431872367859 1.170718789100647
0.12264180928468704 0.14007459580898285 1.2513586282730103
0.08892276138067245 -0.053560033440589905 1.6481616497039795
0.08867813646793365 0.09243860840797424 1.1715359687805176
0.04237555339932442 -0.21850115060806274 0.8996912837028503
0.01903490722179413 -0.12660446763038635 0.2087719589471817
0.03379827365279198 -0.14695417881011963 0.15035302937030792
0.0199329424649477 -0.1307702362537384 0.6608235836029053
0.043001919984817505 -0.015309663489460945 1.081467628479004
0.0368560254573822 -0.04981476441025734 0.5211814045906067
0.12576442956924438 0.01136637944728136 1.3496867418289185
0.07356804609298706 -0.23387953639030457 1.3750276565551758
0.11497078835964203 -0.06051412224769592 1.6098777055740356
0.10108980536460876 -0.11959455907344818 1.5610971450805664
0.1031423807144165 -0.09890750050544739 1.5448675155639648
0.0977482870221138 -0.18012750148773193 1.7453727722167969
0.05612289533019066 -0.25390511751174927 1.3154628276824951
0.099092498421669 -0.03389393165707588 0.44099611043930054
0.06721742451190948 -0.02070651575922966 0.43727895617485046
0.08657237142324448 -0.0488300547003746 0.28339827060699463
0.10802613198757172 -0.05709969997406006 0.25341951847076416
0.11814147233963013 -0.17517392337322235 1.4706926345825195
0.10681542754173279 -0.18473652005195618 1.4770519733428955
0.11884672939777374 -0.17815154790878296 1.4621292352676392
0.09696903079748154 -0.0552876815199852 0.72299724817276
0.09847449511289597 -0.09948038309812546 0.5888141393661499
0.13494741916656494 0.02221343293786049 0.9367362260818481
0.10988616198301315 -0.10350877791643143 1.0873863697052002
0.1012665331363678 -0.1536150574684143 1.0677934885025024
0.11592811346054077 -0.16604077816009521 1.0074433088302612
0.1355879157781601 -0.15411792695522308 1.5855653285980225
0.13706469535827637 -0.14607954025268555 1.509515643119812
0.05236434563994408 -0.27562546730041504 1.196759581565857
0.15722119808197021 -0.07624403387308121 1.5150078535079956
0.14902810752391815 -0.10982798039913177 1.5439929962158203
0.13488447666168213 -0.13605919480323792 -0.01375674083828926
0.1420360803604126 -0.2105460911989212 -0.003602108918130398
0.15972130000591278 -0.08512449264526367 1.4807111024856567
0.16237211227416992 -0.06568252295255661 1.4587867259979248
0.16598770022392273 -0.06076107174158096 1.4297189712524414
0.16749852895736694 -0.04375339671969414 1.4223997592926025
0.03790605440735817 -0.3398084342479706 1.114912748336792
0.1604223996400833 -0.1575714647769928 0.8188968896865845
0.057795312255620956 -0.3225541114807129 1.1297037601470947
0.04989291727542877 -0.34230488538742065 1.1127560138702393
0.19227412343025208 -0.1149117723107338 0.8282386064529419
0.18894216418266296 -0.09208658337593079 0.8086032867431641
0.20155438780784607 -0.05745904892683029 0.8157899379730225
-0.1920955777168274 -0.1525782197713852 1.1444107294082642
-0.14357253909111023 -0.18375062942504883 1.2255016565322876
-0.1499962955713272 -0.1765170842409134 1.2083543539047241
-0.1405533403158188 -0.1718100756406784 1.2198452949523926
-0.13650912046432495 -0.17558419704437256 1.2373994588851929
-0.20015564560890198 -0.002050306648015976 0.8347322344779968
-0.10832302272319794 -0.14830809831619263 1.2743849754333496
-0.1467900276184082 -0.08907514810562134 1.0739367008209229
-0.06740861386060715 -0.0601477213203907 1.5490299463272095
-0.1286618709564209 -0.1465444713830948 1.185446858406067
-0.13849210739135742 -0.12434343993663788 1.1410518884658813
-0.052118606865406036 -0.03177855536341667 1.4647921323776245
-0.04469028860330582 -0.025284625589847565 1.4334635734558105
-0.13759103417396545 -0.154962956905365 1.0216734409332275
-0.10281085968017578 -0.1734926551580429 0.9817044734954834
-0.10957542061805725 -0.04634499177336693 0.7472346425056458
0.005125976167619228 0.08289631456136703 1.3509278297424316
-0.0020137205719947815 -0.04469578340649605 1.636992335319519
-0.03747415915131569 -0.027433183044195175 -0.006083168089389801
-0.0509013794362545 -0.014315802603960037 -0.022163663059473038
-0.08359090983867645 0.024507565423846245 0.8545276522636414
-0.007048760540783405 0.09570257365703583 0.8584953546524048
-0.056212417781353 -0.025167565792798996 0.8299217224121094
0.06026832386851311 -0.004317156039178371 1.375606894493103
-0.011404824443161488 -0.09611639380455017 0.7567195892333984
-0.0050626955926418304 -0.2658255100250244 1.5434246063232422
-0.011595007963478565 0.016530368477106094 0.8747810125350952
-0.006309413351118565 -0.02473936229944229 0.8495741486549377
0.0010210524778813124 -0.11608470976352692 0.8502792119979858
-0.07889074832201004 -0.16664278507232666 0.8571575284004211
-0.005229506641626358 -0.2263178825378418 0.8502167463302612
0.00514371320605278 -0.10849957168102264 0.8112592697143555
-0.007816082797944546 -0.1612064391374588 0.8619866371154785
0.04064058139920235 -0.11361783742904663 1.4683029651641846
0.008034324273467064 -0.03540376201272011 0.8359270095825195
0.005419749766588211 -0.048261284828186035 0.8067841529846191
0.06227728724479675 -0.11299219727516174 1.5411157608032227
0.06358330696821213 -0.10374818742275238 1.5203166007995605
0.016987891867756844 -0.12324075400829315 0.8294826745986938
0.11666632443666458 0.05766148492693901 0.8236783742904663
0.0245075561106205 -0.0965718924999237 0.20324666798114777
0.02424689382314682 -0.034189581871032715 0.7868607044219971
0.1107679232954979 0.05876902490854263 1.281198501586914
0.06056717783212662 -0.11983197927474976 0.330746054649353
0.05412521958351135 -0.10735014826059341 0.26596271991729736
0.07036765664815903 -0.12830334901809692 0.2830509543418884
0.05933928117156029 -0.1738249659538269 0.23328934609889984
0.13908904790878296 -0.059037864208221436 1.4950894117355347
0.06019817292690277 -0.016279051080346107 0.8224236369132996
0.08118245005607605 -0.03626421466469765 0.7922220230102539
0.0809907615184784 -0.16316305100917816 1.2203733921051025
0.09160849452018738 -0.12856954336166382 0.3803853690624237
0.13765650987625122 -0.1003967672586441 1.5801246166229248
0.07868342846632004 -0.1525879204273224 1.2761955261230469
0.10057587921619415 -0.13105180859565735 0.2826981246471405
0.1374211311340332 0.11086766421794891 1.292551875114441
0.0878833457827568 -0.12624983489513397 1.2040748596191406
0.11222818493843079 -0.07916123420000076 0.13822323083877563
0.16988006234169006 0.12483081221580505 1.221925139427185
0.09631786495447159 -0.06060350686311722 0.18160702288150787
0.09960559010505676 -0.18422120809555054 0.20366321504116058
0.16658103466033936 -0.003146015340462327 1.3586727380752563
0.12566348910331726 -0.19034773111343384 1.4102461338043213
0.12678994238376617 -0.18582457304000854 1.3814219236373901
0.12581074237823486 -0.18887999653816223 1.4099314212799072
0.13837547600269318 -0.1539347618818283 1.3572728633880615
0.06415898352861404 -0.2981362044811249 1.1755716800689697
0.04641176015138626 -0.3069545328617096 1.1705137491226196
0.17965202033519745 0.036905135959386826 1.2864277362823486
0.1953180432319641 0.0776902511715889 1.2434462308883667
0.18704795837402344 0.07935777306556702 1.2150042057037354
0.09270834177732468 -0.23370441794395447 1.2150248289108276
0.07714033126831055 -0.2677258551120758 1.23123037815094
0.1482832133769989 -0.18147674202919006 0.8352314829826355
0.08601124584674835 -0.2849312126636505 1.2381701469421387
0.07623959332704544 -0.31963467597961426 1.1361539363861084
0.07545216381549835 -0.25877076387405396 1.1125249862670898
0.07044132798910141 -0.30125537514686584 1.104379415512085
0.14635896682739258 -0.3267344832420349 1.1269227266311646
0.13227345049381256 -0.3034825026988983 0.9956468343734741
0.12954477965831757 -0.3519829511642456 1.0495997667312622
-0.14485223591327667 -0.2629506587982178 1.0968499183654785
-0.13341982662677765 -0.21392634510993958 1.1647303104400635
-0.139881893992424 -0.2086106538772583 1.1852524280548096
-0.13241489231586456 -0.2505587935447693 1.1053279638290405
-0.06547239422798157 -0.03647612780332565 1.491099238395691
-0.07262258231639862 -0.043314069509506226 1.4741261005401611
-0.07617981731891632 -0.017984189093112946 1.4432361125946045
-0.0776866003870964 -0.16194191575050354 1.6569769382476807
-0.09075315296649933 -0.18407264351844788 1.573285698890686
-0.11472456157207489 -0.10236826539039612 0.27763381600379944
-0.1228327676653862 -0.0765046551823616 0.8247489929199219
-0.11807096004486084 -0.1042356938123703 0.806038498878479
-0.06890898942947388 0.13348479568958282 1.1335945129394531
-0.08872048556804657 -0.19604095816612244 1.2197487354278564
-0.10591023415327072 -0.04011841490864754 0.8000850677490234
-0.030311983078718185 -0.1818021535873413 1.6942943334579468
-0.10276251286268234 -0.15951751172542572 1.114959955215454
-0.07168186455965042 -0.21569715440273285 1.0924676656723022
-0.013867533765733242 0.09452298283576965 1.2140698432922363
0.05416565015912056 0.09195472300052643 1.204069972038269
-0.06307701766490936 -0.07169131934642792 1.1636567115783691
-0.044089436531066895 -0.11685322225093842 0.8458839654922485
-0.06212804466485977 -0.20715036988258362 1.0340337753295898
-0.05133511871099472 -0.005029003135859966 1.0704712867736816
0.011970547027885914 -0.26638877391815186 1.632277488708496
-0.004692508839070797 -0.10191460698843002 0.7381634712219238
0.007579287514090538 0.010844028554856777 1.3574247360229492
0.03935019671916962 -0.208551287651062 -0.040078796446323395
0.1518975794315338 0.1507112979888916 1.1749956607818604
0.11834907531738281 0.09107223153114319 1.2151097059249878
0.10476454347372055 0.16162940859794617 1.1936068534851074
0.08876928687095642 0.08690246939659119 0.8444734215736389
0.11136355251073837 -0.08929668366909027 -0.03455165773630142
0.10000520944595337 -0.038518473505973816 0.8106139898300171
0.09508271515369415 -0.12500706315040588 0.3351902365684509
0.10712653398513794 -0.23493638634681702 1.3520958423614502
0.07975691556930542 -0.2608611285686493 1.2810654640197754
0.18630659580230713 -0.002634139731526375 0.8124615550041199
0.2024351954460144 -0.05496174842119217 0.8784189224243164
0.13240517675876617 -0.333246111869812 1.0109598636627197
-0.24163347482681274 -0.1448443979024887 1.0862503051757812
-0.20686274766921997 -0.08523362129926682 0.8957691192626953
-0.2147427797317505 -0.07831433415412903 0.8371896743774414
-0.07911574840545654 -0.030920926481485367 1.4350641965866089
-0.07751107215881348 0.024492593482136726 1.3312578201293945
-0.0812971293926239 -0.12942487001419067 1.5109989643096924
-0.14323504269123077 -0.07277311384677887 1.0396645069122314
-0.14720691740512848 -0.11054322123527527 1.0761224031448364
-0.08019300550222397 -0.12662652134895325 1.512170433998108
-0.08199327439069748 -0.1379116028547287 1.496511697769165
-0.08259206265211105 -0.132121741771698 1.5063645839691162
-0.08270639181137085 -0.13536542654037476 1.5080333948135376
-0.08851263672113419 -0.14632929861545563 1.4947707653045654
-0.08899641782045364 -0.13754229247570038 0.11506662517786026
-0.08552993088960648 -0.2238313853740692 1.6130263805389404
-0.028914621099829674 -0.08158140629529953 1.2170984745025635
-0.03437303006649017 -0.15262335538864136 0.02693002112209797
-0.03789900988340378 -0.09981542825698853 1.2519092559814453
-0.006915761157870293 -0.078181691467762 1.1715749502182007
-0.04356171935796738 0.0943046510219574 0.9304724931716919
0.026414435356855392 -0.19167697429656982 1.7015092372894287
-0.01340638566762209 -0.09296789765357971 0.6859207153320312
0.02847347781062126 0.02231995388865471 1.3282674551010132
0.0027179867029190063 -0.199266254901886 0.9906779527664185
-0.042336106300354004 -0.24624904990196228 1.1799310445785522
0.062303394079208374 0.07230851799249649 1.2346298694610596
0.04225453361868858 -0.10351048409938812 0.13195957243442535
0.06510132551193237 -0.1844550371170044 0.9771536588668823
0.12359797954559326 -0.1774403601884842 0.9446238875389099
0.11692853271961212 -0.08915773779153824 1.5171327590942383
0.04628386348485947 -0.2153536081314087 1.1330772638320923
0.03147461637854576 -0.08543363213539124 1.165061116218567
0.09407936036586761 -0.05759187415242195 1.088630199432373
0.08987660706043243 0.0567171610891819 0.9487277865409851
0.10763555765151978 -0.29806816577911377 -0.04072510451078415
0.08305513858795166 -0.28012728691101074 -0.05649639293551445
0.13712090253829956 -0.2674928903579712 -0.049407120794057846
0.1201203241944313 -0.17585235834121704 0.18079158663749695
0.12240541726350784 -0.18837779760360718 1.4083185195922852
0.12486789375543594 -0.18853172659873962 1.40848708152771
0.07865916937589645 -0.21603411436080933 1.2893694639205933
0.07780687510967255 -0.2501026690006256 1.270784616470337
0.196792334318161 0.11255401372909546 1.1647987365722656
0.18886429071426392 0.10474271327257156 1.1222726106643677
0.19831453263759613 0.10936163365840912 1.1205250024795532
0.14135757088661194 -0.29388636350631714 0.997318685054779
0.13904808461666107 -0.3488743305206299 0.9904623031616211
0.1495976448059082 -0.36821097135543823 0.9829319715499878
-0.20419088006019592 -0.061192333698272705 1.0403940677642822
-0.1489647477865219 -0.23799215257167816 1.1428463459014893
-0.08612237870693207 -0.10761336982250214 0.31133049726486206
-0.036965660750865936 0.12644225358963013 1.1078481674194336
-0.11430852860212326 -0.16468289494514465 1.0611259937286377
-0.028474316000938416 -0.045127250254154205 0.838784396648407
-0.040365029126405716 -0.03986109048128128 0.7950295209884644
-0.03174440562725067 -0.09279264509677887 0.8036949038505554
-0.0032177981920540333 -0.025110725313425064 1.1168842315673828
0.023186910897493362 -0.20892126858234406 0.8351016044616699
0.0847943127155304 0.015018639154732227 0.8409165143966675
0.13009116053581238 0.09704414010047913 1.1861400604248047
0.13591939210891724 -0.12727861106395721 1.5176501274108887
0.14441712200641632 -0.1018785834312439 1.5034325122833252
0.18896839022636414 -0.12378951907157898 0.8815399408340454
-0.15318383276462555 -0.23925596475601196 1.1101080179214478
-0.07409507781267166 -0.088711217045784 1.5544357299804688
-0.00945710763335228 0.126603364944458 1.1474536657333374
-0.05085691809654236 -0.07020796090364456 1.5877512693405151
-0.03137921914458275 -0.09925109893083572 1.56621515750885
-0.00413758959621191 -0.1050286591053009 1.5423271656036377
0.023930899798870087 -0.2141520082950592 1.040319800376892
0.03853499889373779 -0.23379367589950562 1.220759630203247
0.052444905042648315 -0.19184164702892303 0.11043192446231842
0.07522265613079071 -0.20364537835121155 1.181767463684082
0.08520134538412094 -0.16769149899482727 1.1381524801254272
0.152736634016037 -0.045899685472249985 1.4354221820831299
0.1445474624633789 -0.01990947499871254 1.4562876224517822
0.09294822067022324 -0.12732544541358948 1.1578688621520996
0.1002202033996582 -0.07588506489992142 0.7995140552520752
0.03897079452872276 -0.2889161705970764 1.1998295783996582
0.17152324318885803 0.004230940714478493 1.3801394701004028
-0.06181412562727928 0.004133302718400955 1.3976467847824097
-0.08218800276517868 -0.03153016418218613 0.3212989568710327
0.008170711807906628 -0.1023937314748764 0.6933760643005371
0.06091213598847389 -0.26642340421676636 1.6118583679199219
-0.07778903096914291 0.11559753119945526 1.1906083822250366
-0.13073879480361938 -0.17818212509155273 1.242060899734497
-0.04256190359592438 -0.07002473622560501 0.3579867482185364
0.06886745989322662 0.0005454877391457558 1.4994351863861084
0.05909188836812973 -0.2797214090824127 -0.039865754544734955
0.12048017978668213 -0.17791606485843658 1.4624381065368652
0.11930109560489655 -0.17763403058052063 1.4610925912857056
0.10828827321529388 -0.1890278458595276 1.3729569911956787
0.11380140483379364 -0.17085058987140656 0.14472773671150208
0.12964506447315216 -0.1366870105266571 0.12209910154342651
0.08853539824485779 -0.3158915638923645 1.1813033819198608
-0.17779183387756348 -0.15811198949813843 0.9064324498176575
-0.06893932074308395 -0.01389407366514206 1.4182066917419434
-0.0672861859202385 -0.016089007258415222 1.419569492340088
-0.07272829115390778 -0.018382851034402847 1.4186551570892334
-0.03608032315969467 -0.0873585119843483 0.15178285539150238
-0.02771216444671154 -0.09901531785726547 0.8439884185791016
0.03028258867561817 -0.1551859974861145 0.09884519875049591
0.10570882260799408 -0.3370019793510437 1.1356937885284424
0.11760085821151733 -0.21774089336395264 1.5783491134643555
0.11118398606777191 -0.1015249639749527 0.7495183944702148
0.16674616932868958 -0.038940075784921646 1.40688955783844
0.16935397684574127 -0.014767419546842575 1.3843779563903809
0.04152023419737816 -0.12125273793935776 -0.04326946660876274
0.05796949192881584 -0.6540994644165039 1.02302885055542
0.057351548224687576 -0.6277428269386292 1.0012481212615967
0.05491896718740463 -0.6377840042114258 1.00394606590271
0.05018541216850281 -0.634103536605835 1.0111888647079468
0.05099211260676384 -0.653417706489563 1.0134292840957642
0.05619512125849724 -0.6469968557357788 1.0255882740020752
0.09244737774133682 -0.5243750810623169 0.9991768002510071
0.07883916795253754 -0.5285491943359375 0.9949295520782471
0.08522365242242813 -0.5460801124572754 1.0026938915252686
0.08371144533157349 -0.553805947303772 1.005953311920166
0.10709846764802933 -0.3927404284477234 0.9318922758102417
0.10534092783927917 -0.4034678339958191 0.9480173587799072
0.10486869513988495 -0.40350541472435 0.9258394241333008
0.07444476336240768 -0.5405229926109314 0.9653323888778687
0.07541915774345398 -0.5526853799819946 0.978093683719635
0.08695372939109802 -0.5739771723747253 1.0255956649780273
0.08488953113555908 -0.5639165639877319 1.014594316482544
0.09526615589857101 -0.43272459506988525 0.9124879240989685
0.09514094144105911 -0.4398190975189209 0.9332170486450195
0.11196810007095337 -0.4698965549468994 0.9929313659667969
0.10749183595180511 -0.46321260929107666 0.9871662855148315
0.0725044384598732 -0.6333381533622742 1.0336453914642334
0.06231861189007759 -0.6188037395477295 0.9939372539520264
0.10937342047691345 -0.40181630849838257 0.9165138006210327
0.1028052568435669 -0.40765631198883057 0.913716197013855
0.17384064197540283 -0.24569071829319 0.9796027541160583
0.1697174459695816 -0.25492987036705017 0.9786737561225891
0.16901817917823792 -0.24456961452960968 0.9604091048240662
0.07805897295475006 -0.594575047492981 1.0203343629837036
0.0758504867553711 -0.6141598224639893 1.0254913568496704
0.10826358199119568 -0.40525370836257935 0.911168098449707
0.10583280771970749 -0.40466582775115967 0.9019454717636108
0.045739565044641495 -0.6711066365242004 0.9791582822799683
0.04522133618593216 -0.6817420125007629 0.9865267872810364
0.18120428919792175 -0.23296359181404114 0.9726006984710693
0.17791898548603058 -0.24482464790344238 0.9839358329772949
0.17562521994113922 -0.23433837294578552 0.9673000574111938
0.1732960343360901 -0.24127566814422607 0.9584673047065735
0.047083135694265366 -0.7089259624481201 1.0344510078430176
0.04819478839635849 -0.7246344089508057 1.045281171798706
0.04185941070318222 -0.7255570888519287 1.0277583599090576
0.08767198026180267 -0.49398353695869446 0.9401095509529114
0.08929264545440674 -0.5092650055885315 0.9416780471801758
0.0773869976401329 -0.5242223739624023 0.9373597502708435
0.08365276455879211 -0.5222510695457458 0.9343340992927551
0.1802702099084854 -0.2488509863615036 0.988129734992981
0.17782384157180786 -0.23253601789474487 0.9629291892051697
0.08831122517585754 -0.5918818712234497 1.0343263149261475
0.09613317251205444 -0.5915112495422363 1.0351186990737915
0.08375281095504761 -0.6046057939529419 1.0361024141311646
0.08442366123199463 -0.6203125715255737 1.0402500629425049
0.09634988009929657 -0.46103522181510925 0.927310049533844
0.09414023160934448 -0.47355854511260986 0.924816906452179
0.09149660170078278 -0.4759492874145508 0.9297716617584229
0.18226265907287598 -0.23589226603507996 0.9675101637840271
0.18250127136707306 -0.25020143389701843 0.9858843684196472
0.17551305890083313 -0.24666796624660492 0.9608956575393677
0.1066136509180069 -0.3814971446990967 0.8731346130371094
0.10535772144794464 -0.3866868019104004 0.8675104379653931
0.10685797780752182 -0.39635026454925537 0.8895964026451111
0.10837779194116592 -0.39321038126945496 0.8800380229949951
0.10320856422185898 -0.3878553807735443 0.8771695494651794
0.0780961811542511 -0.5442889928817749 0.9305740594863892
0.07824444770812988 -0.5308244228363037 0.9273123741149902
0.07565029710531235 -0.535480260848999 0.9167428016662598
0.07169930636882782 -0.5396182537078857 0.9168072938919067
0.17963676154613495 -0.24959403276443481 0.9693180322647095
0.05433245748281479 -0.7321069240570068 1.050308108329773
0.0495583675801754 -0.7288050055503845 1.0334711074829102
0.05266165733337402 -0.7384965419769287 1.0467201471328735
0.050090692937374115 -0.7404791116714478 1.050400733947754
0.045883871614933014 -0.7229146361351013 1.0214526653289795
0.12911638617515564 -0.3960111141204834 0.925718367099762
0.11535342037677765 -0.4054882824420929 0.914018988609314
0.05331387743353844 -0.6571692824363708 0.9709960222244263
0.04908343777060509 -0.679153561592102 0.9793688058853149
0.04801912233233452 -0.6943608522415161 0.993468701839447
0.12541499733924866 -0.4628685712814331 0.9895127415657043
0.119296133518219 -0.47850126028060913 0.9916892051696777
0.12065500020980835 -0.4877671003341675 0.988287627696991
0.10056982934474945 -0.5871191024780273 1.0360969305038452
0.09380592405796051 -0.5950509309768677 1.0293209552764893
0.0833931565284729 -0.6363120675086975 1.0390197038650513
0.09407231956720352 -0.5654919147491455 1.0210723876953125
0.07239728420972824 -0.6368210315704346 0.9848704934120178
0.06032649055123329 -0.6641868352890015 0.9867919683456421
0.1268187016248703 -0.46250125765800476 0.985052227973938
0.09973081946372986 -0.5746709108352661 1.0063283443450928
0.10426466912031174 -0.5603699684143066 0.9983752369880676
0.09789341688156128 -0.5868328809738159 1.0106090307235718
0.059399791061878204 -0.7040423154830933 1.022918939590454
0.059706661850214005 -0.6947827935218811 1.0131033658981323
0.08307372033596039 -0.562924325466156 0.9591202735900879
0.0919780284166336 -0.5655151605606079 0.9714060425758362
0.084337018430233 -0.5805922746658325 0.9766963720321655
0.09095334261655807 -0.5824199318885803 0.9846858978271484
0.11095695197582245 -0.5197492241859436 0.9910406470298767
0.10053704679012299 -0.5476447343826294 0.9976587891578674
0.08475278317928314 -0.6341720819473267 1.0198591947555542
0.07865190505981445 -0.6531400680541992 1.0168899297714233
0.07448582351207733 -0.6572818756103516 1.0238516330718994
0.08190897852182388 -0.627086877822876 0.9960471391677856
0.08042304962873459 -0.6342530846595764 0.9924879670143127
0.09977932274341583 -0.5345028638839722 0.9599626660346985
0.0944724902510643 -0.5482431054115295 0.9613695740699768
0.09607620537281036 -0.5248132348060608 0.9461184144020081
0.09345229715108871 -0.5430508852005005 0.9534811973571777
0.08995497971773148 -0.5547006130218506 0.9629682898521423
0.10449418425559998 -0.5174266695976257 0.9671831727027893
0.11302897334098816 -0.5057723522186279 0.9695271849632263
0.10334398597478867 -0.4968746602535248 0.9455410838127136
0.10875038802623749 -0.5061524510383606 0.959487795829773
0.07512597739696503 -0.6416643857955933 0.9986466765403748
0.07473953068256378 -0.658274233341217 1.0044128894805908
0.07157736271619797 -0.6504987478256226 0.9994924664497375
0.0809812843799591 -0.6523967385292053 1.0009794235229492
0.136842280626297 -0.41061362624168396 0.9382078051567078
0.057649724185466766 -0.6127787232398987 1.017534852027893
0.051080577075481415 -0.623088538646698 1.0103777647018433
0.07291366904973984 -0.5609757304191589 1.001272439956665
0.07156219333410263 -0.559240996837616 0.9965793490409851
0.06701742112636566 -0.5718627572059631 1.007067322731018
0.06816686689853668 -0.5634127855300903 0.9952410459518433
0.06753671169281006 -0.5746647119522095 1.003343105316162
0.0812588483095169 -0.5341092944145203 0.9798709750175476
0.07562248408794403 -0.5415558218955994 0.9804126024246216
0.08378347009420395 -0.5157048106193542 0.975752592086792
0.07411342114210129 -0.5728080868721008 1.0095049142837524
0.05466727539896965 -0.6387308835983276 0.9830546379089355
0.04959814250469208 -0.6504324674606323 1.0082533359527588
0.07232573628425598 -0.5619006156921387 0.976106584072113
0.048235513269901276 -0.6687150001525879 1.017649531364441
0.045142762362957 -0.6867544651031494 1.0171741247177124
0.045866452157497406 -0.6739280223846436 1.0094527006149292
0.043519191443920135 -0.6998251676559448 1.0277339220046997
0.1201333999633789 -0.3869144320487976 0.9476520419120789
0.12934349477291107 -0.42807209491729736 1.0111277103424072
0.125294029712677 -0.4339148998260498 1.0051910877227783
0.12996318936347961 -0.4371184706687927 1.010019063949585
0.09737902134656906 -0.4564148783683777 0.9343254566192627
0.16412624716758728 -0.24891704320907593 0.9519631266593933
0.17564080655574799 -0.26486319303512573 0.9910869598388672
0.17026272416114807 -0.2740182876586914 0.9862002730369568
0.165177583694458 -0.27147960662841797 0.9787078499794006
0.10074123740196228 -0.5312036275863647 1.0052024126052856
0.07298795878887177 -0.6463881731033325 1.0474498271942139
0.04201661795377731 -0.7051045894622803 1.0082827806472778
0.1482429802417755 -0.3025602698326111 0.9506626129150391
0.1448364108800888 -0.3282829523086548 0.9428778886795044
0.10846477746963501 -0.5116950869560242 1.009215235710144
0.10124729573726654 -0.5174535512924194 1.0038608312606812
0.09360064566135406 -0.5509560704231262 1.0094424486160278
0.045590583235025406 -0.7108942866325378 1.0100034475326538
0.04989521950483322 -0.7347884774208069 1.0544919967651367
0.04761772230267525 -0.7403445839881897 1.057987093925476
0.04312216117978096 -0.7362111806869507 1.0409693717956543
0.13066831231117249 -0.3669760525226593 0.9450238347053528
0.13042862713336945 -0.38447004556655884 0.9466503858566284
0.09958503395318985 -0.5525858998298645 1.0077096223831177
0.11420115828514099 -0.39046305418014526 0.9293044805526733
0.04562513157725334 -0.6906067132949829 0.9872196912765503
0.15060828626155853 -0.39564529061317444 1.0231138467788696
0.15161630511283875 -0.3955509662628174 1.0204052925109863
0.14513947069644928 -0.4036327600479126 1.0102198123931885
0.14820115268230438 -0.41030123829841614 1.0193485021591187
0.14550969004631042 -0.42122191190719604 1.0231354236602783
0.1335190385580063 -0.40287473797798157 0.9910690188407898
0.14240790903568268 -0.4051018953323364 0.9946801066398621
0.0489160493016243 -0.7427433133125305 1.060155987739563
0.07655871659517288 -0.5729844570159912 0.9628165364265442
0.07681622356176376 -0.583812952041626 0.9697809815406799
0.07283855974674225 -0.5853201746940613 0.9708243012428284
0.07668034732341766 -0.557439923286438 0.9504518508911133
0.15057039260864258 -0.4093397855758667 1.0174305438995361
0.14979185163974762 -0.4203294515609741 1.020039439201355
0.11214011162519455 -0.40895435214042664 0.903249204158783
0.15323038399219513 -0.4025788903236389 1.0171599388122559
0.14912518858909607 -0.40733110904693604 1.0100376605987549
0.09789644926786423 -0.5780185461044312 1.0270735025405884
0.10599832236766815 -0.41151487827301025 0.8792963624000549
0.10284510254859924 -0.4093317687511444 0.8734778165817261
0.09635461866855621 -0.41803547739982605 0.8655320405960083
0.09705881774425507 -0.42728090286254883 0.8711190223693848
0.13868393003940582 -0.3936713933944702 0.9444599151611328
0.1433434635400772 -0.42886778712272644 1.0060746669769287
0.09018392115831375 -0.5974866151809692 1.0170605182647705
0.08770056068897247 -0.6143369674682617 1.0219511985778809
0.1121007576584816 -0.41986721754074097 0.9020159840583801
0.11077938228845596 -0.42896291613578796 0.9014098048210144
0.10698157548904419 -0.42280107736587524 0.8894101977348328
0.08871299773454666 -0.6139677166938782 1.0141984224319458
0.09053470194339752 -0.5987762212753296 1.0057313442230225
0.0865507498383522 -0.6040551662445068 0.9935142397880554
0.0922461673617363 -0.5892737507820129 0.9913480877876282
0.06074368208646774 -0.6769264936447144 0.9971407651901245
0.06337902694940567 -0.679641842842102 1.0028502941131592
0.12313614785671234 -0.42099690437316895 0.9171481728553772
0.13625741004943848 -0.4256952106952667 0.9598912000656128
0.12942777574062347 -0.44601452350616455 0.9576414227485657
0.13156619668006897 -0.43700867891311646 0.9491016864776611
0.12442666292190552 -0.4579535722732544 0.9599974751472473
0.1184161901473999 -0.46494290232658386 0.9527420997619629
0.08988296985626221 -0.6200948357582092 0.9991042017936707
0.09046203643083572 -0.6109408140182495 0.9968435764312744
0.08541088551282883 -0.6424151062965393 1.0107053518295288
0.1100258156657219 -0.5602303743362427 0.9879410266876221
0.10187239944934845 -0.5837813019752502 0.997471272945404
0.1025383323431015 -0.5647565126419067 0.9898316264152527
0.09998803585767746 -0.5732641220092773 0.9858319163322449
0.10290975868701935 -0.5805003046989441 0.9920142889022827
0.10114199668169022 -0.5689111948013306 0.992253839969635
0.09957334399223328 -0.585020899772644 0.9909849166870117
0.08575090765953064 -0.6532086730003357 1.0092127323150635
0.08544021099805832 -0.6459370851516724 0.9999189376831055
0.05484825000166893 -0.6276111602783203 1.0216846466064453
0.0502827987074852 -0.6424023509025574 1.0219365358352661
0.052097856998443604 -0.6261805295944214 1.0059298276901245
0.05148695409297943 -0.6433982253074646 1.0139237642288208
0.11815612018108368 -0.4229934811592102 0.9955556392669678
0.10411076247692108 -0.41010117530822754 0.9366464614868164
0.09980934858322144 -0.42123690247535706 0.9322404265403748
0.11755255609750748 -0.39731913805007935 0.97150057554245
0.069386787712574 -0.6204239726066589 1.0220073461532593
0.06606628000736237 -0.6024273633956909 0.9982088208198547
0.09685391932725906 -0.4533582329750061 0.9569644927978516
0.0946037620306015 -0.45976001024246216 0.9464409947395325
0.11323270201683044 -0.43589866161346436 0.9896794557571411
0.1114947721362114 -0.4517139792442322 0.9889830350875854
0.06898608803749084 -0.594236433506012 0.9966980814933777
0.06845364719629288 -0.6309839487075806 1.0266309976577759
0.09484139084815979 -0.4804261326789856 0.9559875130653381
0.08645127713680267 -0.507568895816803 0.9681205749511719
0.0856873095035553 -0.49821197986602783 0.9512585997581482
0.07089170068502426 -0.5772929787635803 0.9882758855819702
0.05435831844806671 -0.689670205116272 1.0306366682052612
0.04683734476566315 -0.7162487506866455 1.0347596406936646
0.04471240192651749 -0.7137749195098877 1.0192230939865112
0.13627181947231293 -0.41960835456848145 1.0199244022369385
0.1268007904291153 -0.4481288194656372 1.0142717361450195
0.10937978327274323 -0.48446959257125854 0.9960622191429138
0.10665629059076309 -0.5047963261604309 1.0028570890426636
0.08357790112495422 -0.5092301368713379 0.9469023942947388
0.12846839427947998 -0.4597361087799072 1.0224846601486206
0.12140029668807983 -0.4453437328338623 0.9933879971504211
0.12014905363321304 -0.4587031602859497 0.9922510385513306
0.07021935284137726 -0.6619303822517395 1.044623851776123
0.060451604425907135 -0.6806409358978271 1.0374221801757812
0.06869228929281235 -0.586980938911438 0.975391685962677
0.14506247639656067 -0.3424948453903198 0.9684394598007202
0.14715753495693207 -0.32946041226387024 0.9689982533454895
0.07324543595314026 -0.5308032035827637 0.9291208982467651
0.1119287759065628 -0.4989815056324005 0.9982445240020752
0.1138811707496643 -0.5121732354164124 1.0113904476165771
0.0741090178489685 -0.6568151116371155 1.0468194484710693
0.07408993691205978 -0.6604834794998169 1.0434645414352417
0.06794790923595428 -0.6723759770393372 1.0413721799850464
0.10183115303516388 -0.43237823247909546 0.8997370600700378
0.09895453602075577 -0.4442352056503296 0.8982757329940796
0.09475276619195938 -0.44477197527885437 0.8995317816734314
0.09672180563211441 -0.4265938103199005 0.8936843276023865
0.10112842172384262 -0.42645925283432007 0.8900296092033386
0.09554751962423325 -0.4271669387817383 0.8759625554084778
0.096359983086586 -0.4526360034942627 0.9192246198654175
0.09133191406726837 -0.42635592818260193 0.8730599880218506
0.0889800637960434 -0.43502771854400635 0.8652142286300659
0.13598555326461792 -0.39194267988204956 0.9695255756378174
0.13870549201965332 -0.39829397201538086 0.9715500473976135
0.12539957463741302 -0.389272540807724 0.9422880411148071
0.1385733187198639 -0.4270504415035248 1.0140165090560913
0.13400651514530182 -0.43474280834198 1.0082221031188965
0.09827270358800888 -0.5889396071434021 1.0469552278518677
0.09813456982374191 -0.5847538113594055 1.0470300912857056
0.09609014540910721 -0.5796056389808655 1.0354573726654053
0.09588668495416641 -0.4313221573829651 0.863142728805542
0.09109032154083252 -0.4181750416755676 0.863879919052124
0.10055562853813171 -0.4539615213871002 0.9158404469490051
0.06567205488681793 -0.6246306300163269 0.9797922372817993
0.05750100314617157 -0.6413105130195618 0.9764748215675354
0.14509841799736023 -0.4108750522136688 0.9946932196617126
0.14109469950199127 -0.3798784911632538 0.9685037732124329
0.07759446650743484 -0.6504026055335999 1.0283957719802856
0.08000326156616211 -0.5310438275337219 0.9322353005409241
0.17020587623119354 -0.2790907621383667 0.951431393623352
0.16584327816963196 -0.29117050766944885 0.9505858421325684
0.08476640284061432 -0.5367579460144043 0.9371404647827148
0.14661234617233276 -0.37339022755622864 0.9565988779067993
0.14154046773910522 -0.38868463039398193 0.9604189991950989
0.13879013061523438 -0.3867128789424896 0.9497516751289368
0.08476927131414413 -0.6173088550567627 0.9970075488090515
0.12755177915096283 -0.4036765396595001 0.9220707416534424
0.09772758930921555 -0.5177368521690369 0.9512197375297546
0.14401037991046906 -0.40345099568367004 0.960576057434082
0.1391814649105072 -0.41725102066993713 0.961538553237915
0.143522247672081 -0.4178144037723541 0.98417729139328
0.13722611963748932 -0.4283994436264038 0.9706879258155823
0.14163263142108917 -0.3951113224029541 0.9493812322616577
0.13534122705459595 -0.3963598608970642 0.937000572681427
0.09297709912061691 -0.618532657623291 1.0047197341918945
0.074626125395298 -0.5398478507995605 0.9979077577590942
0.07221896946430206 -0.5401235818862915 0.9944821000099182
0.07683847844600677 -0.5505943298339844 1.0019422769546509
0.07258749008178711 -0.5381590723991394 0.9885432720184326
0.06810612976551056 -0.5519747734069824 0.9972039461135864
0.06557491421699524 -0.5993919968605042 1.0150318145751953
0.06661277264356613 -0.607168972492218 1.0198653936386108
0.0742577612400055 -0.5586522817611694 0.9924340844154358
0.07041241973638535 -0.5674206018447876 0.9856112003326416
0.06787624210119247 -0.5847611427307129 1.0012880563735962
0.06972487270832062 -0.5888749361038208 1.0120995044708252
0.10028693079948425 -0.4406508803367615 0.9551818370819092
0.12468746304512024 -0.4220395088195801 1.0069911479949951
0.1288972944021225 -0.4075644612312317 0.9953174591064453
0.12884700298309326 -0.36954647302627563 0.9655010104179382
0.1266086995601654 -0.36348772048950195 0.9565855264663696
0.07473098486661911 -0.5577466487884521 0.9582237601280212
0.08006294071674347 -0.521111249923706 0.9511269330978394
0.07214726507663727 -0.5407894849777222 0.927310585975647
0.0753922313451767 -0.5347129702568054 0.953230082988739
0.16901826858520508 -0.2816382050514221 0.9858571290969849
0.1703089475631714 -0.25649183988571167 0.966277003288269
0.16532234847545624 -0.26775795221328735 0.9710499048233032
0.16447299718856812 -0.26881998777389526 0.9621949195861816
0.1558544784784317 -0.27767178416252136 0.9582070708274841
0.1409628689289093 -0.3311108946800232 0.9457827806472778
0.13558247685432434 -0.3472997844219208 0.9454749226570129
0.1443137228488922 -0.39868465065956116 1.0199798345565796
0.09296230226755142 -0.5889395475387573 1.0464510917663574
0.07708925008773804 -0.6218760013580322 1.0390102863311768
0.04890115559101105 -0.6550704836845398 0.9704541563987732
0.05097762495279312 -0.6518405079841614 0.973760187625885
0.09787091612815857 -0.40930187702178955 0.8730646371841431
0.09119769185781479 -0.41784363985061646 0.8673794269561768
0.15463492274284363 -0.33220335841178894 0.9668924808502197
0.14876656234264374 -0.3458694815635681 0.9666756391525269
0.09490707516670227 -0.5856287479400635 1.0501435995101929
0.09527300298213959 -0.49762916564941406 0.9376699924468994
0.09473242610692978 -0.5097947120666504 0.9424605369567871
0.11313784122467041 -0.5066919326782227 1.0005545616149902
0.10830125957727432 -0.5189623236656189 1.00188148021698
0.10497573763132095 -0.53531414270401 1.0027354955673218
0.1160697340965271 -0.4470444917678833 0.9248266816139221
0.1678963601589203 -0.3026908040046692 0.9618096351623535
0.1606825590133667 -0.3099973499774933 0.9517779350280762
0.0633934736251831 -0.6862168312072754 1.009525179862976
0.12792962789535522 -0.46332186460494995 0.9767687916755676
0.12317861616611481 -0.4772525429725647 0.967984676361084
0.1205768883228302 -0.44632571935653687 0.9389501810073853
0.11430944502353668 -0.44086262583732605 0.9147254228591919
0.1078350692987442 -0.4605030417442322 0.9307008385658264
0.13301168382167816 -0.4376955032348633 0.9661967158317566
0.1383485496044159 -0.43629616498947144 0.9822609424591064
0.13365676999092102 -0.4461107850074768 0.9799337387084961
0.1318814903497696 -0.44962358474731445 0.9661719799041748
0.1112474724650383 -0.41951680183410645 0.9725315570831299
0.11311410367488861 -0.3962038457393646 0.956292450428009
0.10946404188871384 -0.4091293215751648 0.9652081727981567
0.10627491027116776 -0.41509097814559937 0.9548392295837402
0.05950821191072464 -0.619941234588623 1.002830147743225
0.09972894936800003 -0.4151418209075928 0.9257495999336243
0.0626857578754425 -0.6542669534683228 1.0297472476959229
0.09090100228786469 -0.46906912326812744 0.945023775100708
0.15436851978302002 -0.2955109477043152 0.9689319133758545
0.1481737345457077 -0.30394500494003296 0.9619355201721191
0.14864559471607208 -0.29987600445747375 0.9542726278305054
0.12408708035945892 -0.44137001037597656 0.9954063892364502
0.12586642801761627 -0.45601481199264526 1.0149940252304077
0.12576907873153687 -0.4461522102355957 1.0018706321716309
0.09675727784633636 -0.42940354347229004 0.9010939002037048
0.08573181927204132 -0.43048781156539917 0.8645728230476379
0.06803558766841888 -0.60230553150177 0.9782170653343201
0.06561844795942307 -0.6127725839614868 0.9782841801643372
0.06032254174351692 -0.6216391324996948 0.9821808338165283
0.131426140666008 -0.39644062519073486 0.9744422435760498
0.13159781694412231 -0.45759937167167664 1.0181081295013428
0.1252131313085556 -0.4609793424606323 1.0161330699920654
0.12680426239967346 -0.4548472762107849 1.0049188137054443
0.12279582768678665 -0.45125871896743774 0.9903188943862915
0.044526658952236176 -0.6767867803573608 0.977828860282898
0.045132409781217575 -0.7050113081932068 1.0026761293411255
0.1688334047794342 -0.2682795822620392 0.9596908092498779
0.1691310554742813 -0.2526123821735382 0.9429161548614502
0.16969583928585052 -0.25686609745025635 0.9553928375244141
0.16874626278877258 -0.2653568685054779 0.9550005793571472
