-0.1709955930709839 0.044650472700595856 1.164206624031067
0.5967499017715454 -0.19494673609733582 0.8430923819541931
0.6194236874580383 -0.25004124641418457 0.6127983927726746
0.6245549321174622 -0.2536761164665222 0.6272514462471008
-0.2972387671470642 -0.029807325452566147 0.7881121635437012
-0.2216399610042572 -0.028717955574393272 0.7230337858200073
-0.20329099893569946 -0.052663687616586685 0.6816716194152832
0.4531501829624176 -0.07718469947576523 1.4341145753860474
0.6339322924613953 -0.23088067770004272 0.6193405389785767
0.6397310495376587 -0.22449611127376556 0.9285029172897339
-0.23468132317066193 0.09339282661676407 1.2557183504104614
0.6242052912712097 -0.1907174438238144 1.0168354511260986
-0.23297956585884094 -0.0026884451508522034 0.7970466613769531
0.531111478805542 -0.2807615399360657 0.6720187067985535
0.6112430095672607 -0.18733671307563782 1.0055630207061768
-0.2869320809841156 -0.05622171610593796 0.7543537616729736
-0.3580933213233948 -0.1236967146396637 0.9625262022018433
-0.3642771244049072 -0.12002956867218018 0.9726343750953674
-0.3464474678039551 -0.14176756143569946 0.9716871380805969
-0.35569310188293457 -0.13933250308036804 0.9809220433235168
-0.33379030227661133 -0.09468472748994827 1.0296093225479126
-0.33985739946365356 -0.10880481451749802 1.0087205171585083
-0.33051806688308716 -0.09947136789560318 0.9793375730514526
-0.3280796408653259 -0.07131114602088928 1.0111879110336304
-0.3298864960670471 -0.12413680553436279 1.0133289098739624
-0.33263975381851196 -0.15130048990249634 1.002597451210022
-0.31678199768066406 -0.0630803257226944 1.0884615182876587
-0.31337642669677734 -0.15054623782634735 1.0051145553588867
-0.3269830048084259 -0.11766406148672104 1.0045698881149292
-0.31553778052330017 -0.1334320306777954 1.0406503677368164
-0.3157649636268616 -0.11062990874052048 1.0342516899108887
-0.3058933913707733 -0.05203049257397652 1.0587693452835083
-0.30961334705352783 -0.1012527197599411 1.032969355583191
-0.3091773986816406 -0.10815375298261642 1.057502031326294
-0.3129337430000305 -0.08635646849870682 1.0853127241134644
-0.3282462954521179 -0.04840899631381035 1.1191306114196777
-0.32085731625556946 -0.09754729270935059 1.1144176721572876
-0.2947724461555481 -0.00038422364741563797 1.145060658454895
-0.30233728885650635 -0.012257833033800125 1.102588415145874
-0.31823569536209106 -0.04904380813241005 1.153498649597168
-0.271118700504303 -0.00973694771528244 1.0917209386825562
-0.2748635411262512 -0.03294520825147629 1.2030595541000366
-0.2904449999332428 -0.09211057424545288 1.1617611646652222
-0.2707154452800751 0.008908974938094616 1.1347466707229614
-0.24158188700675964 0.001472504809498787 1.1449711322784424
-0.24381797015666962 0.008840924128890038 1.2011454105377197
-0.22145405411720276 0.008752118796110153 1.1997534036636353
-0.21660387516021729 -0.04196660965681076 1.2711117267608643
-0.2554844617843628 -0.07198410481214523 1.2062549591064453
-0.21155115962028503 0.01424674317240715 1.2435309886932373
-0.23861947655677795 -0.012505685910582542 1.2510297298431396
-0.19940641522407532 0.010743040591478348 1.28155517578125
-0.18495741486549377 0.008493434637784958 1.3164093494415283
-0.17970454692840576 -0.03821079432964325 1.32283353805542
-0.21089927852153778 -0.08053536713123322 1.2297980785369873
-0.1849469244480133 0.0497286319732666 1.7020797729492188
-0.125452920794487 0.09999898076057434 1.3827564716339111
-0.1285656839609146 0.06608561426401138 0.8633191585540771
-0.17443780601024628 0.016484495252370834 0.8719752430915833
-0.15119914710521698 -0.07587726414203644 0.8755815029144287
-0.19453144073486328 -0.10384146869182587 0.8673747777938843
-0.1667308509349823 0.06384208798408508 1.6132068634033203
-0.19374556839466095 0.038975220173597336 1.7230290174484253
-0.16081590950489044 0.044111527502536774 1.6750004291534424
-0.14034686982631683 0.07438357174396515 1.6291139125823975
-0.15027926862239838 0.05562952533364296 1.577732801437378
-0.1152590662240982 -0.0023058317601680756 1.0296452045440674
-0.15293055772781372 -0.04966762289404869 0.9940164685249329
-0.15952304005622864 -0.11762453615665436 0.9812042713165283
-0.1487707644701004 0.03754802793264389 1.511202335357666
-0.287547767162323 -0.06461529433727264 0.0615471750497818
-0.3033413887023926 -0.12478114664554596 0.027489695698022842
-0.30781489610671997 -0.14919908344745636 0.04501999169588089
-0.15295933187007904 -0.02752450294792652 1.3699193000793457
-0.14245903491973877 0.012581098824739456 1.318090796470642
-0.13711635768413544 -0.013549234718084335 1.2986433506011963
-0.1613347828388214 -0.03828956186771393 1.3581300973892212
-0.14472778141498566 -0.08167730271816254 1.3137081861495972
-0.22555328905582428 -0.029128853231668472 0.47726964950561523
-0.22599151730537415 -0.05720610171556473 0.39298543334007263
-0.23861224949359894 -0.004628135822713375 0.3318328857421875
-0.24457047879695892 -0.0316123440861702 0.35959815979003906
-0.1539665311574936 0.05361328646540642 1.644837498664856
-0.13952280580997467 -0.0534515343606472 1.2673091888427734
-0.1427278071641922 -0.0627896636724472 1.2257373332977295
-0.14591781795024872 -0.08693996071815491 1.2559596300125122
-0.1694740504026413 -0.09991252422332764 1.2566869258880615
-0.23438788950443268 0.005657821893692017 0.25735238194465637
-0.15209132432937622 -0.02559945173561573 1.5055568218231201
-0.1353873312473297 0.042869579046964645 1.5120246410369873
-0.14451658725738525 0.013808563351631165 1.5039420127868652
-0.1942475438117981 -0.06596581637859344 0.5754997730255127
-0.10887229442596436 0.03396264463663101 1.7358837127685547
-0.12958863377571106 -0.10790368914604187 1.194570779800415
-0.11731544137001038 -0.036427441984415054 1.1445311307907104
-0.13539430499076843 -0.12450379878282547 0.7435165643692017
-0.10921918600797653 0.08358008414506912 1.6890231370925903
-0.13224256038665771 -0.05769691616296768 1.381258487701416
-0.10369883477687836 -0.11870114505290985 0.8483686447143555
-0.13844752311706543 -0.130479097366333 0.8699246048927307
-0.12258964776992798 -0.1969200223684311 0.9086251258850098
-0.10598970949649811 -0.21270932257175446 0.8467370271682739
-0.2811230719089508 -0.18772417306900024 0.06276446580886841
-0.07254557311534882 0.10073454678058624 1.688703179359436
-0.10251280665397644 0.04383022338151932 1.721014142036438
-0.15026849508285522 -0.002686772495508194 1.4198857545852661
-0.13351669907569885 -0.027871597558259964 1.4642245769500732
-0.20382551848888397 0.016739748418331146 0.3263262212276459
-0.23201633989810944 -0.008160055615007877 0.20899850130081177
-0.2704103887081146 -0.1848091185092926 0.10601473599672318
-0.23721963167190552 -0.0027953609824180603 0.06774210184812546
-0.11190983653068542 -0.010266732424497604 1.303626537322998
-0.17518250644207 -0.0923563688993454 0.5481573939323425
-0.2364601045846939 -0.1469961702823639 0.005166538991034031
-0.27692022919654846 -0.1473977118730545 0.0019155503250658512
-0.1019928976893425 0.033366765826940536 1.5272068977355957
-0.1085437759757042 0.005060449242591858 1.4846960306167603
-0.03290431573987007 -0.21487677097320557 0.9006773829460144
-0.07793734967708588 0.08877547085285187 0.8602296113967896
-0.23128704726696014 -0.11006657034158707 0.2697104513645172
-0.20879106223583221 -0.10754762589931488 0.19389604032039642
-0.21578384935855865 -0.01157023012638092 0.10988509654998779
-0.09668515622615814 -0.010185722261667252 1.2692313194274902
-0.10553937405347824 -0.029566703364253044 1.2291839122772217
-0.0794203132390976 -0.12832942605018616 1.2953722476959229
-0.140317901968956 -0.025868570432066917 0.6678588390350342
-0.11877227574586868 -0.12652587890625 0.7357462644577026
-0.07446592301130295 -0.11803337931632996 0.8097459077835083
-0.19997002184391022 -0.11597777903079987 0.16012440621852875
-0.22406530380249023 -0.17870482802391052 0.07027304917573929
-0.12846505641937256 -0.07906501740217209 1.4566197395324707
-0.0959978997707367 -0.0011020004749298096 1.337952733039856
-0.06684171408414841 -0.007164672017097473 1.2755260467529297
-0.14472350478172302 -0.09424248337745667 0.5706208348274231
-0.1228240355849266 -0.07485640048980713 0.5703520178794861
-0.16117146611213684 0.021400004625320435 0.5135481357574463
-0.10131017863750458 -0.06660646945238113 1.4279019832611084
-0.07429701089859009 -0.029955055564641953 1.4134933948516846
-0.102646104991436 0.013293109834194183 1.3774116039276123
-0.13443981111049652 -0.016161981970071793 0.518768310546875
-0.060612764209508896 0.054553158581256866 1.726428747177124
-0.12468746304512024 -0.119782455265522 1.5852370262145996
-0.038346435874700546 -0.1880202740430832 0.9781461954116821
-0.07980756461620331 -0.04010133817791939 1.4262912273406982
-0.05994148552417755 -0.06894374638795853 1.4111696481704712
-0.07972092926502228 -0.05281175673007965 1.4051600694656372
-0.0733756422996521 -0.11971227079629898 1.5195225477218628
-0.10929052531719208 -0.10972527414560318 1.4681775569915771
-0.05412647873163223 -0.010715112090110779 1.4368133544921875
-0.10425040870904922 -0.040349606424570084 0.6377547979354858
-0.02124832570552826 0.008431829512119293 1.745110034942627
-0.02884666994214058 0.10903603583574295 1.660491943359375
-0.0627640038728714 -0.13615348935127258 1.4704086780548096
-0.07512553036212921 -0.11125794053077698 1.4265632629394531
-0.03780290484428406 -0.02096479758620262 1.4131293296813965
-0.04928078129887581 -0.11636842787265778 1.4279024600982666
-0.009463146328926086 -0.0033891573548316956 1.3911919593811035
-0.02755691297352314 -0.021773256361484528 1.2683172225952148
-0.015937533229589462 0.06071140617132187 1.724258542060852
-0.019852744415402412 -0.022275269031524658 1.4402105808258057
-0.02534773200750351 -0.06342639029026031 1.4257686138153076
0.013560153543949127 0.07373276352882385 1.68832266330719
-0.009038172662258148 0.017707418650388718 1.7292364835739136
-0.020701132714748383 -0.05529145523905754 1.4153172969818115
0.00756150484085083 -0.08588290959596634 1.4494653940200806
-0.014559291303157806 -0.03622575104236603 1.4201207160949707
0.07757038623094559 -0.09133684635162354 0.5906047821044922
0.012040633708238602 0.00021875649690628052 1.4717735052108765
0.1139134094119072 -0.11181490868330002 0.5074360966682434
-0.00760785024613142 -0.16703540086746216 1.255049705505371
0.043325942009687424 -0.05249935761094093 1.2475335597991943
0.04562020301818848 -0.07598619163036346 1.138572335243225
0.14706748723983765 -0.14479191601276398 0.07143006473779678
0.16237452626228333 -0.1382952481508255 0.050404466688632965
0.13314811885356903 -0.010356977581977844 0.07788458466529846
0.00685487687587738 -0.15165215730667114 1.241385817527771
-0.0025075431913137436 -0.19037191569805145 1.1670424938201904
0.07191500067710876 -0.14074894785881042 0.7299639582633972
0.12962764501571655 -0.06383232027292252 0.05238126963376999
0.038253821432590485 0.00785607099533081 1.6893045902252197
-0.00805831328034401 -0.1329287588596344 1.593100905418396
-0.009778916835784912 -0.11586179584264755 1.5102061033248901
-0.009045913815498352 -0.11597581952810287 1.4675934314727783
0.09668409824371338 -0.1621723771095276 0.8762751221656799
0.08544309437274933 -0.0026600435376167297 1.7176413536071777
0.017321616411209106 -0.0011543631553649902 1.5222374200820923
0.015252459794282913 -0.02177596092224121 1.4931414127349854
0.13640330731868744 -0.024264590814709663 0.3262983560562134
0.1286856085062027 -0.016725867986679077 0.26387715339660645
0.1455284059047699 -0.0020062625408172607 0.05953024700284004
0.029892854392528534 -0.005854692310094833 1.7717442512512207
0.048319507390260696 -0.02369777113199234 1.3914400339126587
0.09751395881175995 -0.21946784853935242 0.8628144264221191
0.08766192942857742 -0.13271662592887878 0.86311936378479
0.12837038934230804 -0.1962040662765503 0.8647691011428833
0.09621158242225647 -0.0399823896586895 0.7510088086128235
0.18864767253398895 -0.13833674788475037 0.0627717524766922
0.04844791442155838 -0.0032036378979682922 1.7001137733459473
0.0326119102537632 -0.16302907466888428 1.1352477073669434
0.03463355451822281 -0.1395203173160553 1.257807731628418
0.03453363478183746 -0.15594187378883362 1.2553448677062988
0.12422950565814972 -0.1901739537715912 0.9316197037696838
0.034799955785274506 -0.07403957098722458 1.532191514968872
0.04604608565568924 -0.001695830374956131 1.534020185470581
0.04151143133640289 -0.026818353682756424 1.5195001363754272
0.04682585597038269 -0.04247649386525154 1.514876365661621
0.0535103902220726 -0.05474475026130676 1.4917290210723877
0.1369212418794632 -0.0659666359424591 0.6491919755935669
0.13490131497383118 -0.1312342882156372 0.6685245037078857
0.05860310420393944 -0.05957331508398056 1.3748815059661865
0.0644507110118866 -0.016006171703338623 1.3145208358764648
0.03405060991644859 -0.017366603016853333 1.3328423500061035
0.042741335928440094 -0.03749939799308777 1.308394193649292
0.12421910464763641 -0.11937074363231659 0.8311414122581482
0.19029156863689423 -0.020999498665332794 0.06251482665538788
0.20289190113544464 -0.045592572540044785 0.05859285220503807
0.056800004094839096 -0.010980751365423203 1.6547552347183228
0.07225314527750015 -0.03614121675491333 1.3667619228363037
0.19935566186904907 -0.07118095457553864 0.31184878945350647
0.08215542882680893 0.004877258092164993 1.6316888332366943
0.06086603179574013 0.031878162175416946 1.6367771625518799
0.06844573467969894 0.002650044858455658 1.60066556930542
0.2060198187828064 -0.050406552851200104 0.13537529110908508
0.21293236315250397 -0.10530972480773926 0.06337373703718185
0.2020062357187271 -0.13395968079566956 0.09089942276477814
0.150826558470726 -0.016455985605716705 0.9713302850723267
0.14972296357154846 -0.01692764088511467 0.8728377819061279
0.08240219950675964 -0.01935901865363121 1.7129507064819336
0.16674195230007172 0.03638062626123428 0.8792884349822998
0.1786264181137085 -0.0001582670956850052 0.9424206018447876
0.08727690577507019 -0.026765186339616776 1.3094199895858765
0.09641297906637192 -0.047444697469472885 1.2968897819519043
0.06907715648412704 -0.06184577941894531 1.3445351123809814
0.09753775596618652 -0.03764743730425835 1.255677342414856
0.0875338613986969 -0.04004503786563873 1.2357392311096191
0.09708045423030853 -0.11387088149785995 1.2260174751281738
0.11083299666643143 -0.07123350352048874 1.2580267190933228
0.13169440627098083 -0.05251893028616905 1.1916911602020264
0.1453000009059906 -0.06284501403570175 1.1169345378875732
0.16911742091178894 -0.07765518128871918 1.1310577392578125
0.15589293837547302 -0.08912410587072372 1.1826071739196777
0.12657302618026733 -0.12093675881624222 1.2031567096710205
0.17171257734298706 -0.10308881849050522 1.0805397033691406
0.1849246323108673 -0.16274139285087585 1.1359654664993286
0.19394873082637787 -0.14380177855491638 1.11545729637146
0.1865546554327011 -0.11906897276639938 1.0881798267364502
0.13988634943962097 -0.19617335498332977 1.121826410293579
0.1648240089416504 -0.16977271437644958 1.0880086421966553
0.1666293889284134 -0.15222470462322235 1.0731617212295532
0.195900559425354 -0.23755612969398499 0.977620005607605
0.1431480050086975 -0.18398436903953552 1.089124083518982
0.1430824100971222 -0.20328080654144287 1.0609652996063232
0.18282702565193176 -0.18820643424987793 1.005851149559021
0.14789815247058868 -0.19397783279418945 1.035251259803772
0.14001554250717163 -0.21963229775428772 1.0401607751846313
0.16336438059806824 -0.21851986646652222 1.0107494592666626
0.1799045205116272 -0.22498837113380432 1.0065566301345825
0.13479408621788025 -0.24055108428001404 1.0154780149459839
0.15781334042549133 -0.23751601576805115 1.0062772035598755
0.14588533341884613 -0.23681756854057312 1.0153032541275024
0.18854671716690063 -0.24292795360088348 0.9584541320800781
0.15136770904064178 -0.25164270401000977 1.0034247636795044
0.17347164452075958 -0.22569072246551514 0.9717193245887756
0.1727399230003357 -0.2576156258583069 0.9719668030738831
0.18810564279556274 -0.2526717483997345 0.974452793598175
-0.30658259987831116 -0.04310466721653938 1.0825912952423096
-0.29838794469833374 -0.09672597050666809 1.0708035230636597
-0.28533199429512024 -0.08115311712026596 1.067827582359314
-0.3023741841316223 -0.11282820999622345 1.106862187385559
-0.2545813322067261 -0.04274348169565201 1.0775903463363647
-0.2779650092124939 -0.11506292223930359 1.0899169445037842
-0.20071159303188324 -0.010474774986505508 1.2214502096176147
-0.20014552772045135 -0.06215662136673927 1.199028730392456
-0.1715189814567566 -0.09634677320718765 0.9606735706329346
-0.175596684217453 -0.014690864831209183 0.9421123266220093
-0.12568655610084534 0.05104249715805054 0.9267997741699219
-0.08609597384929657 0.13992621004581451 1.2512840032577515
-0.07926315814256668 0.13777831196784973 1.1935782432556152
-0.07547299563884735 0.16119559109210968 1.1687564849853516
-0.15023985505104065 -0.011084597557783127 0.9618045091629028
-0.19649744033813477 0.03368375450372696 1.6926093101501465
-0.15140430629253387 0.0029546022415161133 1.3375815153121948
-0.17143405973911285 0.0033091455698013306 1.2730815410614014
-0.012292391620576382 0.15092188119888306 1.0755177736282349
-0.03356802463531494 0.15493999421596527 0.9975271224975586
-0.28956338763237 -0.08060978353023529 0.1211632490158081
-0.3084697425365448 -0.13290588557720184 0.07285303622484207
-0.17457269132137299 0.02119925618171692 1.676497220993042
-0.15951833128929138 0.03427640721201897 1.623218059539795
-0.15718427300453186 -0.12240707874298096 1.2323198318481445
-0.15720422565937042 -0.1378626525402069 1.207277774810791
-0.16181504726409912 -0.15726900100708008 1.2023580074310303
-0.09604629874229431 0.10204008966684341 1.3598533868789673
-0.08801896870136261 0.09438562393188477 1.356204867362976
-0.13819585740566254 -0.12571360170841217 1.2478455305099487
-0.14617450535297394 -0.056102339178323746 1.1922876834869385
-0.26057323813438416 -0.09781468659639359 0.18535278737545013
-0.26853129267692566 -0.05293760448694229 0.19406096637248993
-0.03964637964963913 0.11715474724769592 1.2459213733673096
-0.15714433789253235 -0.014898821711540222 1.431630253791809
-0.15530307590961456 -0.009236138314008713 1.4113733768463135
-0.1421978771686554 -0.012063805013895035 1.3944011926651
-0.156694233417511 -0.007634852081537247 1.3915679454803467
-0.15689970552921295 -0.02481607347726822 1.3814188241958618
-0.14818565547466278 -0.10900096595287323 0.7903096079826355
-0.16060687601566315 -0.07022928446531296 0.7857385873794556
-0.0011482611298561096 0.2059365212917328 1.0871058702468872
-0.004395855590701103 0.2034664750099182 1.1356538534164429
-0.12920714914798737 -0.11905178427696228 1.2424618005752563
-0.12665657699108124 -0.10942206531763077 0.8623994588851929
-0.26223841309547424 -0.017934441566467285 0.11719366908073425
-0.2674448490142822 -0.018562447279691696 0.0797169953584671
-0.13803142309188843 -0.1846514344215393 0.8485319018363953
-0.03632170706987381 0.17593897879123688 1.2298675775527954
-0.1598338484764099 -0.08845220506191254 1.58305823802948
-0.12662120163440704 0.01955680549144745 1.5084768533706665
-0.08992571383714676 0.0998644232749939 1.4835729598999023
-0.09244146943092346 0.06571178883314133 1.5376362800598145
-0.11286726593971252 0.06626683473587036 1.512028455734253
-0.0970701053738594 0.08315758407115936 1.4311779737472534
-0.045827705413103104 0.11862374097108841 1.5278410911560059
-0.11981388926506042 -0.014389704912900925 1.4605752229690552
-0.0838240459561348 0.043647076934576035 0.9704910516738892
-0.13707293570041656 0.026741325855255127 1.773664116859436
-0.14544478058815002 0.021384596824645996 1.767317533493042
-0.15186601877212524 0.011029601097106934 1.7540218830108643
-0.01634042151272297 0.06274718046188354 1.4269390106201172
-0.06632565706968307 0.1141296848654747 1.403302550315857
-0.20654182136058807 -0.08238181471824646 0.042947277426719666
-0.014802813529968262 0.14919404685497284 1.3534404039382935
-0.1265624463558197 -0.0899093970656395 1.4979910850524902
-0.17745985090732574 -0.05851320922374725 0.3955410122871399
-0.05809614434838295 0.06268550455570221 1.4828850030899048
-0.0831160843372345 0.024789392948150635 1.463431715965271
-0.023562870919704437 0.1238555982708931 1.4517555236816406
-0.032399557530879974 0.05044316500425339 0.8541308641433716
-0.186319500207901 0.003632740816101432 0.34664052724838257
0.04341868311166763 0.16539114713668823 1.0018291473388672
-0.03067406639456749 0.03447318077087402 1.029151201248169
-0.11130973696708679 -0.15042859315872192 1.241731882095337
-0.1047029048204422 -0.15223999321460724 1.144677996635437
-0.17494270205497742 -0.02444973774254322 0.32391873002052307
-0.16031530499458313 -0.0389278307557106 0.2616136074066162
-0.19074931740760803 0.010248444974422455 0.25705426931381226
-0.06440848112106323 0.04573468491435051 1.49869704246521
-0.09065617620944977 -0.10198479890823364 0.6861577033996582
-0.11640298366546631 -0.02802008017897606 0.6591652035713196
0.047248028218746185 0.20513594150543213 1.1283751726150513
0.05386365205049515 0.19777604937553406 1.0481106042861938
-0.06020759418606758 -0.18588343262672424 1.169577956199646
-0.1888377070426941 -0.0673721581697464 0.12615033984184265
0.041735511273145676 0.150154709815979 1.0373759269714355
0.030953003093600273 0.12891224026679993 1.0721676349639893
0.0012502521276474 0.04086501896381378 1.4925976991653442
-0.09321819245815277 -0.08610077202320099 1.3745934963226318
0.03683662414550781 0.15152135491371155 1.3371471166610718
0.028138963505625725 0.05260737985372543 1.417708396911621
-0.00881245732307434 0.034053053706884384 1.4920226335525513
0.08794721961021423 0.1388627588748932 1.0481655597686768
0.10575030744075775 0.12700499594211578 1.0043104887008667
-0.031926676630973816 -0.1031675785779953 1.3704710006713867
0.013467427343130112 0.03223554417490959 1.027502417564392
-0.03332197666168213 -0.2012411653995514 1.09956693649292
0.09451067447662354 0.12103530019521713 1.3617346286773682
0.008743444457650185 -0.02093864046037197 1.2847954034805298
0.062454015016555786 0.09631121158599854 1.458665132522583
0.028056954964995384 0.0533478707075119 1.4583237171173096
0.02222718857228756 -0.039057809859514236 1.1987149715423584
0.045682311058044434 0.09230735152959824 0.9183655977249146
-0.014208678156137466 -0.02569441869854927 1.710218071937561
0.12809211015701294 -0.11401915550231934 0.08120526373386383
0.11982052773237228 -0.1251251995563507 0.055218443274497986
0.12217415869235992 -0.05550267547369003 0.09254030883312225
-0.051198821514844894 -0.1352034956216812 1.5864753723144531
0.06849928200244904 -0.062331393361091614 0.7144049406051636
0.08252888172864914 0.037082042545080185 1.4285067319869995
0.01820281520485878 -0.05382755771279335 1.4590861797332764
0.055845312774181366 -0.040389399975538254 1.4097263813018799
0.01742478460073471 -0.011643070727586746 1.3879859447479248
0.11563853919506073 -0.03787125647068024 0.3940095901489258
0.13750606775283813 -0.12547792494297028 0.23814299702644348
0.13373792171478271 -0.03918372839689255 0.1985788643360138
0.14862807095050812 0.12447599321603775 1.0558087825775146
0.1448323130607605 0.1497342884540558 1.0261887311935425
0.1053846925497055 -0.1458146870136261 0.7417993545532227
0.11162976175546646 -0.05215727537870407 0.6586999893188477
-0.01751137152314186 -0.0719042420387268 1.6945362091064453
0.02301807329058647 -0.08436615765094757 1.652902603149414
0.1282501220703125 -0.1302076280117035 0.5513433814048767
0.00762755423784256 -0.019617434591054916 1.7241160869598389
0.0310071911662817 -0.036516979336738586 1.6744322776794434
0.05707811564207077 -0.10222870111465454 1.1338698863983154
0.06269088387489319 -0.09115644544363022 1.1082011461257935
0.052501656115055084 -0.16178461909294128 1.0903537273406982
0.005476493388414383 -0.12024812400341034 1.5856517553329468
0.03148290514945984 -0.054801538586616516 1.4892784357070923
0.020315218716859818 -0.09413060545921326 1.4854927062988281
0.18615610897541046 0.10255388170480728 1.0196459293365479
0.04856814444065094 -0.0992785096168518 1.2840931415557861
0.05689722299575806 -0.16081592440605164 1.2476462125778198
0.060038987547159195 -0.10904690623283386 1.229864478111267
0.17385229468345642 -0.024227220565080643 0.1515708565711975
0.18872307240962982 -0.10716642439365387 0.17489637434482574
0.20312124490737915 -0.09441287070512772 0.1603640466928482
0.04579611495137215 -0.017169363796710968 1.6991338729858398
0.05632977932691574 -0.1082497239112854 1.2867066860198975
0.18908724188804626 -0.040494710206985474 0.43515074253082275
0.16886642575263977 -0.09513699263334274 0.488473117351532
0.1971428394317627 -0.055484168231487274 0.37786218523979187
0.06754716485738754 -0.056910641491413116 1.4028112888336182
0.05455271154642105 -0.054375432431697845 1.399491786956787
0.07415109127759933 -0.04631675034761429 1.3595800399780273
0.11781905591487885 0.062207408249378204 0.925970196723938
0.1286860555410385 -0.11728113889694214 0.866707980632782
0.2019132375717163 -0.042492423206567764 0.25207993388175964
0.21853509545326233 -0.07299743592739105 0.25983160734176636
0.07692988216876984 -0.028513729572296143 1.351836919784546
0.1584104299545288 0.05637781322002411 1.2809194326400757
0.17063726484775543 0.08082635700702667 1.259904146194458
0.06256137043237686 -0.23146241903305054 1.147297739982605
0.14676488935947418 -0.06747915595769882 0.997087836265564
0.14850983023643494 -0.12453577667474747 0.9906383752822876
0.09853194653987885 -0.03638056293129921 1.1813771724700928
0.10360059887170792 -0.15070849657058716 1.0833756923675537
0.12432172149419785 -0.11589115858078003 1.0626220703125
0.10674574971199036 -0.17796537280082703 1.150683045387268
-0.29102954268455505 -0.0570480152964592 1.0577648878097534
-0.3015488088130951 -0.11220182478427887 1.042549729347229
-0.2367713451385498 -0.09576064348220825 1.1338348388671875
-0.24829307198524475 -0.0954757109284401 1.1799557209014893
-0.21503309905529022 -0.06527607887983322 1.1433652639389038
-0.2122015655040741 -0.02702472172677517 1.1615928411483765
-0.18927904963493347 -0.1507655382156372 0.8755381107330322
-0.0618479885160923 0.1643713265657425 1.035782814025879
-0.07471741735935211 0.15407751500606537 1.1319212913513184
-0.17168572545051575 -0.22061455249786377 1.113257646560669
-0.13884523510932922 -0.1585543155670166 0.9523180723190308
-0.2734655737876892 -0.041309863328933716 0.2818904221057892
-0.2517021894454956 -0.09047821164131165 0.29642975330352783
-0.19949544966220856 0.012854675762355328 0.5002908706665039
-0.1488783359527588 -0.1907617449760437 0.8541944026947021
-0.17800205945968628 -0.046772606670856476 0.6422975063323975
-0.16743212938308716 -0.09063252806663513 0.6943217515945435
-0.14910903573036194 -0.03444752097129822 0.7016091346740723
-0.10236326605081558 -0.021193012595176697 1.0896241664886475
-0.1158825233578682 -0.07751186937093735 1.1116125583648682
0.004891938529908657 0.19330854713916779 1.2025039196014404
-0.11215123534202576 -0.019496969878673553 0.8580465316772461
-0.20789414644241333 -0.10233494639396667 0.30846256017684937
-0.11729273200035095 -0.02589462511241436 1.1913785934448242
-0.09486091136932373 -0.0413927398622036 1.121701717376709
-0.19124433398246765 -0.08004928380250931 0.44838255643844604
-0.14083139598369598 0.00650380551815033 1.6932966709136963
-0.14839348196983337 -0.027329880744218826 1.6791235208511353
-0.11365954577922821 -0.06409244984388351 1.6874349117279053
-0.13320311903953552 -0.09747928380966187 1.646092414855957
-0.14655426144599915 -0.09049978107213974 1.5487327575683594
-0.1851736307144165 -0.06016594171524048 0.34072184562683105
-0.08295933157205582 -0.11554421484470367 0.7355393767356873
-0.16371966898441315 -0.06902491301298141 0.26933977007865906
-0.18203462660312653 -0.0978495329618454 0.2755909860134125
-0.19919009506702423 -0.01752297580242157 0.20463816821575165
-0.04519261419773102 0.06383316963911057 0.9600018858909607
-0.09696191549301147 0.014286302030086517 1.7370513677597046
-0.11473096162080765 0.004831474274396896 1.723995566368103
0.06882733851671219 0.11462237685918808 1.188656210899353
-0.009072966873645782 0.1343393623828888 1.1829317808151245
0.043404582887887955 0.10672878473997116 1.2395226955413818
-0.009003318846225739 -0.03854384273290634 1.23480224609375
0.06680332869291306 0.17727762460708618 1.2359671592712402
0.07323504239320755 0.12726184725761414 1.0776872634887695
0.12762360274791718 0.18086574971675873 1.1639257669448853
0.013392243534326553 0.0966007262468338 1.6350677013397217
0.10217753797769547 0.11068309098482132 1.0881104469299316
0.038563478738069534 -0.21779733896255493 0.9037774801254272
0.10322827845811844 -0.08769343048334122 0.25642094016075134
0.1337922215461731 -0.099799245595932 0.19642306864261627
0.06689184904098511 -0.12967440485954285 0.6971407532691956
0.031861744821071625 0.0030498006381094456 1.0644235610961914
0.09332627803087234 -0.04833559691905975 0.5676591396331787
0.0977981686592102 0.07439448684453964 1.3038103580474854
0.03742481395602226 -0.06572376936674118 1.393919587135315
0.043264105916023254 0.0799131691455841 1.5997167825698853
0.03054576739668846 0.01606738567352295 1.564422845840454
0.03608464449644089 0.03188462555408478 1.543313980102539
0.0014796815812587738 -0.014211215078830719 1.7699750661849976
0.03651799261569977 -0.08817964047193527 1.3321897983551025
0.1581442654132843 -0.01853780820965767 0.500167191028595
0.1258002370595932 -0.005930701270699501 0.4956778883934021
0.15396223962306976 -0.014287980273365974 0.3453361988067627
0.17646723985671997 -0.018632028251886368 0.3165940046310425
0.055148474872112274 -0.052858155220746994 1.4803109169006348
0.04255697876214981 -0.06142909824848175 1.489526629447937
0.05542358011007309 -0.05625826120376587 1.4740052223205566
0.13034220039844513 -0.052157387137413025 0.766381025314331
0.15042757987976074 -0.09529036283493042 0.636620283126831
0.11706262826919556 0.022222962230443954 0.9666427373886108
0.09373703598976135 -0.08175846934318542 1.0883725881576538
0.08581018447875977 -0.1351584792137146 1.0764966011047363
0.0966135561466217 -0.158765971660614 1.0264456272125244
0.05783209949731827 -0.019375532865524292 1.6000735759735107
0.06970837712287903 -0.02392600290477276 1.5202380418777466
0.05180630087852478 -0.15368503332138062 1.2289061546325684
0.0939687043428421 0.04409070312976837 1.5108534097671509
0.07936889678239822 0.01648779585957527 1.549430012702942
0.20424491167068481 -0.02444123476743698 0.08685906231403351
0.21780481934547424 -0.06933334469795227 0.07406967878341675
0.1023436114192009 0.022761549800634384 1.4772968292236328
0.11087451875209808 0.03492635488510132 1.447594404220581
0.12116914987564087 0.02372809872031212 1.4158053398132324
0.12426233291625977 0.03541376814246178 1.402068018913269
0.06012218818068504 -0.2329152524471283 1.1659265756607056
0.1747165471315384 -0.1586110144853592 0.8807575702667236
0.0728115513920784 -0.209725022315979 1.1774322986602783
0.06936390697956085 -0.23537352681159973 1.16672682762146
0.2018156498670578 -0.11408435553312302 0.9006488919258118
0.20418356359004974 -0.09115151315927505 0.8813179135322571
0.21315941214561462 -0.05625813454389572 0.8915926218032837
-0.22050878405570984 -0.08835619688034058 1.186377763748169
-0.18101102113723755 -0.08869117498397827 1.2498615980148315
-0.18905654549598694 -0.08879324048757553 1.2344024181365967
-0.18080104887485504 -0.08073095977306366 1.2397499084472656
-0.17524871230125427 -0.08061587810516357 1.2567943334579468
-0.19463051855564117 0.002169019542634487 0.8833039402961731
-0.14985619485378265 -0.04865027219057083 1.274448275566101
-0.1459309160709381 -0.06435726583003998 1.0623151063919067
-0.13006848096847534 0.09476958215236664 1.517062783241272
-0.1485067903995514 -0.08293160796165466 1.1829708814620972
-0.14789672195911407 -0.07749040424823761 1.1292026042938232
-0.09789932519197464 0.09599253535270691 1.4151928424835205
-0.0813281387090683 0.08910603076219559 1.3791873455047607
-0.13528063893318176 -0.1397441029548645 1.0254342555999756
-0.10118208825588226 -0.16496065258979797 0.9873003959655762
-0.1369805932044983 -0.02759597636759281 0.7867956757545471
-0.00547962449491024 0.17161037027835846 1.2673671245574951
-0.07340890169143677 0.11597983539104462 1.6101511716842651
-0.19454678893089294 -0.034150440245866776 0.07033316791057587
-0.2083606868982315 -0.01876395009458065 0.061509869992733
-0.08091104030609131 0.024666015058755875 0.8638395667076111
0.001517467200756073 0.09382322430610657 0.8508695363998413
-0.06639669835567474 -0.021756622940301895 0.8427872657775879
0.031147245317697525 0.07722487300634384 1.3265607357025146
-0.05249981954693794 -0.0804864764213562 0.7613410949707031
-0.08409823477268219 -0.1224430650472641 1.5618783235549927
-0.007001744583249092 0.014149612747132778 0.8696529865264893
-0.0059313587844371796 -0.02743696980178356 0.8484938740730286
0.016677964478731155 -0.11938075721263885 0.8535261750221252
-0.07807832956314087 -0.16254973411560059 0.8537737727165222
-0.008656566962599754 -0.22359733283519745 0.8463103771209717
0.03597533702850342 -0.11137917637825012 0.8329396843910217
-0.009743853472173214 -0.15975119173526764 0.8577026128768921
-0.018354713916778564 0.01779475435614586 1.4607905149459839
0.02852308191359043 -0.038089167326688766 0.8457256555557251
0.033300865441560745 -0.05071631819009781 0.828707754611969
-0.005171734839677811 0.023905232548713684 1.538496971130371
-0.00030975043773651123 0.030903704464435577 1.5145801305770874
0.044645629823207855 -0.12501725554466248 0.8489024639129639
0.1305852234363556 0.05588582158088684 0.8607749938964844
0.10427258908748627 -0.059286147356033325 0.25490158796310425
0.0542011633515358 -0.03585212677717209 0.8184320330619812
0.10311539471149445 0.10578960180282593 1.217215657234192
0.13286042213439941 -0.087426096200943 0.38058769702911377
0.13001540303230286 -0.07036368548870087 0.3193742632865906
0.14621438086032867 -0.0919136330485344 0.3358669877052307
0.14397209882736206 -0.13056141138076782 0.27941134572029114
0.08189645409584045 0.05944342538714409 1.4803836345672607
0.08133028447628021 -0.017518648877739906 0.8527325391769409
0.10811556875705719 -0.03637304902076721 0.833255410194397
0.061237633228302 -0.0819006860256195 1.233283519744873
0.1639038324356079 -0.10164885222911835 0.4295571446418762
0.06479915231466293 0.034557100385427475 1.5845799446105957
0.047804005444049835 -0.03858397901058197 1.2800934314727783
0.17698520421981812 -0.09114381670951843 0.33666303753852844
0.13221418857574463 0.16095805168151855 1.2194828987121582
0.07062815874814987 -0.06541226804256439 1.2067584991455078
0.16317884624004364 -0.029148951172828674 0.20972980558872223
0.1762593388557434 0.14678452908992767 1.141947865486145
0.1609797328710556 -0.018671145662665367 0.24594523012638092
0.18799717724323273 -0.1311512291431427 0.2560451626777649
0.13287031650543213 0.05262139067053795 1.3260599374771118
0.06374184787273407 -0.039236973971128464 1.4370595216751099
0.07094545662403107 -0.03904896602034569 1.4059797525405884
0.06189786270260811 -0.037075020372867584 1.4377574920654297
0.08564870059490204 -0.03765786439180374 1.3859057426452637
0.06787164509296417 -0.17608433961868286 1.2161617279052734
0.05358432978391647 -0.18640291690826416 1.2103930711746216
0.16357910633087158 0.06974685192108154 1.2397186756134033
0.19331873953342438 0.09906870126724243 1.1840002536773682
0.18850266933441162 0.09458298981189728 1.1509602069854736
0.07429219037294388 -0.053980402648448944 1.2369579076766968
0.06476537138223648 -0.08409026265144348 1.2525237798690796
0.1582813709974289 -0.18368439376354218 0.8902645111083984
0.07236606627702713 -0.0933120995759964 1.264248251914978
0.06589511781930923 -0.12258763611316681 1.164536952972412
0.08943617343902588 -0.06779547035694122 1.1410226821899414
0.0748731791973114 -0.10612306743860245 1.1315901279449463
0.11910699307918549 -0.15435482561588287 1.1817870140075684
0.1455863118171692 -0.1527509093284607 1.0530344247817993
0.11505155265331268 -0.1891099214553833 1.107888102531433
-0.17430992424488068 -0.2059842348098755 1.1507458686828613
-0.1675005704164505 -0.14084406197071075 1.1973567008972168
-0.1746990829706192 -0.1267949640750885 1.2173776626586914
-0.16360631585121155 -0.19378064572811127 1.1530394554138184
-0.11509982496500015 0.10171611607074738 1.444422721862793
-0.11967688798904419 0.08996786922216415 1.4283349514007568
-0.11495915055274963 0.10553721338510513 1.386289119720459
-0.16322071850299835 0.009146451950073242 1.6572132110595703
-0.16758273541927338 -0.023659389466047287 1.5736570358276367
-0.24293702840805054 -0.05738149955868721 0.3390467166900635
-0.13234029710292816 -0.06798543781042099 0.8545228242874146
-0.13529618084430695 -0.0923747718334198 0.835791826248169
-0.04739443212747574 0.17555496096611023 1.015512228012085
-0.11783792078495026 -0.11718334257602692 1.2357914447784424
-0.1189243495464325 -0.029977936297655106 0.8318228721618652
-0.11882603168487549 -0.010726679116487503 1.7026572227478027
-0.10991367697715759 -0.12089704722166061 1.1179723739624023
-0.07884612679481506 -0.18190547823905945 1.113926649093628
-0.003710435703396797 0.14971527457237244 1.115867018699646
0.06455060094594955 0.12954220175743103 1.1161596775054932
-0.07234616577625275 -0.02848231792449951 1.1369657516479492
-0.05466132611036301 -0.11486062407493591 0.8470901250839233
-0.06513500213623047 -0.1880786418914795 1.0473201274871826
-0.05155710130929947 0.014619274064898491 1.0490541458129883
-0.0742025077342987 -0.11096888035535812 1.6588603258132935
0.03572200611233711 -0.10234026610851288 0.7684377431869507
-0.01279984787106514 0.09758947044610977 1.2952241897583008
0.11706603318452835 -0.08481866866350174 0.05053240805864334
0.16721443831920624 0.16210129857063293 1.0838696956634521
0.12472361326217651 0.11932667344808578 1.137385606765747
0.12229157239198685 0.18867918848991394 1.0927814245224
0.09933121502399445 0.08510790765285492 0.8616908192634583
0.1754285991191864 0.002265915274620056 0.0748743936419487
0.12293310463428497 -0.03869400545954704 0.8600059747695923
0.16660425066947937 -0.09271146357059479 0.38830894231796265
0.06662081182003021 -0.06069481745362282 1.3749208450317383
0.058898232877254486 -0.08519092202186584 1.3016109466552734
0.19825878739356995 -0.0020590638741850853 0.8822898268699646
0.19454339146614075 -0.05306864157319069 0.9468101263046265
0.13296616077423096 -0.17855168879032135 1.0719635486602783
-0.25738152861595154 -0.10928638279438019 1.1500290632247925
-0.19302314519882202 -0.08228171616792679 0.9363217353820801
-0.21083390712738037 -0.0724300891160965 0.8853546380996704
-0.11789150536060333 0.09138786792755127 1.3811850547790527
-0.0883277952671051 0.11939679086208344 1.2519514560699463
-0.14593522250652313 0.021924953907728195 1.4983599185943604
-0.139332577586174 -0.0556049607694149 1.0303679704666138
-0.14625519514083862 -0.08540676534175873 1.067933201789856
-0.14487949013710022 0.024759959429502487 1.4987776279449463
-0.14481158554553986 0.011663272976875305 1.4857518672943115
-0.14657005667686462 0.018468081951141357 1.4942938089370728
-0.14737088978290558 0.015179887413978577 1.4960823059082031
-0.15348346531391144 0.004489045590162277 1.4859368801116943
-0.2365466058254242 -0.11723707616329193 0.18877296149730682
-0.16880561411380768 -0.05864892154932022 1.6218702793121338
-0.04594895988702774 -0.01984577253460884 1.1910165548324585
-0.20039066672325134 -0.13336068391799927 0.06398574262857437
-0.06442228704690933 -0.024336351081728935 1.2315620183944702
-0.01917920634150505 -0.03446032851934433 1.1490589380264282
-0.03491858020424843 0.09218801558017731 0.9227246046066284
-0.06330672651529312 -0.02626151219010353 1.718683123588562
-0.07433398813009262 -0.06622615456581116 0.7008931636810303
0.01214855257421732 0.09803826361894608 1.2648943662643433
-0.005304582417011261 -0.19255200028419495 0.9983435869216919
-0.06134795397520065 -0.1806742399930954 1.2137019634246826
0.0671079158782959 0.11721006780862808 1.1564033031463623
0.12356356531381607 -0.06330946087837219 0.18508613109588623
0.050817184150218964 -0.18055489659309387 0.9887837171554565
0.10298299044370651 -0.17484357953071594 0.9770492911338806
0.055053699761629105 0.033309146761894226 1.5110671520233154
0.03616426885128021 -0.16937200725078583 1.1634429693222046
0.018962332978844643 -0.044350311160087585 1.149540662765503
0.0781286358833313 -0.03653638809919357 1.0821139812469482
0.07819132506847382 0.055731385946273804 0.9578809142112732
0.1655004918575287 -0.11351130902767181 0.0214920062571764
0.14174608886241913 -0.1075051873922348 0.019917894154787064
0.1941443234682083 -0.08901353180408478 0.029992718249559402
0.20548003911972046 -0.10828894376754761 0.24086366593837738
0.06159983202815056 -0.03808608651161194 1.4343218803405762
0.061741407960653305 -0.03869900852441788 1.436677098274231
0.050122782588005066 -0.05596299469470978 1.3029546737670898
0.05778398737311363 -0.08057146519422531 1.2887024879455566
0.20940153300762177 0.11328472197055817 1.0895158052444458
0.20741108059883118 0.09328439086675644 1.0459650754928589
0.2163313776254654 0.09562414884567261 1.042394995689392
0.1572805941104889 -0.1466870754957199 1.0565776824951172
0.12994860112667084 -0.20121273398399353 1.0538780689239502
0.13436178863048553 -0.22702381014823914 1.048439383506775
-0.2532162666320801 -0.07444310188293457 1.0786851644515991
-0.17976748943328857 -0.1667257398366928 1.1880680322647095
-0.21111468970775604 -0.0619250163435936 0.36878547072410583
-0.013513505458831787 0.15247765183448792 0.99259352684021
-0.11617998778820038 -0.14086906611919403 1.0659549236297607
-0.03623352199792862 -0.04392097517848015 0.8409351706504822
-0.06151049584150314 -0.03093790076673031 0.8067832589149475
-0.05724024027585983 -0.08372630178928375 0.8083136081695557
-0.011144835501909256 0.0014747502282261848 1.0947304964065552
0.022815406322479248 -0.20697088539600372 0.8361697196960449
0.09690806269645691 0.013037236407399178 0.8686245679855347
0.14026698470115662 0.11488339304924011 1.1065951585769653
0.06895100325345993 -0.004407621920108795 1.5240440368652344
0.08197864145040512 0.015272393822669983 1.5050294399261475
0.182024747133255 -0.1215910091996193 0.9463681578636169
-0.18386536836624146 -0.18041765689849854 1.1584484577178955
-0.13913294672966003 0.06572812795639038 1.5321173667907715
0.011816083453595638 0.1598290354013443 1.0375840663909912
-0.11847827583551407 0.087867870926857 1.5638705492019653
-0.09893346577882767 0.05286553129553795 1.551188349723816
-0.07029393315315247 0.040775127708911896 1.5313029289245605
0.013388412073254585 -0.19687891006469727 1.0569210052490234
0.022496171295642853 -0.14105206727981567 1.2485874891281128
0.16410383582115173 -0.1135156899690628 0.15899084508419037
0.061056025326251984 -0.13494449853897095 1.2081172466278076
0.07619882375001907 -0.12727132439613342 1.1564769744873047
0.10791802406311035 0.04299245402216911 1.4135873317718506
0.09802611917257309 0.07257916778326035 1.4273109436035156
0.08302690088748932 -0.0870383009314537 1.1625802516937256
0.12756311893463135 -0.07588309049606323 0.8438212871551514
0.040396690368652344 -0.16874109208583832 1.2361515760421753
0.13616853952407837 0.06677978485822678 1.3450449705123901
-0.08842456340789795 0.11404029279947281 1.3319424390792847
-0.20283685624599457 0.01328473724424839 0.3756691813468933
0.05016624927520752 -0.10280126333236694 0.7274722456932068
-0.024754498153924942 -0.12079791724681854 1.6412320137023926
-0.06209947168827057 0.17636293172836304 1.0782372951507568
-0.16909067332744598 -0.08156400918960571 1.2595956325531006
-0.16032113134860992 -0.026969313621520996 0.40771228075027466
0.023073362186551094 0.11635725200176239 1.456576943397522
0.12429392337799072 -0.11544205248355865 0.028875648975372314
0.0586504191160202 -0.05675371363759041 1.472029685974121
0.05689067766070366 -0.055842556059360504 1.4709875583648682
0.05874137580394745 -0.044934097677469254 1.3938435316085815
0.19845983386039734 -0.09350573271512985 0.21088901162147522
0.19554652273654938 -0.05870278552174568 0.19645603001117706
0.07539180666208267 -0.1182556301355362 1.2123323678970337
-0.17101430892944336 -0.15516868233680725 0.9318399429321289
-0.09899669140577316 0.10194723308086395 1.358410120010376
-0.0996004268527031 0.09883763641119003 1.3593393564224243
-0.10423742234706879 0.09857608377933502 1.3595170974731445
-0.1804862916469574 -0.05816507712006569 0.20708611607551575
-0.03478409722447395 -0.0977196991443634 0.8427920341491699
0.13437658548355103 -0.09218466281890869 0.14827387034893036
0.08125259727239609 -0.14802972972393036 1.1756603717803955
0.03823164477944374 -0.08209438621997833 1.60221529006958
0.1444099247455597 -0.09725341200828552 0.7950665950775146
0.12491331249475479 0.03352903574705124 1.3845261335372925
0.13054603338241577 0.04979080706834793 1.3545775413513184
0.12449828535318375 -0.03303185850381851 0.05852210521697998
-0.08313959091901779 -0.4597267210483551 1.1256014108657837
-0.07308259606361389 -0.43634432554244995 1.0954010486602783
-0.07747188955545425 -0.4449934959411621 1.100714921951294
-0.0830053836107254 -0.4353262484073639 1.1067200899124146
-0.0876731276512146 -0.45718711614608765 1.1130563020706177
-0.0781286358833313 -0.45142433047294617 1.1250442266464233
0.007308094296604395 -0.34628355503082275 1.0807573795318604
-0.004337462596595287 -0.34707939624786377 1.078094244003296
-0.007033942267298698 -0.36683422327041626 1.0876681804656982
-0.015770956873893738 -0.37254801392555237 1.0917149782180786
0.07849443703889847 -0.23855000734329224 0.9939197301864624
0.07292012870311737 -0.24446731805801392 1.0132520198822021
0.07506252825260162 -0.24979862570762634 0.9886478185653687
-0.018212513998150826 -0.36171045899391174 1.0463933944702148
-0.023647578433156013 -0.37324628233909607 1.0625922679901123
-0.018048444762825966 -0.3902479410171509 1.1155723333358765
-0.015725567936897278 -0.38215506076812744 1.1035616397857666
0.051718778908252716 -0.2744053602218628 0.9771026968955994
0.04567068815231323 -0.2794710397720337 0.9991438388824463
0.049313053488731384 -0.3022471070289612 1.0686047077178955
0.04787163808941841 -0.29555267095565796 1.0612802505493164
-0.05791085958480835 -0.4405317008495331 1.1334283351898193
-0.06214478239417076 -0.4300883114337921 1.088094711303711
0.07661029696464539 -0.25242969393730164 0.978546679019928
0.06887084245681763 -0.2561042904853821 0.9744811058044434
0.20770606398582458 -0.12375932931900024 1.0348384380340576
0.20124399662017822 -0.1313808709383011 1.034540057182312
0.2054120898246765 -0.12429532408714294 1.0143064260482788
-0.038383591920137405 -0.4093630611896515 1.1138629913330078
-0.0501934289932251 -0.4253798723220825 1.1198819875717163
0.07475709915161133 -0.254726767539978 0.9727315902709961
0.07255253195762634 -0.2564532160758972 0.9633790254592896
-0.10089265555143356 -0.47996169328689575 1.0770361423492432
-0.10316058248281479 -0.48889783024787903 1.0900644063949585
0.22085487842559814 -0.11454631388187408 1.0272679328918457
0.21512460708618164 -0.1213737279176712 1.0403591394424438
0.21561069786548615 -0.11485287547111511 1.0202860832214355
0.20900821685791016 -0.12223231792449951 1.0122588872909546
-0.11260136216878891 -0.5093092322349548 1.1450679302215576
-0.11943134665489197 -0.5245032906532288 1.1591628789901733
-0.12256021797657013 -0.5238994359970093 1.1411983966827393
0.014184275642037392 -0.3262540400028229 1.01580810546875
0.009282194077968597 -0.34029701352119446 1.0191015005111694
-0.006928053684532642 -0.35445278882980347 1.0129152536392212
0.0017943475395441055 -0.3527023196220398 1.0130877494812012
0.21417945623397827 -0.1295952945947647 1.044605016708374
0.21934843063354492 -0.11739575862884521 1.0147004127502441
-0.023801924660801888 -0.4068848788738251 1.1289151906967163
-0.01707937754690647 -0.40810519456863403 1.131231665611267
-0.03440668433904648 -0.41603806614875793 1.1321314573287964
