-0.7107976675033569 0.1123647391796112 1.376951813697815
-0.804975152015686 0.1828647255897522 0.9355446100234985
-0.7987576127052307 0.17459958791732788 0.9078432321548462
-0.8432102203369141 0.22526206076145172 0.772213876247406
-0.8497926592826843 0.22708183526992798 0.7162520289421082
-0.7508733868598938 0.21442583203315735 1.0453457832336426
-0.6904972791671753 0.09229625761508942 1.4790780544281006
-0.7425916790962219 0.1988157480955124 1.084736704826355
-0.7410542964935303 0.22783614695072174 1.0228261947631836
-0.7444718480110168 0.15135835111141205 1.1063812971115112
-0.7537941932678223 0.15146419405937195 1.0871174335479736
-0.707526445388794 0.20080256462097168 1.0835988521575928
-0.7099717259407043 0.13658852875232697 1.1836349964141846
-0.7455803155899048 0.22130073606967926 0.968047559261322
-0.7504298686981201 0.23921452462673187 0.9113752841949463
-0.6912387013435364 0.15978649258613586 1.2612107992172241
-0.6663461923599243 0.16467204689979553 1.1879634857177734
-0.6890525221824646 0.1462753713130951 1.1548762321472168
-0.6119985580444336 0.057420410215854645 1.518496036529541
-0.6643239259719849 0.09198252111673355 1.324256420135498
-0.6216412782669067 0.11926189064979553 1.2098928689956665
-0.5674527883529663 0.02521318942308426 1.5696454048156738
-0.5368561148643494 0.08847951143980026 1.4601068496704102
-0.5914914011955261 0.08391952514648438 1.3459510803222656
-0.5842812061309814 0.16712436079978943 1.1380082368850708
-0.600721538066864 0.1334909349679947 1.1510512828826904
-0.5675947666168213 0.12005312740802765 1.3487120866775513
-0.5554092526435852 0.1321602463722229 1.2718732357025146
-0.42450785636901855 0.06067381054162979 1.5058163404464722
-0.4910382330417633 0.0838455930352211 1.3169485330581665
-0.4699122905731201 0.09944353997707367 1.2193324565887451
-0.4467187225818634 0.1279977262020111 1.2183917760849
-0.4718431830406189 0.14463841915130615 1.1545085906982422
-0.391460120677948 0.08607035875320435 1.2491148710250854
-0.4306371808052063 0.1500905603170395 1.1567374467849731
-0.4249637722969055 0.08331146836280823 1.4139316082000732
-0.3792240023612976 0.05921115726232529 1.3665645122528076
-0.36732539534568787 0.1380070149898529 1.1393686532974243
-0.3295915126800537 0.1282041072845459 1.1632152795791626
-0.22771665453910828 0.039192527532577515 1.4753954410552979
-0.2745780944824219 0.058286044746637344 1.2917165756225586
0.3367089033126831 0.04983791708946228 1.172004222869873
0.23853430151939392 0.009263847023248672 1.4669090509414673
0.39608034491539 0.07997778803110123 1.2245681285858154
0.40586861968040466 0.049294330179691315 1.210787296295166
0.39563068747520447 0.09505586326122284 1.1551878452301025
0.4439241886138916 0.047588590532541275 1.3397836685180664
0.4784291088581085 0.02910429611802101 1.2585794925689697
0.5347269773483276 0.10487034171819687 1.1222552061080933
0.4898383617401123 0.01919037476181984 1.511781930923462
0.6001465320587158 0.03691103309392929 1.2418341636657715
0.6123158931732178 0.02919815666973591 1.4707509279251099
0.8218823075294495 0.1231779009103775 0.9887394905090332
0.8393233418464661 0.13540329039096832 0.9804891347885132
0.8749697804450989 0.16189073026180267 0.8772130608558655
0.8960144519805908 0.1805376410484314 0.8050495386123657
0.8989273905754089 0.15820500254631042 0.8155499696731567
0.7477545738220215 0.08439583331346512 1.2485731840133667
0.8806493282318115 0.1801338791847229 0.8837234377861023
0.9081348776817322 0.19627676904201508 0.8171520829200745
0.8397478461265564 0.055115967988967896 1.0448839664459229
0.8364173173904419 0.02880578488111496 1.0860488414764404
0.8363358974456787 0.022845864295959473 1.0559101104736328
0.8688585758209229 0.06379197537899017 0.9995757341384888
0.905225396156311 0.181564599275589 0.9161102771759033
0.9377349615097046 0.1931607872247696 0.8381315469741821
0.8627380132675171 0.11740176379680634 1.0676754713058472
0.8586416244506836 0.0637749582529068 1.041847825050354
0.9099253416061401 0.07021564245223999 0.9979368448257446
0.8678570985794067 0.040708694607019424 1.0504965782165527
0.9140716791152954 0.03552636504173279 0.9886805415153503
0.839991569519043 0.05474226921796799 1.113120436668396
0.8985105156898499 0.07531311362981796 1.0743308067321777
0.9751715064048767 0.1186276227235794 0.8617580533027649
0.9925880432128906 0.09825260937213898 0.7973781824111938
0.9858823418617249 0.175625279545784 0.819259762763977
0.8529093861579895 0.1025005578994751 1.1465023756027222
0.9265862703323364 0.14107316732406616 0.9506468772888184
0.966950535774231 0.06862638145685196 0.9166111946105957
0.9786489009857178 0.09165274351835251 0.9123159646987915
1.0078098773956299 0.13784609735012054 0.8457791805267334
0.9297569990158081 0.12185748666524887 1.0970592498779297
0.953876793384552 0.13465751707553864 1.0790177583694458
1.0136077404022217 0.14274026453495026 0.9168636202812195
1.007264256477356 0.13499915599822998 0.9320294260978699
0.8269243240356445 0.08921743184328079 1.2413742542266846
0.9167807102203369 0.13910946249961853 1.222287893295288
0.8940523266792297 0.11307226121425629 1.2104841470718384
0.8311324715614319 0.09359325468540192 1.3855431079864502
0.8413156270980835 0.09443879872560501 1.3461241722106934
0.8377184867858887 0.10051204264163971 1.3372114896774292
0.8528584241867065 0.08420750498771667 1.321935772895813
0.8923673629760742 0.11749482899904251 1.2736412286758423
0.8852343559265137 0.10030737519264221 1.2886003255844116
-0.8831515908241272 0.23825572431087494 1.1011091470718384
-0.8810555338859558 0.21382281184196472 1.0995662212371826
-0.8855119943618774 0.20386216044425964 1.0657131671905518
-0.8595589399337769 0.25676846504211426 0.7578110694885254
-0.8845548033714294 0.22716428339481354 0.7123749852180481
-0.80211341381073 0.18448594212532043 0.9123116135597229
-0.8398507833480835 0.1906636506319046 0.8746824264526367
-0.8238251805305481 0.1423942595720291 0.8891679644584656
-0.872459888458252 0.1897890269756317 0.8112810850143433
-0.8329371213912964 0.2154831886291504 0.8124786615371704
-0.8426002264022827 0.18991273641586304 0.7679470181465149
-0.7694222927093506 0.14872953295707703 1.0359957218170166
-0.7739479541778564 0.14140984416007996 0.9845455288887024
-0.7904632091522217 0.16260050237178802 0.9992653131484985
-0.8250028491020203 0.1692005693912506 0.8308305144309998
-0.8174819350242615 0.19928672909736633 0.839785099029541
-0.7978975772857666 0.1460581123828888 0.9148976802825928
-0.8076907396316528 0.1848224550485611 0.8841784000396729
-0.7127954363822937 0.18009884655475616 1.1783515214920044
-0.7106456160545349 0.22272226214408875 1.0225157737731934
-0.6622583866119385 0.1958926022052765 1.0253444910049438
-0.6547015309333801 0.21628521382808685 1.0337541103363037
-0.6388394832611084 0.12955939769744873 1.1614878177642822
-0.6112890243530273 0.17152482271194458 1.0957286357879639
-0.6351083517074585 0.20827479660511017 1.0587890148162842
-0.6397147178649902 0.19538728892803192 1.0431718826293945
-0.4435049593448639 0.05992180109024048 1.3756781816482544
-0.5307978391647339 0.1739354282617569 1.1111201047897339
-0.47985824942588806 0.12288043648004532 1.1339277029037476
-0.48391616344451904 0.17120128870010376 1.1011052131652832
-0.3757385015487671 0.1284051090478897 1.127347469329834
-0.4140966832637787 0.15310952067375183 1.1065309047698975
-0.2961300313472748 0.10766342282295227 1.1892647743225098
0.6574102640151978 0.09864106774330139 1.1449284553527832
0.5776413679122925 -0.02214645966887474 1.6377089023590088
0.7571189999580383 0.10886014997959137 1.1386457681655884
0.6957342028617859 0.12246854603290558 1.1048601865768433
0.7394752502441406 0.09087637811899185 1.107590913772583
0.741998553276062 0.11422099173069 1.1003539562225342
0.6751055717468262 0.06798464804887772 1.2901623249053955
0.7699152231216431 0.0566166415810585 1.137179970741272
0.8066740036010742 0.0632409006357193 1.0888420343399048
0.8028482794761658 0.02977553755044937 1.1031508445739746
0.8119176626205444 0.036514364182949066 1.0778459310531616
0.8295875787734985 0.06942044198513031 1.0327069759368896
0.9062665700912476 0.12849867343902588 0.8549601435661316
0.9307803511619568 0.14715895056724548 0.8139777183532715
0.9518519639968872 0.1640939712524414 0.8117906451225281
0.8076942563056946 0.09273961186408997 1.130137324333191
0.8298599720001221 0.10552119463682175 1.0950814485549927
0.8546362519264221 0.0462154746055603 1.0710433721542358
0.8567955493927002 0.056963711977005005 1.030127763748169
0.8751778602600098 0.024502919986844063 0.9991301894187927
0.7088910937309265 0.021154122427105904 1.4088129997253418
0.8945959806442261 0.09907406568527222 1.0848689079284668
0.9337448477745056 0.1191970556974411 1.0487571954727173
0.8603488802909851 0.06700663268566132 1.2021446228027344
1.0376991033554077 0.1178409606218338 0.9005947113037109
1.0151721239089966 0.16691987216472626 0.8655679225921631
0.9370886087417603 0.09438494592905045 1.075157642364502
0.9579638838768005 0.09645483642816544 1.030090093612671
0.9640867114067078 0.1187872365117073 1.2255704402923584
0.9511850476264954 0.08428061008453369 1.1754010915756226
0.9599303603172302 0.11256305128335953 1.1740212440490723
1.0217031240463257 0.11367376893758774 1.0551953315734863
0.9988630414009094 0.13209423422813416 1.0593143701553345
-0.823739230632782 0.19604960083961487 1.235318660736084
-0.9156176447868347 0.29102054238319397 0.734178900718689
-0.8159716725349426 0.1749597191810608 1.0006580352783203
-0.8159148097038269 0.16575798392295837 0.9658685922622681
-0.812239944934845 0.18420396745204926 1.0521714687347412
-0.6525357961654663 0.08265528827905655 1.4569857120513916
-0.7744339108467102 0.20970234274864197 1.079843521118164
-0.7727041244506836 0.2074097990989685 1.0415990352630615
-0.8381081819534302 0.2719945013523102 0.7240296006202698
-0.8137239813804626 0.3048046827316284 0.731141209602356
-0.7598739266395569 0.16739106178283691 0.9857410192489624
-0.779198169708252 0.1701708734035492 0.9428476691246033
-0.7609849572181702 0.15176868438720703 0.9740983843803406
-0.6485776305198669 0.07958212494850159 1.4054958820343018
-0.6633729934692383 0.141310453414917 1.295560359954834
-0.3648170530796051 0.13143786787986755 1.211376667022705
0.2012604922056198 0.04296225309371948 1.2662984132766724
0.193168044090271 0.018616581335663795 1.2714585065841675
0.3439943790435791 0.03570075333118439 1.2125900983810425
0.338706910610199 0.0773729532957077 1.1450996398925781
0.4266612231731415 0.05666666105389595 1.270320177078247
0.5286051034927368 0.0811736136674881 1.1655101776123047
0.5319690704345703 0.06974095851182938 1.1473441123962402
0.6227097511291504 0.032371506094932556 1.3206636905670166
0.6472086906433105 0.0011341534554958344 1.404837965965271
0.7027696371078491 0.05214541405439377 1.2373700141906738
0.8634831309318542 0.03676110506057739 0.9984972476959229
0.8898978233337402 0.07767367362976074 0.9610683917999268
0.9159640669822693 0.050328388810157776 0.9227941632270813
0.9254848957061768 0.09554034471511841 0.8769700527191162
0.8163853287696838 0.060734838247299194 1.1914072036743164
1.0036181211471558 0.08567984402179718 0.8230517506599426
-0.8669261932373047 0.20563602447509766 1.0821475982666016
-0.7685007452964783 0.24097079038619995 0.8565000295639038
-0.7817782163619995 0.256987988948822 0.8022245168685913
-0.6178925037384033 0.055115193128585815 1.5547674894332886
-0.5242195129394531 0.168612539768219 1.0950292348861694
-0.5197718739509583 0.1763688325881958 1.0645567178726196
-0.48399996757507324 0.15580938756465912 1.0875805616378784
-0.3846595287322998 0.14877109229564667 1.111512541770935
-0.20548483729362488 0.06903570890426636 1.2676587104797363
-0.20841272175312042 0.0491376593708992 1.2690412998199463
0.527812123298645 -0.0006108172237873077 1.4351069927215576
0.5578826665878296 -0.011663476005196571 1.4979790449142456
0.7974690794944763 0.09516893327236176 1.1565191745758057
0.7978382706642151 0.11994198709726334 1.0840212106704712
0.7444157004356384 0.04052058979868889 1.2452118396759033
0.8531906604766846 0.08606560528278351 0.9780715703964233
0.820624589920044 0.05990786850452423 1.238847017288208
0.7843934893608093 0.05446591228246689 1.316648006439209
0.9110081791877747 0.0894797146320343 1.1887261867523193
0.9277818202972412 0.09075585007667542 1.1269948482513428
0.9972466826438904 0.10486873984336853 0.9801013469696045
0.9792848229408264 0.10005549341440201 0.8775903582572937
1.0039405822753906 0.12698858976364136 0.9740521311759949
-0.8947815895080566 0.2553582787513733 0.742763340473175
-0.8500829935073853 0.2943173348903656 0.7289600968360901
-0.8140827417373657 0.1778102070093155 0.9090576767921448
-0.8480174541473389 0.2286320924758911 0.7769244909286499
-0.8133009672164917 0.24059930443763733 0.7528412342071533
-0.7163073420524597 0.18677003681659698 1.034328818321228
-0.3830429017543793 0.09720396995544434 1.2181249856948853
-0.40257975459098816 0.11741755902767181 1.1616861820220947
-0.42238649725914 0.14055302739143372 1.139029860496521
-0.3317624032497406 0.09045077115297318 1.204450249671936
-0.3417419195175171 0.1083836704492569 1.1337682008743286
-0.34704455733299255 0.12572169303894043 1.1228876113891602
0.3367499113082886 0.08972716331481934 1.1564527750015259
0.7339128851890564 0.056157998740673065 1.1678117513656616
0.7854815721511841 0.041769564151763916 1.1807334423065186
0.8124073147773743 0.045359596610069275 1.1397417783737183
0.9604354500770569 0.08358320593833923 1.0102237462997437
-0.9098290205001831 0.26101234555244446 0.8303999304771423
-0.921387791633606 0.2457825243473053 0.7936767339706421
-0.9196361303329468 0.2610684335231781 0.7947336435317993
-0.8097498416900635 0.23263008892536163 0.9847148060798645
-0.7803465127944946 0.19000253081321716 0.916236400604248
-0.7609683871269226 0.16852626204490662 0.9537792205810547
-0.2674027681350708 0.0785447359085083 1.224278211593628
-0.1484435498714447 0.0212024487555027 1.3628432750701904
-0.13700364530086517 0.03489398956298828 1.3539297580718994
0.19702616333961487 0.005931274965405464 1.28316068649292
0.30662021040916443 -0.06411019712686539 1.6791810989379883
0.49632543325424194 -0.01027190312743187 1.6483229398727417
0.5321475267410278 -0.02942453697323799 1.6684272289276123
0.5926393270492554 -0.007682349532842636 1.6098120212554932
0.7852119207382202 0.07288335263729095 1.399118185043335
0.8058387041091919 0.0681508481502533 1.4388223886489868
0.8051585555076599 0.10530595481395721 1.3806214332580566
0.8269685506820679 0.08622920513153076 1.3669984340667725
0.8360092639923096 0.10510458052158356 1.3844960927963257
-0.8550366163253784 0.21218669414520264 1.1841063499450684
-0.8593508005142212 0.23217642307281494 1.1638634204864502
-0.7577769160270691 0.15841922163963318 1.3752470016479492
-0.7410725355148315 0.16090279817581177 1.362379550933838
-0.8784250020980835 0.3077104091644287 0.776138961315155
-0.889095664024353 0.31236812472343445 0.732356071472168
-0.8597763180732727 0.21166837215423584 0.8152444958686829
-0.8153319358825684 0.2437165379524231 0.9358773231506348
-0.7478786706924438 0.20246098935604095 1.122339129447937
-0.586837887763977 0.04206026718020439 1.5986993312835693
0.33537769317626953 0.06912174820899963 1.2154970169067383
0.37170150876045227 0.022886719554662704 1.4494502544403076
0.5685187578201294 0.07527267187833786 1.1868109703063965
0.5214569568634033 0.06274090707302094 1.307263970375061
0.6500266790390015 0.08894908428192139 1.141708254814148
0.691175103187561 0.0984668880701065 1.1050735712051392
0.6768015027046204 0.0512881837785244 1.1769092082977295
0.8508814573287964 0.12534672021865845 0.9436994194984436
0.8712988495826721 0.11320175230503082 0.9352965950965881
0.8999401926994324 0.05802606791257858 1.0037213563919067
0.8837193250656128 0.10469620674848557 1.182265281677246
0.9622180461883545 0.15097615122795105 0.9869692921638489
-0.9076167941093445 0.2667652666568756 0.7611401081085205
-0.8906517624855042 0.291551411151886 0.7139092683792114
-0.5095860958099365 0.18387120962142944 1.0666754245758057
-0.3933480381965637 0.15584981441497803 1.1343448162078857
-0.3127897381782532 0.10395795106887817 1.1746268272399902
0.9249814748764038 0.13209839165210724 1.0062202215194702
1.0147842168807983 0.16742804646492004 0.7993888854980469
1.027932047843933 0.16104108095169067 0.8179695010185242
-0.8104197382926941 0.16547653079032898 0.9433085322380066
-0.7812185287475586 0.2221437394618988 0.8755146861076355
-0.7978386878967285 0.2188148945569992 0.8324096202850342
0.6434082388877869 0.008756561204791069 1.5321085453033447
1.0218778848648071 0.18655483424663544 0.8122446537017822
0.978539764881134 0.10720501095056534 1.1047825813293457
-0.34418410062789917 0.10204003006219864 1.2925543785095215
0.9198085069656372 0.10455571860074997 1.1835240125656128
-0.7528122663497925 0.21347999572753906 0.9384191036224365
0.9578606486320496 0.08550618588924408 0.8284397125244141
0.9187511801719666 0.09510603547096252 1.1674950122833252
-0.8289833068847656 0.16025236248970032 0.9070230722427368
-0.36662083864212036 -0.05289556458592415 0.8502229452133179
-0.37320131063461304 -0.048417914658784866 0.863672137260437
-0.35924413800239563 -0.08243817836046219 0.860469400882721
-0.3641994893550873 -0.08182205259799957 0.8700500130653381
-0.3386395275592804 -0.05042038857936859 0.9368188977241516
-0.34340032935142517 -0.05748290568590164 0.912704348564148
-0.32970795035362244 -0.026767300441861153 0.8868802785873413
-0.32098162174224854 -0.014803427271544933 0.9291271567344666
-0.33450353145599365 -0.07928831875324249 0.9201074838638306
-0.3433896601200104 -0.11319363117218018 0.9029256701469421
-0.3145154118537903 -0.03248382359743118 1.0207409858703613
-0.31755462288856506 -0.11204439401626587 0.9102358222007751
-0.32889214158058167 -0.06538969278335571 0.9093982577323914
-0.31831037998199463 -0.10508830845355988 0.9567467570304871
-0.3119428753852844 -0.0723174512386322 0.9488943815231323
-0.2933070659637451 -0.005013272166252136 0.995245099067688
-0.30056944489479065 -0.05881987512111664 0.9542677402496338
-0.31024178862571716 -0.08403609693050385 0.976976752281189
-0.31656286120414734 -0.06653997302055359 1.0114599466323853
-0.33031973242759705 -0.01968669891357422 1.0529077053070068
-0.3303632438182831 -0.08342496305704117 1.0391387939453125
-0.2803173065185547 0.020665831863880157 1.1017597913742065
-0.2866978645324707 0.03429806977510452 1.0506844520568848
-0.3239530622959137 -0.038643352687358856 1.089404582977295
-0.24334560334682465 0.03300822153687477 1.051005482673645
-0.2680104672908783 -0.05002255737781525 1.1681995391845703
-0.29459863901138306 -0.10501351952552795 1.1032538414001465
-0.24424508213996887 0.03808708116412163 1.1000205278396606
-0.20480728149414062 0.020741041749715805 1.126051425933838
-0.21887452900409698 0.005967976525425911 1.1865324974060059
-0.18862207233905792 0.004273902624845505 1.1984527111053467
-0.19698388874530792 -0.09172753989696503 1.2659274339675903
-0.24689991772174835 -0.0983898788690567 1.1737957000732422
-0.1883370727300644 -0.008974431082606316 1.249337077140808
-0.22024761140346527 -0.04250119999051094 1.2417662143707275
-0.1810636967420578 -0.0227525494992733 1.2926831245422363
-0.17134927213191986 -0.03843269869685173 1.3337976932525635
-0.16189180314540863 -0.09205688536167145 1.3350356817245483
-0.1842702180147171 -0.12488901615142822 1.216306447982788
-0.19142292439937592 -0.0006397739052772522 1.7629629373550415
-0.15909062325954437 0.08389897644519806 1.4231528043746948
-0.1406063288450241 0.06151317059993744 0.841541051864624
-0.18398341536521912 0.0133776580914855 0.8349106311798096
-0.15364602208137512 -0.07372579723596573 0.8532710075378418
-0.1964738816022873 -0.10656632483005524 0.8434735536575317
-0.17360226809978485 0.012272082269191742 1.664668083190918
-0.19451163709163666 -0.02470383793115616 1.7860859632492065
-0.1625504493713379 -0.006857439875602722 1.7314038276672363
-0.14298929274082184 0.030723750591278076 1.6788523197174072
-0.15427108108997345 0.013456065207719803 1.6293761730194092
-0.12148876488208771 0.0012609343975782394 1.0425169467926025
-0.16103243827819824 -0.0526544526219368 1.0006033182144165
-0.16113583743572235 -0.12267260253429413 0.9912831783294678
-0.142800971865654 -0.00916353240609169 1.5571644306182861
-0.16876402497291565 -0.24334529042243958 0.02172246389091015
-0.1718025803565979 -0.3210599422454834 0.009123769588768482
-0.16775602102279663 -0.3430050015449524 0.03494543209671974
-0.12914714217185974 -0.08374236524105072 1.39272940158844
-0.12278338521718979 -0.028907282277941704 1.3477952480316162
-0.11160477250814438 -0.051327697932720184 1.3251943588256836
-0.13804660737514496 -0.09540723264217377 1.3760120868682861
-0.1133643314242363 -0.13007202744483948 1.3284400701522827
-0.14309906959533691 -0.1674971729516983 0.45526808500289917
-0.1357908397912979 -0.20953303575515747 0.3786430358886719
-0.14320573210716248 -0.17291699349880219 0.3051063120365143
-0.1473233550786972 -0.19133077561855316 0.340439110994339
-0.15668970346450806 0.004459243267774582 1.6996999979019165
-0.11006123572587967 -0.08924993872642517 1.2879812717437744
-0.11479699611663818 -0.08830802142620087 1.2458243370056152
-0.1121906116604805 -0.12931066751480103 1.2685461044311523
-0.13658703863620758 -0.1482510268688202 1.2618237733840942
-0.1328040212392807 -0.17299722135066986 0.24006745219230652
-0.1304403394460678 -0.08468548953533173 1.5550748109817505
-0.13431374728679657 -0.0037112757563591003 1.5572196245193481
-0.13435272872447968 -0.03732016682624817 1.5518240928649902
-0.11925119906663895 -0.18193206191062927 0.5594343543052673
-0.10065270960330963 -0.009293951094150543 1.7975131273269653
-0.09861063212156296 -0.13201183080673218 1.2101187705993652
-0.10505756735801697 -0.04112500697374344 1.1713087558746338
-0.10096495598554611 -0.1643620729446411 0.7505378127098083
-0.11493570357561111 0.045661866664886475 1.742042064666748
-0.10101086646318436 -0.11797231435775757 1.4034366607666016
-0.09642403572797775 -0.11799973249435425 0.8412830829620361
-0.1399388611316681 -0.13107290863990784 0.8640199303627014
-0.12396518886089325 -0.20444846153259277 0.9108530282974243
-0.10395330935716629 -0.2205568552017212 0.8502510786056519
-0.13924923539161682 -0.3680405020713806 0.07427234202623367
-0.07358886301517487 0.07535680383443832 1.7411609888076782
-0.09538169205188751 0.0018614903092384338 1.782829999923706
-0.13386616110801697 -0.06252990663051605 1.4562771320343018
-0.10868050903081894 -0.0885453000664711 1.5116950273513794
-0.10323551297187805 -0.14883945882320404 0.30438780784606934
-0.12378376722335815 -0.17671802639961243 0.20222410559654236
-0.1349925398826599 -0.35179173946380615 0.11181369423866272
-0.12802205979824066 -0.1517000049352646 0.0287712961435318
-0.0867411196231842 -0.04596390947699547 1.3294596672058105
-0.09644806385040283 -0.21316799521446228 0.5396091938018799
-0.09655898809432983 -0.337834894657135 0.007039903663098812
-0.13674677908420563 -0.3500673770904541 -0.004241596907377243
-0.0913306474685669 -0.0036330223083496094 1.5734162330627441
-0.08734509348869324 -0.04234620928764343 1.5292508602142334
-0.02494831010699272 -0.22058886289596558 0.9071367383003235
-0.09145890176296234 0.08591654896736145 0.847593367099762
-0.12516649067401886 -0.2830793261528015 0.2624780535697937
-0.09694792330265045 -0.2761947214603424 0.17698192596435547
-0.10739651322364807 -0.15712842345237732 0.08569786697626114
-0.07445801794528961 -0.034341759979724884 1.2989749908447266
-0.08329445123672485 -0.047746650874614716 1.2556767463684082
-0.04097342863678932 -0.16460135579109192 1.308733582496643
-0.092953622341156 -0.10849373042583466 0.6404098272323608
-0.08043517917394638 -0.16852587461471558 0.7446099519729614
-0.05807114392518997 -0.12387159466743469 0.8143587708473206
-0.08650773763656616 -0.2762613594532013 0.14387062191963196
-0.08756127953529358 -0.34813541173934937 0.08579202741384506
-0.09590430557727814 -0.14081360399723053 1.5082952976226807
-0.06958626955747604 -0.03644932433962822 1.366743803024292
-0.04332101345062256 -0.0271297600120306 1.3030965328216553
-0.06736655533313751 -0.2114623486995697 0.5652815699577332
-0.04276247322559357 -0.19049455225467682 0.5657860040664673
-0.0827341079711914 -0.11092550307512283 0.4862823784351349
-0.06606392562389374 -0.1284167766571045 1.4736700057983398
-0.04661187902092934 -0.07672909647226334 1.4467122554779053
-0.08360783010721207 -0.02571670524775982 1.4128355979919434
-0.051362697035074234 -0.1428435891866684 0.5015407800674438
-0.052731793373823166 0.025095708668231964 1.7849550247192383
-0.08868224918842316 -0.17782345414161682 1.6526000499725342
-0.019038481637835503 -0.19147861003875732 0.9959603548049927
-0.0471268855035305 -0.0906611979007721 1.4648737907409668
-0.024453209713101387 -0.11967268586158752 1.4472712278366089
-0.04529830440878868 -0.10317304730415344 1.4364283084869385
-0.028663774952292442 -0.16761600971221924 1.5802851915359497
-0.07060405611991882 -0.17338302731513977 1.5238258838653564
-0.02443605475127697 -0.05631605163216591 1.477549433708191
-0.043963558971881866 -0.13427776098251343 0.6274282932281494
0.004227127879858017 -0.017794881016016006 1.8077762126922607
-0.029498320072889328 0.09448295086622238 1.709475040435791
-0.012749943882226944 -0.1883355677127838 1.5313071012496948
-0.02919241413474083 -0.17159047722816467 1.475856900215149
-0.008473280817270279 -0.060715481638908386 1.4492464065551758
-0.0009943675249814987 -0.16889254748821259 1.4750841856002808
0.02303740382194519 -0.032026417553424835 1.4253768920898438
-0.003881700336933136 -0.03153897076845169 1.2964251041412354
0.001406341791152954 0.039635442197322845 1.7801111936569214
0.01824091374874115 -0.06594503670930862 1.4837329387664795
0.014325093477964401 -0.11690051108598709 1.4640294313430786
0.030392300337553024 0.06612251698970795 1.7352272272109985
0.01899229921400547 -0.00496537983417511 1.787346363067627
0.014464359730482101 -0.1114492267370224 1.4411048889160156
0.05497152358293533 -0.1300501972436905 1.4968825578689575
0.021901452913880348 -0.08459996432065964 1.453474521636963
0.050750162452459335 -0.05084849148988724 0.5705954432487488
0.04707974195480347 -0.02235737070441246 1.512269139289856
0.08165962249040604 -0.04378452152013779 0.48856043815612793
0.038926564157009125 -0.19390647113323212 1.2552516460418701
0.08137404918670654 -0.04681884124875069 1.2718045711517334
0.0790306031703949 -0.05219356715679169 1.1499793529510498
0.10604243725538254 0.09883958101272583 0.11216491460800171
0.1361096203327179 0.11021596193313599 0.10385950654745102
0.09851691871881485 0.19409281015396118 0.13620194792747498
0.05488377809524536 -0.16785401105880737 1.2456766366958618
0.045730553567409515 -0.19289043545722961 1.170972228050232
0.05497834086418152 -0.12392974644899368 0.7063836455345154
0.09201333671808243 0.15508171916007996 0.09738863259553909
0.074888214468956 -0.0027124248445034027 1.7432193756103516
0.049915164709091187 -0.168707937002182 1.6594746112823486
0.039861924946308136 -0.15614372491836548 1.5702629089355469
0.045433949679136276 -0.16282102465629578 1.5215132236480713
0.09039290249347687 -0.15787488222122192 0.849860668182373
0.12578430771827698 -0.005379710346460342 1.7693819999694824
0.05442969501018524 -0.023166637867689133 1.5676935911178589
0.05475243180990219 -0.042169392108917236 1.5388736724853516
0.1025029644370079 0.09668512642383575 0.3539646863937378
0.0966692641377449 0.12943464517593384 0.30476871132850647
0.11280938237905502 0.2042737603187561 0.12175513803958893
0.06891657412052155 -0.024090401828289032 1.8329136371612549
0.09975917637348175 -0.04982518404722214 1.430830717086792
0.0961151272058487 -0.2155848741531372 0.8433462381362915
0.07654280215501785 -0.12901483476161957 0.8360394239425659
0.12267086654901505 -0.1908438801765442 0.8331577777862549
0.08205758780241013 -0.029846174642443657 0.7370733022689819
0.1578761339187622 0.10526326298713684 0.1122460588812828
0.08071064949035645 -0.016776088625192642 1.7538893222808838
0.07444263994693756 -0.15097051858901978 1.1425672769546509
0.08307540416717529 -0.1644205003976822 1.262233018875122
0.08624492585659027 -0.18426275253295898 1.2537522315979004
0.13572175800800323 -0.18415018916130066 0.9068136811256409
0.08324414491653442 -0.09869375824928284 1.5872385501861572
0.08305072784423828 -0.016531478613615036 1.5746712684631348
0.08365657180547714 -0.04430960491299629 1.566880702972412
0.0918053463101387 -0.05986115336418152 1.5620174407958984
0.10685504972934723 -0.07346987724304199 1.5383241176605225
0.11689704656600952 -0.03872653841972351 0.63145911693573
0.11490900814533234 -0.10629786550998688 0.6410578489303589
0.1195148304104805 -0.11367247998714447 1.3920694589614868
0.12576374411582947 -0.04213111847639084 1.3505282402038574
0.08381186425685883 -0.043790124356746674 1.361802101135254
0.09240099787712097 -0.06061812490224838 1.3350074291229248
0.11027562618255615 -0.11564043164253235 0.8036426901817322
0.1584860384464264 0.17773255705833435 0.11549276113510132
0.1759292334318161 0.1545255482196808 0.10586521029472351
0.09904684126377106 -0.02477080188691616 1.7075178623199463
0.1314792037010193 -0.05871935188770294 1.4032388925552368
0.16515472531318665 0.0597691535949707 0.3255079388618469
0.12052072584629059 0.00048002228140830994 1.6793240308761597
0.09145462512969971 0.02561723068356514 1.6806974411010742
0.10566828399896622 -0.0026915408670902252 1.6470532417297363
0.17824579775333405 0.12605071067810059 0.1645016372203827
0.1852077841758728 0.11753547191619873 0.1134733334183693
0.15724459290504456 0.08895784616470337 0.12659382820129395
0.16515560448169708 -0.010817836038768291 0.9448202848434448
0.14235642552375793 -0.013697702437639236 0.8453625440597534
0.12856543064117432 -0.02940395660698414 1.7695395946502686
0.16226083040237427 0.042199477553367615 0.8534988760948181
0.1854674518108368 0.003556039184331894 0.9111083745956421
0.16009336709976196 -0.050901830196380615 1.3385114669799805
0.17633657157421112 -0.07495348900556564 1.3125628232955933
0.13157396018505096 -0.11341889947652817 1.3543187379837036
0.1760747730731964 -0.04171507805585861 1.2810126543045044
0.16038881242275238 -0.040762923657894135 1.2611103057861328
0.20474570989608765 -0.13027754426002502 1.206455945968628
0.2031080424785614 -0.08215196430683136 1.264206886291504
0.21064701676368713 -0.019016124308109283 1.2120928764343262
0.22629523277282715 0.009988866746425629 1.1358435153961182
0.25593242049217224 0.00533805787563324 1.150272250175476
0.2522949278354645 -0.0372241735458374 1.1873717308044434
0.2512398958206177 -0.1001032367348671 1.1912378072738647
0.2709895968437195 0.019105225801467896 1.094043254852295
0.32405462861061096 -0.06493043154478073 1.1145851612091064
0.3217161297798157 -0.02578553557395935 1.1070882081985474
0.30373913049697876 0.002821125090122223 1.0897794961929321
0.31466299295425415 -0.11574535816907883 1.0806477069854736
0.31596770882606506 -0.0586031973361969 1.061690092086792
0.30655181407928467 -0.031577300280332565 1.060433268547058
0.3835940957069397 -0.045616209506988525 0.9257056713104248
0.30977529287338257 -0.08704885840415955 1.0533860921859741
0.31285321712493896 -0.09102360904216766 1.0219619274139404
0.34050849080085754 -0.02877097949385643 0.9788511395454407
0.3116430938243866 -0.07014057040214539 1.001673698425293
0.32426849007606506 -0.09734418243169785 0.9935516715049744
0.3441046178340912 -0.06820185482501984 0.9634852409362793
0.36822709441185 -0.06405841559171677 0.9540431499481201
0.3381010591983795 -0.11582660675048828 0.9524329304695129
0.3573625981807709 -0.0836217850446701 0.9469631314277649
0.3493586778640747 -0.09869780391454697 0.9558496475219727
0.3822134733200073 -0.04710400849580765 0.9057077765464783
0.36053869128227234 -0.10745376348495483 0.9374806880950928
0.3571052551269531 -0.05028452351689339 0.9252871870994568
0.3776334524154663 -0.08043338358402252 0.9090938568115234
0.3931128680706024 -0.06802719831466675 0.9153798818588257
-0.3019203245639801 -0.0034097349271178246 1.0213266611099243
-0.2950027585029602 -0.07604923844337463 1.0010565519332886
-0.2791193127632141 -0.05491127818822861 1.0037508010864258
-0.3122735321521759 -0.11075801402330399 1.0326893329620361
-0.2282499372959137 -0.005649378523230553 1.033815860748291
-0.2755815386772156 -0.1063147708773613 1.0284230709075928
-0.16701500117778778 -0.03322919085621834 1.2278382778167725
-0.17063629627227783 -0.09562106430530548 1.191877007484436
-0.18280896544456482 -0.09835632145404816 0.9514676332473755
-0.1901417076587677 -0.0168349277228117 0.9096966981887817
-0.13976971805095673 0.048511747270822525 0.9096989631652832
-0.16356641054153442 0.15766237676143646 1.2534270286560059
-0.1605159193277359 0.1644343137741089 1.186610221862793
-0.16660188138484955 0.19609233736991882 1.148691177368164
-0.16619282960891724 -0.012506435625255108 0.9477231502532959
-0.20497655868530273 -0.02803921326994896 1.754804253578186
-0.13120922446250916 -0.04246903955936432 1.3644988536834717
-0.14799447357654572 -0.02818828821182251 1.292227029800415
-0.0891449898481369 0.2221584916114807 1.0406134128570557
-0.12515869736671448 0.23365728557109833 0.9512984752655029
-0.1748986542224884 -0.24098341166973114 0.08906996995210648
-0.1742178201675415 -0.3153679072856903 0.06083877384662628
-0.1736975908279419 -0.027476821094751358 1.7347851991653442
-0.15827576816082 -0.01999342441558838 1.679403305053711
-0.11875475943088531 -0.1653430461883545 1.2379605770111084
-0.11541856080293655 -0.1806267499923706 1.2064845561981201
-0.1192217543721199 -0.20098212361335754 1.1984490156173706
-0.14200714230537415 0.10097109526395798 1.3906266689300537
-0.1323191523551941 0.09439779072999954 1.382789969444275
-0.09834017604589462 -0.163850337266922 1.2571297883987427
-0.12769323587417603 -0.07585953176021576 1.2142455577850342
-0.15216755867004395 -0.2631744146347046 0.16287261247634888
-0.15489083528518677 -0.22030246257781982 0.17331507802009583
-0.10295744240283966 0.14717867970466614 1.2463116645812988
-0.136144757270813 -0.07486589252948761 1.4690158367156982
-0.13533376157283783 -0.06721047312021255 1.445192575454712
-0.12220160663127899 -0.06890293955802917 1.4238113164901733
-0.13541831076145172 -0.06411319226026535 1.4211431741714478
-0.1341175138950348 -0.08376209437847137 1.4080376625061035
-0.12732113897800446 -0.13074074685573578 0.7815738916397095
-0.13972418010234833 -0.09934595972299576 0.7625722885131836
-0.09476785361766815 0.28373315930366516 1.0468225479125977
-0.09614674746990204 0.27467671036720276 1.1027262210845947
-0.09093531966209412 -0.15522801876068115 1.257825493812561
-0.12418032437562943 -0.10745452344417572 0.8510392904281616
-0.15230879187583923 -0.16740360856056213 0.08556946367025375
-0.15769650042057037 -0.17317016422748566 0.038241688162088394
-0.13737624883651733 -0.19191965460777283 0.8497251272201538
-0.11471126228570938 0.21350128948688507 1.2239412069320679
-0.1331275999546051 -0.15059851109981537 1.6481600999832153
-0.11473915725946426 -0.0251499954611063 1.5554780960083008
-0.10363148152828217 0.07838581502437592 1.5259337425231934
-0.09459298849105835 0.031526193022727966 1.5809450149536133
-0.11447316408157349 0.028665393590927124 1.5546886920928955
-0.11096759885549545 0.0613119900226593 1.471237301826477
-0.05832449719309807 0.11264654248952866 1.565793514251709
-0.09730721265077591 -0.0694316104054451 1.5045139789581299
-0.09927871823310852 0.04383940249681473 0.9677281379699707
-0.13188183307647705 -0.024781355634331703 1.837134838104248
-0.1476990282535553 -0.03423524275422096 1.8330621719360352
-0.14230802655220032 -0.04484934359788895 1.8191258907318115
-0.02171499840915203 0.0660298615694046 1.454664945602417
-0.10337129980325699 0.11571202427148819 1.4361484050750732
-0.0876559466123581 -0.2505997121334076 0.01836503855884075
-0.06719386577606201 0.17355461418628693 1.3668230772018433
-0.090504951775074 -0.1482149362564087 1.5583133697509766
-0.08488202095031738 -0.21130509674549103 0.38664427399635315
-0.05498233810067177 0.042551200836896896 1.520640254020691
-0.06629933416843414 -0.015480972826480865 1.5039637088775635
-0.047749150544404984 0.1270240992307663 1.4808659553527832
-0.041863106191158295 0.05269576609134674 0.8479903936386108
-0.08925672620534897 -0.15829366445541382 0.3266788125038147
-0.0417429581284523 0.2699649930000305 0.9454053640365601
-0.035869039595127106 0.04175969958305359 1.0355234146118164
-0.06934705376625061 -0.18266020715236664 1.2520391941070557
-0.0710512101650238 -0.16399027407169342 1.15544855594635
-0.07617616653442383 -0.1884424090385437 0.31170809268951416
-0.05501120537519455 -0.2149290144443512 0.25638315081596375
-0.08537565171718597 -0.16677668690681458 0.24298128485679626
-0.05216265469789505 0.017263349145650864 1.5397131443023682
-0.03874187543988228 -0.16712726652622223 0.6950212717056274
-0.061435047537088394 -0.10936295241117477 0.639712929725647
-0.03426974266767502 0.2955617606639862 1.0914580821990967
-0.029093950986862183 0.2987268269062042 0.9957730770111084
-0.017354607582092285 -0.19623790681362152 1.1774911880493164
-0.07446269690990448 -0.21742315590381622 0.11444009840488434
-0.031743306666612625 0.2440883219242096 0.9933164119720459
-0.035399384796619415 0.21629075706005096 1.0339566469192505
0.017675263807177544 0.03337545692920685 1.528665542602539
-0.052628494799137115 -0.1364159882068634 1.395134687423706
-0.008165125735104084 0.1973235011100769 1.3397094011306763
0.029469817876815796 0.067143514752388 1.4407460689544678
0.012527057901024818 0.012784533202648163 1.529886245727539
0.0321018248796463 0.24893344938755035 1.0005110502243042
0.047704994678497314 0.24121105670928955 0.9525031447410583
0.009847741574048996 -0.15190280973911285 1.3867888450622559
0.014930743724107742 0.04382973164319992 1.0303055047988892
0.004109552130103111 -0.19970646500587463 1.1142083406448364
0.07453977316617966 0.1764010787010193 1.3596805334091187
0.03757650405168533 -0.028559837490320206 1.3128327131271362
0.06606923043727875 0.12280522286891937 1.4838625192642212
0.03827248886227608 0.06240915507078171 1.4862620830535889
0.05162859708070755 -0.025981035083532333 1.2216312885284424
0.03954792767763138 0.09973548352718353 0.913681149482727
0.023268580436706543 -0.0553872287273407 1.771134376525879
0.0814264714717865 0.11412464827299118 0.12203521281480789
0.08584198355674744 0.1192697286605835 0.10284492373466492
0.07355986535549164 0.1549968719482422 0.14207012951374054
-0.0016380958259105682 -0.18527308106422424 1.652255892753601
0.04954947158694267 -0.04433637112379074 0.6999565958976746
0.10396263003349304 0.06761406362056732 1.4494268894195557
0.06640340387821198 -0.09094764292240143 1.5066301822662354
0.11050981283187866 -0.08481065183877945 1.4389196634292603
0.05989828705787659 -0.045789286494255066 1.4203650951385498
0.08352287858724594 0.06305268406867981 0.4104347229003906
0.09818214923143387 0.04366733878850937 0.24618607759475708
0.10866280645132065 0.1398678869009018 0.25054931640625
0.10798278450965881 0.24729235470294952 1.007758378982544
0.09396900981664658 0.2811911106109619 0.9714730978012085
0.0885058343410492 -0.13090594112873077 0.7152708768844604
0.08955276757478714 -0.026328805834054947 0.6427408456802368
0.02902880311012268 -0.10746937990188599 1.7606794834136963
0.069980688393116 -0.1092744991183281 1.713625431060791
0.09955393522977829 -0.07613195478916168 0.5226908326148987
0.03924534097313881 -0.046732038259506226 1.78358793258667
0.06897423416376114 -0.05981118232011795 1.7340630292892456
0.09206248819828033 -0.08147105574607849 1.1428461074829102
0.09568524360656738 -0.06887190043926239 1.1123149394989014
0.0895751342177391 -0.1464768499135971 1.0950959920883179
0.06409477442502975 -0.15427261590957642 1.650479793548584
0.0798284262418747 -0.08072315156459808 1.5356742143630981
0.06899833679199219 -0.12333031743764877 1.5399295091629028
0.15063053369522095 0.23633787035942078 0.9610613584518433
0.10568345338106155 -0.12666486203670502 1.290405511856079
0.11774425208568573 -0.1906483918428421 1.2361445426940918
0.10990170389413834 -0.10957249999046326 1.244490385055542
0.15577000379562378 0.153205007314682 0.19835135340690613
0.13859181106090546 0.0744728296995163 0.18550832569599152
0.15757779777050018 0.08241893351078033 0.1713794618844986
0.08736754953861237 -0.030384425073862076 1.7543437480926514
0.11572742462158203 -0.1442800909280777 1.2851356267929077
0.15739578008651733 0.04283955320715904 0.44289520382881165
0.13809481263160706 -0.024042507633566856 0.4735279679298401
0.16499444842338562 0.05029628425836563 0.38880881667137146
0.12672141194343567 -0.1028711199760437 1.4288408756256104
0.11288642883300781 -0.09445007145404816 1.4262570142745972
0.13481071591377258 -0.06795443594455719 1.3902312517166138
0.12099384516477585 0.06912261992692947 0.9092268347740173
0.11884823441505432 -0.11482802033424377 0.8323845267295837
0.18288561701774597 0.10500636696815491 0.27884092926979065
0.18910324573516846 0.0741908848285675 0.27535560727119446
0.14517070353031158 -0.056874822825193405 1.3875463008880615
0.15921932458877563 0.14410817623138428 1.2656537294387817
0.16124770045280457 0.1763867437839508 1.2371513843536377
0.1276177167892456 -0.24493682384490967 1.1214359998703003
0.16612213850021362 -0.05808601528406143 0.9748601913452148
0.1696843057870865 -0.11838823556900024 0.9643658399581909
0.17055290937423706 -0.014343701303005219 1.2074475288391113
0.24324774742126465 -0.07516458630561829 1.065809965133667
0.24027007818222046 -0.02650676667690277 1.0640543699264526
0.26589372754096985 -0.13236325979232788 1.1119489669799805
-0.27957335114479065 -0.015171093866229057 0.9977577924728394
-0.2988799512386322 -0.07813710719347 0.9629710912704468
-0.22095033526420593 -0.10815213620662689 1.0956639051437378
-0.2433670461177826 -0.12458820641040802 1.140580654144287
-0.18478448688983917 -0.07061541080474854 1.1212049722671509
-0.17647215723991394 -0.025341061875224113 1.1534295082092285
-0.19349804520606995 -0.15625369548797607 0.863016664981842
-0.1589849293231964 0.22435732185840607 0.9940184354782104
-0.16163146495819092 0.1949690580368042 1.105498194694519
-0.11583304405212402 -0.25159892439842224 1.091113805770874
-0.1412658989429474 -0.16252270340919495 0.9559898376464844
-0.17251357436180115 -0.21491724252700806 0.2590317130088806
-0.1495085209608078 -0.2601836621761322 0.28304651379585266
-0.11946933716535568 -0.1225697472691536 0.47308894991874695
-0.14902934432029724 -0.19844314455986023 0.8549851179122925
-0.1176188588142395 -0.1444825530052185 0.616493821144104
-0.11594083160161972 -0.1618238091468811 0.6830140352249146
-0.10845806449651718 -0.0996316522359848 0.6727021932601929
-0.10146784782409668 -0.013456221669912338 1.1084967851638794
-0.0965455025434494 -0.07916117459535599 1.132610559463501
-0.07935789227485657 0.25357937812805176 1.1842646598815918
-0.11294154822826385 -0.0193365216255188 0.8324548602104187
-0.1054205447435379 -0.27048459649086 0.30221784114837646
-0.10203038156032562 -0.03253304958343506 1.2188661098480225
-0.08473829925060272 -0.038654085248708725 1.142912745475769
-0.10264042764902115 -0.2228131890296936 0.43715888261795044
-0.131766676902771 -0.04494225233793259 1.7520893812179565
-0.1340353935956955 -0.0809166356921196 1.7444988489151
-0.08759154379367828 -0.11916281282901764 1.7549464702606201
-0.09954017400741577 -0.1609017699956894 1.7121632099151611
-0.11210021376609802 -0.14960232377052307 1.6112663745880127
-0.08387625962495804 -0.2199932485818863 0.33185875415802
-0.04680758714675903 -0.15592004358768463 0.749398946762085
-0.057720381766557693 -0.24157452583312988 0.26707929372787476
-0.07489264011383057 -0.2681739330291748 0.2735096216201782
-0.08959846198558807 -0.18846750259399414 0.20205190777778625
-0.05901990830898285 0.06596612185239792 0.9619077444076538
-0.0848182886838913 -0.030276935547590256 1.8008451461791992
-0.09598791599273682 -0.04617519676685333 1.7872514724731445
0.022491510957479477 0.18985804915428162 1.1630120277404785
-0.07985971868038177 0.18351095914840698 1.169823169708252
0.002048630965873599 0.16118842363357544 1.2273939847946167
0.020723579451441765 -0.04207371920347214 1.2609144449234009
0.003797624260187149 0.252662718296051 1.219059705734253
0.011587092652916908 0.2234484702348709 1.0387794971466064
0.07318270951509476 0.2838344871997833 1.129098653793335
0.025310203433036804 0.09122860431671143 1.6775941848754883
0.051940422505140305 0.21773451566696167 1.0457974672317505
0.04977860674262047 -0.21827289462089539 0.89974445104599
0.06521233171224594 0.06792853772640228 0.2755747437477112
0.08239851891994476 0.08371923118829727 0.22582675516605377
0.04759036377072334 -0.10697387903928757 0.6740241050720215
0.042333126068115234 0.021481242030858994 1.0652222633361816
0.06689666956663132 -0.007782597094774246 0.5593201518058777
0.08486068248748779 0.13734711706638336 1.3033709526062012
0.08639851212501526 -0.12717503309249878 1.4089990854263306
0.060475245118141174 0.07969529181718826 1.6386168003082275
0.061156079173088074 0.003230646252632141 1.6090388298034668
0.06498734652996063 0.02358241379261017 1.5799593925476074
0.03532417491078377 -0.04164072498679161 1.8328862190246582
0.08917632699012756 -0.13732308149337769 1.335097074508667
0.1286400705575943 0.039240412414073944 0.5070661306381226
0.09465990960597992 0.0514819473028183 0.5082777738571167
0.12063591927289963 0.09921407699584961 0.37527596950531006
0.1430773288011551 0.10601851344108582 0.3489912152290344
0.1030367910861969 -0.06962904334068298 1.5281720161437988
0.0882195383310318 -0.08170853555202484 1.5379892587661743
0.10722982883453369 -0.07944810390472412 1.5188490152359009
0.11814777553081512 -0.04265197366476059 0.747744619846344
0.1278579980134964 -0.06502865999937057 0.6108497381210327
0.12807422876358032 0.029403671622276306 0.9488071799278259
0.12584853172302246 -0.061225831508636475 1.082381010055542
0.12212759256362915 -0.11705920845270157 1.0750491619110107
0.1282702088356018 -0.14482592046260834 1.0179657936096191
0.10290585458278656 -0.0297788567841053 1.6495544910430908
0.11519931256771088 -0.03373725712299347 1.5616601705551147
0.10908032208681107 -0.17405343055725098 1.2222962379455566
0.12761546671390533 0.048820704221725464 1.5490833520889282
0.12039877474308014 0.016254201531410217 1.5888152122497559
0.17344219982624054 0.16283124685287476 0.12840956449508667
0.18343091011047363 0.13138538599014282 0.12013095617294312
0.1393188238143921 0.035281915217638016 1.5122212171554565
0.14460137486457825 0.05519765987992287 1.480534553527832
0.15048128366470337 0.05741444602608681 1.4366748332977295
0.15050344169139862 0.07898716628551483 1.4211255311965942
0.11803075671195984 -0.25217267870903015 1.1392078399658203
0.17068511247634888 -0.15245398879051208 0.8402053117752075
0.14030343294143677 -0.22621142864227295 1.156599998474121
0.13748368620872498 -0.25005942583084106 1.1369547843933105
0.20079262554645538 -0.11007574200630188 0.8563457727432251
0.2001633197069168 -0.08803196996450424 0.8387752175331116
0.2095644474029541 -0.0532228983938694 0.8488256335258484
-0.20182529091835022 -0.12138944864273071 1.1627728939056396
-0.14886705577373505 -0.13727697730064392 1.2527406215667725
-0.15458883345127106 -0.13116228580474854 1.2332907915115356
-0.14578980207443237 -0.1273501068353653 1.2439595460891724
-0.14353591203689575 -0.12447657436132431 1.261843204498291
-0.20536811649799347 -0.0012565813958644867 0.8405610918998718
-0.11954770237207413 -0.08769960701465607 1.2935200929641724
-0.1395268440246582 -0.06460021436214447 1.0820162296295166
-0.13912178575992584 0.05838247388601303 1.563127875328064
-0.1243104338645935 -0.10218644142150879 1.1999768018722534
-0.12695328891277313 -0.08700010925531387 1.1515696048736572
-0.11819600313901901 0.0778348296880722 1.4578802585601807
-0.11622774600982666 0.08752777427434921 1.411287546157837
