0.12237939983606339 0.13996179401874542 1.251741886138916
0.08953014761209488 -0.05450952798128128 1.6481845378875732
0.08837845921516418 0.09253627806901932 1.1718957424163818
0.04247468709945679 -0.21850040555000305 0.8996771574020386
0.01836223155260086 -0.1267612725496292 0.20846600830554962
0.032930660992860794 -0.14714166522026062 0.15010307729244232
0.019621416926383972 -0.13073721528053284 0.6605622172355652
0.04306149482727051 -0.015366102568805218 1.0815176963806152
0.0364382304251194 -0.04980999231338501 0.520841121673584
0.12585237622261047 0.011125335469841957 1.3498709201812744
0.07398626208305359 -0.235003262758255 1.3748639822006226
0.11554400622844696 -0.06136319413781166 1.6099075078964233
0.10172620415687561 -0.12043749541044235 1.561070442199707
0.10369378328323364 -0.09972366690635681 1.5448334217071533
0.09859171509742737 -0.1812102347612381 1.7452294826507568
0.056449826806783676 -0.25502005219459534 1.3153023719787598
0.09863428771495819 -0.0339658185839653 0.44059354066848755
0.06675383448600769 -0.020763792097568512 0.4369102418422699
0.08598476648330688 -0.0489986352622509 0.2829940915107727
0.10744500905275345 -0.05727796629071236 0.253017783164978
0.11874952912330627 -0.17589467763900757 1.470616340637207
0.10735150426626205 -0.18550735712051392 1.4769892692565918
0.11948652565479279 -0.1789669692516327 1.4620472192764282
0.09678738564252853 -0.05526864528656006 0.7226852178573608
0.09809557348489761 -0.09947288036346436 0.5884476900100708
0.13504835963249207 0.022297952324151993 0.9365177154541016
0.11007523536682129 -0.10356822609901428 1.0873008966445923
0.10149488598108292 -0.15367481112480164 1.0676817893981934
0.11616864055395126 -0.1659822165966034 1.0072802305221558
0.1363176554441452 -0.15493199229240417 1.5854434967041016
0.13765732944011688 -0.14685088396072388 1.5094000101089478
0.052562739700078964 -0.2764459550380707 1.19651460647583
0.15776857733726501 -0.0769224613904953 1.5149751901626587
0.1497022658586502 -0.11053592711687088 1.543935775756836
0.13427825272083282 -0.13681869208812714 -0.014507142826914787
0.1413881480693817 -0.2115640640258789 -0.004096217453479767
0.1602068692445755 -0.0857289731502533 1.4807116985321045
0.1628590226173401 -0.06620477885007858 1.458764910697937
0.16640573740005493 -0.061200253665447235 1.4297083616256714
0.16790708899497986 -0.044105980545282364 1.4224008321762085
0.037918418645858765 -0.3405281603336334 1.1145274639129639
0.16030625998973846 -0.15754032135009766 0.8184646368026733
0.05790185183286667 -0.3233136236667633 1.1293591260910034
0.04999197646975517 -0.34302183985710144 1.1122961044311523
0.19221414625644684 -0.11489227414131165 0.827705442905426
0.1888304054737091 -0.09206945449113846 0.8080875277519226
0.2014656364917755 -0.05744343250989914 0.8152149319648743
-0.19175055623054504 -0.1531350463628769 1.144128680229187
-0.14320242404937744 -0.18448865413665771 1.22544264793396
-0.14957015216350555 -0.17718961834907532 1.208277940750122
-0.14015035331249237 -0.1725544035434723 1.219785451889038
-0.13611306250095367 -0.1762838214635849 1.2373168468475342
-0.2002444565296173 -0.002060815691947937 0.8343905210494995
-0.10795530676841736 -0.14902210235595703 1.2744786739349365
-0.14675886929035187 -0.08928105980157852 1.0740623474121094
-0.06697741150856018 -0.0612347275018692 1.549337387084961
-0.12841936945915222 -0.14704284071922302 1.18552827835083
-0.13833795487880707 -0.12470592558383942 1.1412241458892822
-0.05188406631350517 -0.03269321843981743 1.4651635885238647
-0.04454120248556137 -0.026023169979453087 1.4338325262069702
-0.1375267505645752 -0.15513771772384644 1.0217331647872925
-0.10272745043039322 -0.17362195253372192 0.9817231893539429
-0.10939494520425797 -0.0464230440557003 0.7469459176063538
0.004925685003399849 0.08241178840398788 1.3513438701629639
-0.001495441421866417 -0.045735664665699005 1.637181043624878
-0.036127205938100815 -0.027312103658914566 -0.006677464582026005
-0.0495116226375103 -0.014254922047257423 -0.022803423926234245
-0.08366727083921432 0.024545321241021156 0.8544987440109253
-0.007170564495027065 0.0957435593008995 0.8585517406463623
-0.05618315935134888 -0.025132399052381516 0.8298664093017578
0.060358911752700806 -0.004767404869198799 1.3758164644241333
-0.011123469099402428 -0.09615565836429596 0.7567653656005859
-0.004340068437159061 -0.2668057680130005 1.5434064865112305
-0.011696254834532738 0.016573330387473106 0.8748434782028198
-0.006326100789010525 -0.024679187685251236 0.8495935201644897
0.0009251446463167667 -0.11606410145759583 0.8502761125564575
-0.07892104983329773 -0.1667020320892334 0.8571711182594299
-0.005189059302210808 -0.2263445407152176 0.8502399921417236
0.004932044073939323 -0.10846482217311859 0.8111460208892822
-0.0077640339732170105 -0.16123251616954803 0.862018346786499
0.04119878262281418 -0.11447250843048096 1.4683442115783691
0.007926536723971367 -0.035378582775592804 0.8358659148216248
0.0051950267516076565 -0.048237159848213196 0.8066425323486328
0.06284894794225693 -0.11383923143148422 1.5411252975463867
0.06414598226547241 -0.10463698953390121 1.520324945449829
0.01678534597158432 -0.12323187291622162 0.8293654918670654
0.11654838919639587 0.057726114988327026 0.8233882188796997
0.023860719054937363 -0.09671223163604736 0.2029304951429367
0.024066774174571037 -0.034160420298576355 0.7866529822349548
0.1107024997472763 0.05861014127731323 1.2814412117004395
0.06002826616168022 -0.11995396018028259 0.3304319977760315
0.05347779765725136 -0.10748231410980225 0.26559942960739136
0.06975424289703369 -0.12846428155899048 0.2826986312866211
0.05864346772432327 -0.17400583624839783 0.2329649031162262
0.13953182101249695 -0.05974464491009712 1.495155692100525
0.060021545737981796 -0.01626410335302353 0.8221917152404785
0.08102536201477051 -0.036255963146686554 0.7919682264328003
0.0812528058886528 -0.16367438435554504 1.22025728225708
0.09107095748186111 -0.12868532538414001 0.38004642724990845
0.1382657140493393 -0.10124106705188751 1.580061674118042
0.07902946323156357 -0.15327629446983337 1.276155948638916
0.09993021190166473 -0.1311984658241272 0.2823457717895508
0.13732418417930603 0.11071151494979858 1.2928029298782349
0.08811011910438538 -0.12655490636825562 1.204025149345398
0.11180153489112854 -0.07944667339324951 0.13772717118263245
0.1696859747171402 0.12491019070148468 1.2222490310668945
0.09581313282251358 -0.06075665354728699 0.18118909001350403
0.09887783974409103 -0.18447963893413544 0.203289195895195
0.1667906790971756 -0.0033228981774300337 1.3587015867233276
0.12629398703575134 -0.19130365550518036 1.4100890159606934
0.12732484936714172 -0.1867726743221283 1.381239414215088
0.12641163170337677 -0.18989762663841248 1.40970778465271
0.1389598697423935 -0.15462729334831238 1.3570337295532227
0.0643315389752388 -0.298923134803772 1.1752809286117554
0.04655446484684944 -0.30773505568504333 1.170204758644104
0.17973454296588898 0.03690503537654877 1.2865471839904785
0.19518156349658966 0.07783885300159454 1.2435853481292725
0.18690714240074158 0.07948208600282669 1.2151774168014526
0.09301003813743591 -0.23486247658729553 1.2148164510726929
0.07746492326259613 -0.26895615458488464 1.2310211658477783
0.14823690056800842 -0.1814199984073639 0.8348278403282166
0.08630281686782837 -0.28617435693740845 1.2379270792007446
0.07649652659893036 -0.3209225833415985 1.1358669996261597
0.07551856338977814 -0.25990352034568787 1.1122814416885376
0.07059573382139206 -0.30247074365615845 1.1041171550750732
0.14682087302207947 -0.32782337069511414 1.1263744831085205
0.13233225047588348 -0.30422770977020264 0.9951618909835815
0.12991105020046234 -0.35288357734680176 1.0489814281463623
-0.14445897936820984 -0.2634841501712799 1.0965142250061035
-0.13307347893714905 -0.214534193277359 1.164579153060913
-0.139496847987175 -0.20926767587661743 1.1850694417953491
-0.1320270150899887 -0.2510300874710083 1.1050453186035156
-0.06520003080368042 -0.03745484724640846 1.4914486408233643
-0.07235964387655258 -0.04419337958097458 1.4744737148284912
-0.07601850479841232 -0.018852965906262398 1.4436159133911133
-0.07698214799165726 -0.163135826587677 1.6570485830307007
-0.09013572335243225 -0.18526044487953186 1.5733654499053955
-0.11360041797161102 -0.10270080715417862 0.2771875560283661
-0.12281572818756104 -0.07651157677173615 0.8245643377304077
-0.11798210442066193 -0.10426336526870728 0.8058575391769409
-0.06938812136650085 0.1332923024892807 1.1342506408691406
-0.08840957283973694 -0.1966266930103302 1.2197020053863525
-0.10587164014577866 -0.04012040048837662 0.7998827695846558
-0.029576312750577927 -0.18298214673995972 1.694327712059021
-0.1025984063744545 -0.15982559323310852 1.1149801015853882
-0.07153235375881195 -0.21596181392669678 1.0923606157302856
-0.014209588058292866 0.09428878128528595 1.214626431465149
0.0538470633327961 0.09188422560691833 1.2045204639434814
-0.0629965141415596 -0.0719711184501648 1.1638524532318115
-0.044042278081178665 -0.11681322753429413 0.8458550572395325
-0.06198810040950775 -0.20727434754371643 1.033941388130188
-0.05135207623243332 -0.005180026404559612 1.0705875158309937
0.012776633724570274 -0.2674514353275299 1.6321910619735718
-0.004961566999554634 -0.10192392766475677 0.7379518747329712
0.007576027885079384 0.010337878949940205 1.3577816486358643
0.03863135725259781 -0.20942771434783936 -0.04073444381356239
0.15159203112125397 0.1508505791425705 1.1753230094909668
0.11813914030790329 0.09107039123773575 1.2154630422592163
0.10435500741004944 0.1616806834936142 1.1940112113952637
0.08866189420223236 0.08694513142108917 0.8443782329559326
0.11084390431642532 -0.08986302465200424 -0.03540064021945
0.09982573986053467 -0.03851356357336044 0.8102706074714661
0.09449924528598785 -0.1251591295003891 0.3348205089569092
0.10754793882369995 -0.23611992597579956 1.351881980895996
0.08008689433336258 -0.26197493076324463 1.280882716178894
0.18617789447307587 -0.002592201344668865 0.8119446635246277
0.20246367156505585 -0.05493196099996567 0.8778934478759766
0.13266712427139282 -0.3340902328491211 1.0103678703308105
-0.24139255285263062 -0.14520224928855896 1.0857771635055542
-0.20700354874134064 -0.0853017270565033 0.8955178260803223
-0.2148245871067047 -0.07834295928478241 0.8368520736694336
-0.07895725965499878 -0.03178642690181732 1.4354455471038818
-0.07767945528030396 0.023862266913056374 1.3317363262176514
-0.0807785913348198 -0.13048969209194183 1.511181354522705
-0.14323368668556213 -0.07296808063983917 1.039790153503418
-0.14713843166828156 -0.11078545451164246 1.0762522220611572
-0.079703688621521 -0.12768177688121796 1.5123655796051025
-0.08146577328443527 -0.138985276222229 1.4966270923614502
-0.0820685625076294 -0.1332237720489502 1.5064822435379028
-0.08216649293899536 -0.13641420006752014 1.5081558227539062
-0.08800066262483597 -0.14737612009048462 1.4949103593826294
-0.08771711587905884 -0.137676402926445 0.11452864110469818
-0.08478181064128876 -0.22507606446743011 1.6130441427230835
-0.028766516596078873 -0.08195647597312927 1.2173044681549072
-0.03289099037647247 -0.15279392898082733 0.026620863005518913
-0.037635013461112976 -0.10036064684391022 1.2520580291748047
-0.00677234074100852 -0.07841925323009491 1.1717193126678467
-0.04367631673812866 0.09433527290821075 0.9305621385574341
0.027220580726861954 -0.1927337497472763 1.7014613151550293
-0.012951706536114216 -0.09314344823360443 0.6858967542648315
0.028480898588895798 0.021928220987319946 1.3285753726959229
0.0028626956045627594 -0.19931399822235107 0.990652322769165
-0.04204122722148895 -0.24671438336372375 1.1797192096710205
0.06208617985248566 0.07218542695045471 1.2349724769592285
0.0416087731719017 -0.10369044542312622 0.1316528469324112
0.06530516594648361 -0.1844363510608673 0.9770519733428955
0.1237887442111969 -0.1774073839187622 0.9443855285644531
0.1174478679895401 -0.08987979590892792 1.517157793045044
0.046508900821208954 -0.21560709178447723 1.132847785949707
0.031698085367679596 -0.08562067151069641 1.1651148796081543
0.09424014389514923 -0.0576244592666626 1.0885891914367676
0.08989675343036652 0.056780971586704254 0.9486386775970459
0.1070636510848999 -0.2994785010814667 -0.04105003550648689
0.08245376497507095 -0.2814025282859802 -0.056933239102363586
0.13662473857402802 -0.2688320279121399 -0.0498710460960865
0.11943254619836807 -0.17622581124305725 0.18034173548221588
0.12299466878175735 -0.18936854600906372 1.4081580638885498
0.12541541457176208 -0.18949727714061737 1.4083069562911987
0.07908116281032562 -0.21712684631347656 1.2892553806304932
0.07814060151576996 -0.25120872259140015 1.2705734968185425
0.19657795131206512 0.11270660161972046 1.1650657653808594
0.18859703838825226 0.10507887601852417 1.1225394010543823
0.19802731275558472 0.10967826843261719 1.1207371950149536
0.1414746642112732 -0.29465270042419434 0.9967722296714783
0.13939771056175232 -0.3496355414390564 0.9898208379745483
0.15000027418136597 -0.36889076232910156 0.9822888374328613
-0.20372799038887024 -0.06119875609874725 1.0400773286819458
-0.1485898345708847 -0.23855265974998474 1.1425799131393433
-0.08504599332809448 -0.10792087018489838 0.3108552098274231
-0.03746374696493149 0.12637341022491455 1.1084587574005127
-0.11418967694044113 -0.164902001619339 1.061145544052124
-0.028453493490815163 -0.045081425458192825 0.8387768268585205
-0.04027597978711128 -0.039846234023571014 0.7950060963630676
-0.031586673110723495 -0.09279479086399078 0.8036954402923584
-0.0031519834883511066 -0.025232724845409393 1.1169788837432861
0.023240912705659866 -0.2089538425207138 0.8350738286972046
0.08468572795391083 0.015064176172018051 0.8407440185546875
0.12985439598560333 0.09710180014371872 1.1864633560180664
0.13652127981185913 -0.12799806892871857 1.5175762176513672
0.1449676752090454 -0.10254521667957306 1.5033817291259766
0.18903256952762604 -0.12376516312360764 0.8810782432556152
-0.15281112492084503 -0.2397790253162384 1.1098238229751587
-0.07360264658927917 -0.08979438990354538 1.5546526908874512
-0.009972402825951576 0.12650549411773682 1.147982120513916
-0.050384245812892914 -0.0712655782699585 1.587953805923462
-0.030854083597660065 -0.10026620328426361 1.5663615465164185
-0.0035681230947375298 -0.10600905120372772 1.542423129081726
0.024140169844031334 -0.21427255868911743 1.0402026176452637
0.03883322700858116 -0.23440738022327423 1.2205452919006348
0.051531970500946045 -0.19234699010849 0.11016029119491577
0.07548533380031586 -0.20403611660003662 1.1815614700317383
0.0853877067565918 -0.167871356010437 1.1379843950271606
0.15312111377716064 -0.04631476849317551 1.4354774951934814
0.14489591121673584 -0.020372137427330017 1.456337571144104
0.09314512461423874 -0.12743186950683594 1.157789707183838
0.10000545531511307 -0.07586048543453217 0.7992106676101685
0.03914514183998108 -0.28969284892082214 1.1995327472686768
0.1717711091041565 0.004051341209560633 1.3801937103271484
-0.06176299601793289 0.0033831652253866196 1.39805269241333
-0.08114100247621536 -0.03183138370513916 0.3208787739276886
0.00791968498378992 -0.1023893728852272 0.6931207180023193
0.061745785176754 -0.26736384630203247 1.6116738319396973
-0.07819423079490662 0.11520323157310486 1.191253662109375
-0.1303623914718628 -0.17895369231700897 1.241989016532898
-0.041585080325603485 -0.07036847621202469 0.35768163204193115
0.06917743384838104 -0.00013773515820503235 1.4996312856674194
0.05849087983369827 -0.28098297119140625 -0.04025930166244507
0.12103573977947235 -0.1786699742078781 1.462397813796997
0.11992909014225006 -0.1784464418888092 1.4610356092453003
0.10876087099313736 -0.18995779752731323 1.3727887868881226
0.11310915648937225 -0.17132291197776794 0.1442951261997223
0.12909214198589325 -0.13714498281478882 0.12160491198301315
0.08886638283729553 -0.31719982624053955 1.1809600591659546
-0.17786075174808502 -0.15818142890930176 0.9062929749488831
-0.0688791424036026 -0.014704187400639057 1.4185879230499268
-0.06720903515815735 -0.016897786408662796 1.4199182987213135
-0.07267583906650543 -0.019203877076506615 1.4190306663513184
-0.03480418771505356 -0.08754006028175354 0.15139813721179962
-0.02770557999610901 -0.09899023175239563 0.844019889831543
0.029454296454787254 -0.15553346276283264 0.09856458753347397
0.10617226362228394 -0.33823978900909424 1.1352317333221436
0.1183219850063324 -0.2185850441455841 1.5782272815704346
0.1109904944896698 -0.10156223177909851 0.7491860389709473
0.16708144545555115 -0.03924519568681717 1.4068938493728638
0.1696835458278656 -0.014979892410337925 1.3844106197357178
0.04082389920949936 -0.12180210649967194 -0.04402919486165047
0.05952148512005806 -0.6555972695350647 1.0219122171401978
0.05883113667368889 -0.629105806350708 1.0002541542053223
0.05639646202325821 -0.6392518281936646 1.0029704570770264
0.05168808251619339 -0.6356563568115234 1.0101802349090576
0.05251403525471687 -0.6549495458602905 1.0124475955963135
0.0576949343085289 -0.6484267115592957 1.024583101272583
0.09346798062324524 -0.5255664587020874 0.998327910900116
0.07985031604766846 -0.5298101902008057 0.9940670728683472
0.08627286553382874 -0.5473202466964722 1.0017868280410767
0.08488984405994415 -0.5550692081451416 1.0050153732299805
0.10762079060077667 -0.3935807943344116 0.9312492609024048
0.10589289665222168 -0.4044310450553894 0.9473701119422913
0.10535220801830292 -0.40439099073410034 0.9251444935798645
0.07555518299341202 -0.541790246963501 0.9644871354103088
0.07661198824644089 -0.5539220571517944 0.9771556258201599
0.0881454199552536 -0.5752764940261841 1.0246715545654297
0.08604437112808228 -0.5651575326919556 1.0136263370513916
0.09588121622800827 -0.4337133765220642 0.9117459058761597
0.09587100893259048 -0.44078633189201355 0.9325172901153564
0.11282418668270111 -0.4709974229335785 0.9921324253082275
0.1082918643951416 -0.4642302393913269 0.9863907098770142
0.07395559549331665 -0.6347812414169312 1.0325804948806763
0.063686802983284 -0.620229184627533 0.9929378628730774
0.10988269001245499 -0.40267547965049744 0.9159061312675476
0.10333999991416931 -0.40853428840637207 0.9131008386611938
0.17383450269699097 -0.24613715708255768 0.9790732860565186
0.16967320442199707 -0.2554244101047516 0.9781235456466675
0.16897349059581757 -0.24503403902053833 0.9599239826202393
0.07944612205028534 -0.5959204435348511 1.019364595413208
0.07728591561317444 -0.6155171394348145 1.0245250463485718
0.10875797271728516 -0.40612688660621643 0.9105203151702881
0.10635455697774887 -0.40551120042800903 0.9013033509254456
0.04730800911784172 -0.672519862651825 0.9781097769737244
0.04679476469755173 -0.6832234859466553 0.9854705333709717
0.1810954511165619 -0.23340994119644165 0.9721158742904663
0.17781411111354828 -0.2453434318304062 0.9834248423576355
0.17553342878818512 -0.23483099043369293 0.9668119549751282
0.17325127124786377 -0.2417593151330948 0.9579837918281555
0.04879146069288254 -0.7104791402816772 1.0332545042037964
0.04998379945755005 -0.7261777520179749 1.0440398454666138
0.043579332530498505 -0.7271235585212708 1.0265660285949707
0.08862371742725372 -0.49508216977119446 0.9393227100372314
0.09029106050729752 -0.5103791952133179 0.9408394694328308
0.07840106636285782 -0.5253249406814575 0.9365835785865784
0.08461281657218933 -0.5234196186065674 0.9334742426872253
0.18022719025611877 -0.24927617609500885 0.987622082233429
0.17770960927009583 -0.23295441269874573 0.962474524974823
0.08957256376743317 -0.5932400226593018 1.0333337783813477
0.09741754084825516 -0.5928162336349487 1.0340899229049683
0.08510720729827881 -0.6059480905532837 1.0350903272628784
0.08585809916257858 -0.6216998100280762 1.0392026901245117
0.09711100906133652 -0.4620404839515686 0.9265654683113098
0.09497261047363281 -0.47458040714263916 0.9240803718566895
0.0923473909497261 -0.4769948720932007 0.928938627243042
0.18215402960777283 -0.23633822798728943 0.9670626521110535
0.18248197436332703 -0.25064024329185486 0.985389232635498
0.17539280652999878 -0.24707399308681488 0.9603652358055115
0.1070750504732132 -0.3822418451309204 0.8725396394729614
0.10586877912282944 -0.38748592138290405 0.8669075965881348
0.10730278491973877 -0.3972325325012207 0.8889795541763306
0.10887490957975388 -0.39398378133773804 0.8794018626213074
0.1036737933754921 -0.38862115144729614 0.8765831589698792
0.07903881371021271 -0.5453987121582031 0.9297133088111877
0.07928932458162308 -0.5319377183914185 0.9264688491821289
0.07668031752109528 -0.5365608930587769 0.9159080982208252
0.0727405697107315 -0.5407791137695312 0.9159072041511536
0.17964978516101837 -0.250059574842453 0.9687492251396179
0.05613178014755249 -0.7337337732315063 1.0490798950195312
0.05140421912074089 -0.7303929328918457 1.0322458744049072
0.05448480695486069 -0.7400242686271667 1.045484185218811
0.05202082544565201 -0.7420685887336731 1.0491141080856323
0.047675780951976776 -0.7245141863822937 1.0202840566635132
0.1296572983264923 -0.39680472016334534 0.9250386357307434
0.11591048538684845 -0.4063430428504944 0.9133184552192688
0.05480422079563141 -0.6585317850112915 0.9699563384056091
0.0507938489317894 -0.6805778741836548 0.9782330393791199
0.04968086630105972 -0.6958184242248535 0.9923498630523682
0.12624013423919678 -0.4637908935546875 0.9887377023696899
0.12013058364391327 -0.47949397563934326 0.9908664226531982
0.12157594412565231 -0.48878175020217896 0.9874621629714966
0.10194602608680725 -0.5884153842926025 1.0350631475448608
0.09508965164422989 -0.5963514447212219 1.0283033847808838
0.08481941372156143 -0.6376814246177673 1.0379434823989868
0.09525406360626221 -0.5667333006858826 1.0201218128204346
0.07383432239294052 -0.6381456851959229 0.983873188495636
0.061879850924015045 -0.6656191945075989 0.9857461452484131
0.12764078378677368 -0.46345147490501404 0.9842584729194641
0.10103674232959747 -0.5758866667747498 1.0053818225860596
0.10538230836391449 -0.5615692138671875 0.997387170791626
0.09920378029346466 -0.5880454778671265 1.0095902681350708
0.06118069961667061 -0.7055222988128662 1.0217639207839966
0.06139335781335831 -0.6962931156158447 1.0119444131851196
0.08421967923641205 -0.5641606450080872 0.9581515789031982
0.0932035967707634 -0.5667028427124023 0.9704916477203369
0.08557570725679398 -0.5818047523498535 0.9757184982299805
0.09220310300588608 -0.583609402179718 0.9837160706520081
0.1119537353515625 -0.5209086537361145 0.9902238249778748
0.10176382958889008 -0.5488117933273315 0.9967265725135803
0.08627419173717499 -0.6355520486831665 1.0187382698059082
0.08017075806856155 -0.6545165777206421 1.0157886743545532
0.07606062293052673 -0.6587774157524109 1.0227406024932861
0.08338355273008347 -0.6284252405166626 0.9949545860290527
0.08191907405853271 -0.6355870962142944 0.9913913011550903
0.10082218050956726 -0.535619854927063 0.9591013789176941
0.09560514241456985 -0.5493782758712769 0.9604524374008179
0.09710030257701874 -0.5259352922439575 0.9452826976776123
0.09456270188093185 -0.5441542863845825 0.9525758028030396
0.09115742146968842 -0.5558552742004395 0.962029755115509
0.10543700307607651 -0.51849365234375 0.96628737449646
0.11402663588523865 -0.5067553520202637 0.9686691164970398
0.1041984111070633 -0.4979121685028076 0.9447402954101562
0.10971873998641968 -0.5072002410888672 0.9586676359176636
0.07666191458702087 -0.6430041790008545 0.9976012706756592
0.07629963755607605 -0.6596620082855225 1.0033117532730103
0.07307134568691254 -0.6519217491149902 0.9983514547348022
0.08247127383947372 -0.6537467837333679 0.9998459815979004
0.13742509484291077 -0.4114004671573639 0.9375102519989014
0.059002045542001724 -0.6142418384552002 1.0165672302246094
0.05244852975010872 -0.6245288848876953 1.0093939304351807
0.07404113560914993 -0.5623289346694946 1.0003623962402344
0.07272269576787949 -0.5605398416519165 0.9956939220428467
0.06824804097414017 -0.5732028484344482 1.0061885118484497
0.06938133388757706 -0.5646941661834717 0.9943269491195679
0.06872158497571945 -0.5759916305541992 1.0023548603057861
0.08224606513977051 -0.5353495478630066 0.9790481925010681
0.07669989764690399 -0.5428780317306519 0.9795445799827576
0.08478593081235886 -0.5168651342391968 0.9749449491500854
0.07539833337068558 -0.5740785002708435 1.0086348056793213
0.05614257976412773 -0.6401682496070862 0.982046365737915
0.051071248948574066 -0.6518698334693909 1.0072531700134277
0.07351378351449966 -0.5631667375564575 0.9752187132835388
0.04986773431301117 -0.6702114343643188 1.0165132284164429
0.046786315739154816 -0.6882505416870117 1.0160677433013916
0.04738058149814606 -0.6754162907600403 1.008364200592041
0.045224979519844055 -0.7013265490531921 1.0265687704086304
0.12064167112112045 -0.38771921396255493 0.947003960609436
0.12998712062835693 -0.42900145053863525 1.0103862285614014
0.12600994110107422 -0.43494337797164917 1.004389762878418
0.13062651455402374 -0.4381450414657593 1.0092346668243408
0.09812816977500916 -0.4574417769908905 0.9336215257644653
0.16409429907798767 -0.24934200942516327 0.9514549374580383
0.17570710182189941 -0.26542338728904724 0.9905469417572021
0.1703610122203827 -0.2745450735092163 0.9856333136558533
0.16522449254989624 -0.27201908826828003 0.9781831502914429
0.1017548143863678 -0.5323941111564636 1.0043597221374512
0.07453097403049469 -0.6478481888771057 1.046401023864746
0.04369157925248146 -0.7066963911056519 1.0071488618850708
0.14845049381256104 -0.3031711280345917 0.9501206278800964
0.14507217705249786 -0.3289704918861389 0.9422668218612671
0.1094919815659523 -0.5128210783004761 1.0083436965942383
0.10232196748256683 -0.5186313390731812 1.0029797554016113
0.09479203820228577 -0.5522035956382751 1.0085124969482422
0.04737496003508568 -0.7124104499816895 1.008905291557312
0.05176205188035965 -0.7364273071289062 1.0532665252685547
0.0494312047958374 -0.7419115900993347 1.0567702054977417
0.0449710488319397 -0.7378218770027161 1.0397483110427856
0.13109615445137024 -0.3677130937576294 0.9443738460540771
0.13092496991157532 -0.38527294993400574 0.9459611773490906
0.10072889924049377 -0.5538327097892761 1.006787896156311
0.11463543027639389 -0.3913218677043915 0.9286215901374817
0.047251369804143906 -0.6921243667602539 0.9860939979553223
0.15112951397895813 -0.39648890495300293 1.0224108695983887
0.15214455127716064 -0.3964112401008606 1.0197083950042725
0.14572054147720337 -0.40450218319892883 1.0094726085662842
0.1488460898399353 -0.4112064242362976 1.0185728073120117
0.14615070819854736 -0.42214149236679077 1.0223636627197266
0.13413070142269135 -0.4036885201931 0.9904254674911499
0.1429772526025772 -0.40599513053894043 0.9939759373664856
0.050818562507629395 -0.7443580031394958 1.0589317083358765
0.07781630009412766 -0.5742368698120117 0.961850643157959
0.07812274992465973 -0.5850730538368225 0.9688348770141602
0.07412263751029968 -0.586566686630249 0.9698502421379089
0.07778427749872208 -0.5586702227592468 0.9495906829833984
0.15111508965492249 -0.4102504253387451 1.016704797744751
0.15048563480377197 -0.4211497902870178 1.0192615985870361
0.1127418503165245 -0.4097933769226074 0.902612566947937
0.15386520326137543 -0.40343788266181946 1.0163933038711548
0.14975829422473907 -0.4082518517971039 1.0093226432800293
0.09928072243928909 -0.5793240666389465 1.0261191129684448
0.10655702650547028 -0.41229212284088135 0.8786237239837646
0.10334169864654541 -0.41010189056396484 0.8728868365287781
0.09697562456130981 -0.4188370108604431 0.8648788928985596
0.09770683944225311 -0.4281119704246521 0.8704096078872681
0.1391879767179489 -0.3944382667541504 0.9437413811683655
0.14404582977294922 -0.4297402799129486 1.0052706003189087
0.09154001623392105 -0.5987710952758789 1.0161055326461792
0.08918768912553787 -0.6156324148178101 1.0208693742752075
0.11273765563964844 -0.42066413164138794 0.9013233780860901
0.11135013401508331 -0.4298469126224518 0.9007075428962708
0.10763566195964813 -0.4236246943473816 0.8887214064598083
0.09010346978902817 -0.6152485013008118 1.0131219625473022
0.09186612069606781 -0.6000881195068359 1.0047465562820435
0.0878717377781868 -0.6053497195243835 0.9925655126571655
0.09356372803449631 -0.5904889702796936 0.9904390573501587
0.06248495355248451 -0.6783831119537354 0.9959864616394043
0.06502555310726166 -0.6811118125915527 1.0017766952514648
0.12378014624118805 -0.4218224585056305 0.9164637327194214
0.1369878500699997 -0.4265284538269043 0.9591296911239624
0.13011278212070465 -0.44688618183135986 0.9568621516227722
0.13231869041919708 -0.4378613829612732 0.9483597874641418
0.12521997094154358 -0.4588574767112732 0.9591737389564514
0.11921511590480804 -0.46589764952659607 0.9518746733665466
0.0913495272397995 -0.6213890314102173 0.9980258345603943
0.09178119897842407 -0.6122572422027588 0.9957789778709412
0.08687762916088104 -0.6436746716499329 1.0095782279968262
0.11116205900907516 -0.5613892078399658 0.986987829208374
0.10313497483730316 -0.5849923491477966 0.9964514374732971
0.10368077456951141 -0.565948486328125 0.9888516068458557
0.10133947432041168 -0.5744709372520447 0.9848706722259521
0.1042492538690567 -0.5816456079483032 0.991027295589447
0.10249590128660202 -0.5701131820678711 0.9912322759628296
0.1008584201335907 -0.5862414240837097 0.9899504780769348
0.08728642761707306 -0.6545084118843079 1.0080927610397339
0.08702962100505829 -0.647223711013794 0.9988037347793579
0.05620219185948372 -0.6290543675422668 1.0207033157348633
0.05183762311935425 -0.643854022026062 1.0208455324172974
0.05351010710000992 -0.6276286244392395 1.0049242973327637
0.05292889475822449 -0.6449375152587891 1.0128824710845947
0.11878830194473267 -0.42400556802749634 0.9948443174362183
0.10472055524587631 -0.4109959602355957 0.9359660148620605
0.10049539804458618 -0.4221908748149872 0.9315568804740906
0.11806422472000122 -0.398174911737442 0.9708435535430908
0.07080214470624924 -0.6219114661216736 1.0210312604904175
0.06741934269666672 -0.6037439107894897 0.9972131252288818
0.09752952307462692 -0.4543893337249756 0.9561958312988281
0.0953674390912056 -0.4608536958694458 0.9457118511199951
0.11392884701490402 -0.43685728311538696 0.9889510869979858
0.1122066080570221 -0.4527708888053894 0.9881809949874878
0.07030311226844788 -0.5955389738082886 0.9957144856452942
0.06990119069814682 -0.6324206590652466 1.0256344079971313
0.09565064311027527 -0.48153379559516907 0.955183744430542
0.08742385357618332 -0.5087575316429138 0.9672808647155762
0.0865831971168518 -0.49932169914245605 0.9504669308662415
0.07218754291534424 -0.5786217451095581 0.987343430519104
0.056065633893013 -0.6911729574203491 1.0295078754425049
0.048596084117889404 -0.717841625213623 1.0335832834243774
0.04641261696815491 -0.7153061628341675 1.0180437564849854
0.13696704804897308 -0.4206022620201111 1.0191383361816406
0.12756435573101044 -0.4491739869117737 1.0135043859481812
0.11031405627727509 -0.48554056882858276 0.9952378869056702
0.10768004506826401 -0.505946695804596 1.0020020008087158
0.08451958000659943 -0.510326087474823 0.9460999965667725
0.12932416796684265 -0.4607637822628021 1.0216608047485352
0.12222661077976227 -0.44641441106796265 0.9926151037216187
0.12096814811229706 -0.45970070362091064 0.9914976358413696
0.07185004651546478 -0.6634513139724731 1.043505311012268
0.06206868588924408 -0.6821108460426331 1.0362910032272339
0.06993510574102402 -0.5882912278175354 0.9744714498519897
0.14538852870464325 -0.3432285189628601 0.9677932858467102
0.14746145904064178 -0.33018118143081665 0.9684112668037415
0.07429220527410507 -0.5319797396659851 0.9283231496810913
0.11285275220870972 -0.5000275373458862 0.9974040389060974
0.11487141251564026 -0.5132633447647095 1.0105717182159424
0.07570646703243256 -0.6582701206207275 1.0457549095153809
0.07566297054290771 -0.6618690490722656 1.0423446893692017
0.0696209967136383 -0.673862099647522 1.0402271747589111
0.10249150544404984 -0.43323951959609985 0.8990002870559692
0.09964645653963089 -0.44509172439575195 0.8975598812103271
0.09547145664691925 -0.4457014501094818 0.8988161087036133
0.09735272824764252 -0.4274451732635498 0.8930036425590515
0.10179384797811508 -0.4272976517677307 0.8893846869468689
0.0961645171046257 -0.4280485510826111 0.8752859830856323
0.09713038802146912 -0.4535755217075348 0.9185070395469666
0.09190084040164948 -0.4272504448890686 0.8724426031112671
0.08961266279220581 -0.4359743893146515 0.8645590543746948
0.13646818697452545 -0.39273130893707275 0.9688648581504822
0.13925805687904358 -0.39913222193717957 0.9709200859069824
0.12594196200370789 -0.3900231719017029 0.9416216611862183
0.13929010927677155 -0.4279768764972687 1.0132975578308105
0.1346389353275299 -0.43571752309799194 1.0074553489685059
0.0995769202709198 -0.5902121067047119 1.0459195375442505
0.09948165714740753 -0.5860527753829956 1.0459927320480347
0.09737347066402435 -0.5809135437011719 1.0344810485839844
0.09646768867969513 -0.4321567416191101 0.8624874353408813
0.09165573120117188 -0.4190271496772766 0.8632379770278931
0.10134850442409515 -0.4549812376499176 0.915095865726471
0.06711465120315552 -0.6259458065032959 0.9787997603416443
0.058957748115062714 -0.6427247524261475 0.9754546284675598
0.14560666680335999 -0.41175681352615356 0.9939786195755005
0.141561359167099 -0.3806837797164917 0.9678429365158081
0.07911422848701477 -0.6517587900161743 1.0273048877716064
0.08101573586463928 -0.5321880578994751 0.931425929069519
0.1703115701675415 -0.2796001732349396 0.9508980512619019
0.16593517363071442 -0.2917413115501404 0.9499975442886353
0.08574911952018738 -0.5379164218902588 0.9362596273422241
0.14708742499351501 -0.3741582930088043 0.9559374451637268
0.14202585816383362 -0.38947594165802 0.9597212076187134
0.1392931044101715 -0.38750794529914856 0.9490838050842285
0.08615007996559143 -0.6186429858207703 0.9959712028503418
0.12810322642326355 -0.4044426679611206 0.9214102029800415
0.0987001582980156 -0.518790066242218 0.9503828287124634
0.14456698298454285 -0.40424612164497375 0.9598386287689209
0.13978156447410583 -0.41810959577560425 0.9608170986175537
0.14420300722122192 -0.4186720550060272 0.9834381937980652
0.13789914548397064 -0.42924678325653076 0.9699181914329529
0.14214004576206207 -0.39588916301727295 0.9487029314041138
0.1358788162469864 -0.3971532881259918 0.9363074898719788
0.09444205462932587 -0.6198944449424744 1.0037074089050293
0.0756344273686409 -0.541095495223999 0.9970099925994873
0.07333403080701828 -0.541394054889679 0.9935944080352783
0.0780024379491806 -0.5519124269485474 1.0010005235671997
0.0735996812582016 -0.5394371747970581 0.9876915216445923
0.06926686316728592 -0.5532993674278259 0.9963588118553162
0.0668770968914032 -0.6008062362670898 1.014037847518921
0.0680350735783577 -0.6085734963417053 1.0188679695129395
0.07540037482976913 -0.5599766969680786 0.9915286302566528
0.07167105376720428 -0.5687364339828491 0.9847033619880676
0.0691722184419632 -0.5860714912414551 1.000321388244629
0.0709935799241066 -0.5902794599533081 1.0111769437789917
0.10099580883979797 -0.44168686866760254 0.9544801712036133
0.12532088160514832 -0.4230031967163086 1.0062466859817505
0.12938614189624786 -0.4084944725036621 0.9946343302726746
0.12924790382385254 -0.37037408351898193 0.9648657441139221
0.1269928365945816 -0.36425185203552246 0.9559609293937683
0.0758650079369545 -0.558974027633667 0.957388162612915
0.08109361678361893 -0.5222460627555847 0.9503086805343628
0.07326669991016388 -0.5419929027557373 0.9264965057373047
0.07640565186738968 -0.5358916521072388 0.9523738026618958
0.16910913586616516 -0.2821961045265198 0.985338032245636
0.17029061913490295 -0.256990522146225 0.9657467603683472
0.16535094380378723 -0.2683006525039673 0.9705156087875366
0.16453112661838531 -0.2693127989768982 0.961652398109436
0.15597113966941833 -0.2782788574695587 0.9576765298843384
0.14121830463409424 -0.3317764401435852 0.945167064666748
0.13592341542243958 -0.3480362594127655 0.944819450378418
0.1448289155960083 -0.3996257483959198 1.0192359685897827
0.09422967582941055 -0.590251088142395 1.0454680919647217
0.07850002497434616 -0.6232007145881653 1.0379958152770996
0.050358742475509644 -0.6564649343490601 0.9693836569786072
0.05246910825371742 -0.6532774567604065 0.9727076888084412
0.09840922057628632 -0.4101697504520416 0.8723852634429932
0.09180945158004761 -0.41869819164276123 0.8667482137680054
0.15491515398025513 -0.332801878452301 0.9662830829620361
0.14914797246456146 -0.3465835452079773 0.9660243391990662
0.0962599664926529 -0.5869840383529663 1.0491185188293457
0.09614870697259903 -0.4987163841724396 0.9368818402290344
0.09567993134260178 -0.5109163522720337 0.9416518211364746
0.11412738263607025 -0.5077618956565857 0.9996773600578308
0.10937141627073288 -0.5201225280761719 1.0010052919387817
0.10616346448659897 -0.5364772081375122 1.0018763542175293
0.11677194386720657 -0.4478946030139923 0.9240761995315552
0.16806146502494812 -0.3032723069190979 0.9612030982971191
0.1608458012342453 -0.31053000688552856 0.9512033462524414
0.06503713876008987 -0.6876681447029114 1.0083997249603271
0.12876133620738983 -0.4642731845378876 0.9759566783905029
0.12404826283454895 -0.4781946539878845 0.9671944379806519
0.12132780253887177 -0.44715023040771484 0.938219428062439
0.11500704288482666 -0.4416998624801636 0.9140181541442871
0.10866519808769226 -0.4614642262458801 0.9299064874649048
0.13375180959701538 -0.43865859508514404 0.965450644493103
0.13904474675655365 -0.43714067339897156 0.981503963470459
0.13440898060798645 -0.447022408246994 0.9791684150695801
0.13267263770103455 -0.45052170753479004 0.9654176831245422
0.11188483983278275 -0.4204755425453186 0.971795916557312
0.11368493735790253 -0.39713844656944275 0.9556500911712646
0.1100669875741005 -0.41013914346694946 0.9645673632621765
0.10690857470035553 -0.4160814881324768 0.9541873335838318
0.06092027574777603 -0.6214016079902649 1.0018333196640015
0.1003345176577568 -0.41609564423561096 0.9250906109809875
0.06428033858537674 -0.6557296514511108 1.028681993484497
0.09171295911073685 -0.4700673818588257 0.9442459344863892
0.15451543033123016 -0.296133816242218 0.9683746099472046
0.14837665855884552 -0.30462634563446045 0.9613768458366394
0.1488150954246521 -0.30053338408470154 0.9536774158477783
0.12482419610023499 -0.4423381984233856 0.9946314096450806
0.12662309408187866 -0.45695483684539795 1.0141879320144653
0.1265048384666443 -0.4471660554409027 1.0011142492294312
0.09732446819543839 -0.4303399920463562 0.9004290699958801
0.08640222996473312 -0.4313889741897583 0.8639183640480042
0.06939008831977844 -0.6036173105239868 0.9772959351539612
0.06694426387548447 -0.6141219735145569 0.9772974252700806
0.06171400099992752 -0.6229702234268188 0.9811646938323975
0.1320464313030243 -0.3973180651664734 0.973780632019043
0.13243833184242249 -0.4586271643638611 1.0172878503799438
0.1260327398777008 -0.4620630145072937 1.0153051614761353
0.1275363564491272 -0.455818235874176 1.004150152206421
0.12348265945911407 -0.4521838128566742 0.9895463585853577
0.04617695510387421 -0.678233802318573 0.9767719507217407
0.04689051955938339 -0.7065621614456177 1.001537561416626
0.16889464855194092 -0.2687757611274719 0.9591811895370483
0.16911467909812927 -0.253007173538208 0.9424021244049072
0.16972720623016357 -0.2573436498641968 0.9548892974853516
0.16877564787864685 -0.26581820845603943 0.9544896483421326
0.16619524359703064 -0.2688194513320923 0.9467377662658691
0.1618988960981369 -0.2587437033653259 0.9392626881599426
0.16161595284938812 -0.2714582085609436 0.9426454305648804
0.10279936343431473 -0.46137917041778564 0.9253785014152527
0.15877844393253326 -0.2856506109237671 0.9377875924110413
0.15463396906852722 -0.32889631390571594 0.946618914604187
0.1463683545589447 -0.3424409329891205 0.9439493417739868
0.1510544717311859 -0.3541540205478668 0.9565362930297852
0.14137345552444458 -0.401645302772522 0.965204119682312
0.14427706599235535 -0.4066507816314697 0.9795140027999878
0.1093200147151947 -0.4428800344467163 0.9060264825820923
0.11810165643692017 -0.5093319416046143 0.9773814678192139
0.11506211757659912 -0.49019384384155273 0.9596091508865356
0.09445919841527939 -0.6102426052093506 1.0012246370315552
0.11632031202316284 -0.5292561650276184 0.9785171747207642
0.11094247549772263 -0.5473307371139526 0.9844375848770142
0.11502214521169662 -0.5426578521728516 0.9789531230926514
0.10957179963588715 -0.5614986419677734 0.9830529689788818
0.09391210228204727 -0.5028226375579834 0.9869612455368042
0.08407190442085266 -0.5133741497993469 0.9860669374465942
0.0993732288479805 -0.48541921377182007 0.9894803166389465
0.08803422003984451 -0.5030982494354248 0.9770723581314087
0.048932865262031555 -0.6644013524055481 0.9928176999092102
0.12830854952335358 -0.3686124384403229 0.9485672116279602
0.1238308697938919 -0.3838445544242859 0.9494943022727966
0.12324164807796478 -0.3842902183532715 0.9634506702423096
0.1370798647403717 -0.34109288454055786 0.9620364308357239
0.13674446940422058 -0.3510986566543579 0.9654200673103333
0.0880783200263977 -0.5847983956336975 1.03313410282135
0.0852961391210556 -0.590024471282959 1.0299756526947021
0.09497737884521484 -0.5692759156227112 1.024426817893982
0.06161019578576088 -0.6344708204269409 0.9776558876037598
0.10416635870933533 -0.38414615392684937 0.87261563539505
0.10084964334964752 -0.39310866594314575 0.8712878823280334
0.16938871145248413 -0.24609237909317017 0.9474232196807861
0.16381092369556427 -0.24944674968719482 0.9421000480651855
0.1731557846069336 -0.2950119972229004 0.9912698268890381
0.17195285856723785 -0.29912248253822327 0.9874339699745178
0.06653597950935364 -0.6824820041656494 1.034126877784729
0.059441737830638885 -0.6975657939910889 1.0286495685577393
0.06976471096277237 -0.6771847009658813 1.0089175701141357
0.09876225888729095 -0.48859715461730957 0.9320991039276123
0.1750597059726715 -0.270214319229126 0.9728155136108398
0.1750539392232895 -0.27208542823791504 0.9768306612968445
0.17494641244411469 -0.2839711904525757 0.9740727543830872
0.14074444770812988 -0.433214008808136 0.9936367869377136
0.09715890139341354 -0.5895861387252808 0.9986928701400757
0.1262805163860321 -0.4157804250717163 0.9194746613502502
0.12476494908332825 -0.42776745557785034 0.9270777702331543
0.06200385093688965 -0.6022089719772339 1.0081062316894531
0.06092313677072525 -0.6122742295265198 1.0095332860946655
0.12004432082176208 -0.40873631834983826 0.9824146628379822
0.09681351482868195 -0.4638125002384186 0.9606378674507141
0.09270565211772919 -0.4798544645309448 0.9699138402938843
0.12867112457752228 -0.392583429813385 0.9700444936752319
0.1566835641860962 -0.27037373185157776 0.9458380341529846
0.15269233286380768 -0.28152596950531006 0.9431895613670349
0.15278184413909912 -0.28466951847076416 0.939175546169281
0.16984009742736816 -0.29104509949684143 0.9926841259002686
0.1663150191307068 -0.29300418496131897 0.9907140731811523
0.1606191098690033 -0.292208194732666 0.9760634303092957
0.05421426147222519 -0.6949501037597656 1.0326775312423706
0.07650352269411087 -0.545382559299469 0.9388424158096313
0.0720658078789711 -0.5378210544586182 0.918895959854126
0.16007286310195923 -0.25834426283836365 0.9419346451759338
0.08313217014074326 -0.6306523680686951 1.043138027191162
0.07857309281826019 -0.6448408365249634 1.049424409866333
0.14343632757663727 -0.36743244528770447 0.9691874980926514
0.13585589826107025 -0.3794592022895813 0.9713653922080994
0.08953883498907089 -0.43029648065567017 0.8596863746643066
0.17496034502983093 -0.2784065902233124 0.9826185703277588
0.17670613527297974 -0.25629013776779175 0.9664486646652222
0.1692945659160614 -0.2666179835796356 0.9663681983947754
0.10718764364719391 -0.3873428702354431 0.8702032566070557
0.11180846393108368 -0.40260595083236694 0.8898690938949585
0.16035687923431396 -0.32243555784225464 0.9587613940238953
0.07806690037250519 -0.5519342422485352 0.9418846368789673
0.07826729863882065 -0.5392215251922607 0.9193605780601501
0.11759582906961441 -0.5136657357215881 1.0083268880844116
0.09626965969800949 -0.5604264736175537 0.975984513759613
0.10007434338331223 -0.5616669654846191 0.9813709259033203
0.10893175005912781 -0.5283024907112122 0.9690168499946594
0.10467034578323364 -0.5404760241508484 0.973214864730835
0.10411548614501953 -0.45724859833717346 0.9758343696594238
0.099652960896492 -0.4945388734340668 0.996052622795105
0.0942339077591896 -0.514640212059021 0.994452714920044
0.07200652360916138 -0.5703715085983276 0.9624956846237183
0.10377327352762222 -0.40222159028053284 0.8904423713684082
0.09830450266599655 -0.4103597104549408 0.8779588341712952
0.09732569009065628 -0.42144396901130676 0.8973448276519775
0.133261576294899 -0.44725048542022705 1.0118324756622314
0.12613308429718018 -0.44558507204055786 0.9962998628616333
0.0825672522187233 -0.6448358297348022 1.0458029508590698
0.17018570005893707 -0.28528010845184326 0.9628209471702576
0.1494801789522171 -0.3600492477416992 0.9617424011230469
0.1427079141139984 -0.3654242157936096 0.945857048034668
0.11536156386137009 -0.423541784286499 0.9833316802978516
0.1066650003194809 -0.43399330973625183 0.9729406833648682
0.10497339069843292 -0.44159790873527527 0.9754007458686829
0.10123930126428604 -0.4297257661819458 0.9621153473854065
0.1175353154540062 -0.38960200548171997 0.95377516746521
0.13821952044963837 -0.32703983783721924 0.9524866342544556
0.14106233417987823 -0.4098919630050659 1.01727294921875
0.13897354900836945 -0.4062783420085907 1.012839674949646
0.0755063146352768 -0.6034674644470215 0.9782567024230957
0.13541097939014435 -0.4399818181991577 0.9895666837692261
0.12881822884082794 -0.4487383961677551 0.9880232810974121
0.12019196897745132 -0.41149213910102844 0.9123470783233643
0.1147649735212326 -0.5095822811126709 0.9952915906906128
0.11245168745517731 -0.5166239738464355 0.9988861083984375
0.11569817364215851 -0.46892040967941284 0.9469630718231201
0.09731436520814896 -0.5753264427185059 0.9807912111282349
0.10194803774356842 -0.4309086799621582 0.9363927841186523
0.0676296204328537 -0.6055658459663391 0.9840831756591797
0.13703422248363495 -0.36532557010650635 0.970191240310669
0.17011336982250214 -0.25489237904548645 0.9590249061584473
0.17751923203468323 -0.2670406699180603 0.9912992715835571
0.16341286897659302 -0.2971430718898773 0.9764229655265808
0.16103534400463104 -0.30347102880477905 0.970116376876831
0.15886546671390533 -0.3144577145576477 0.9656037092208862
0.055304981768131256 -0.7114946842193604 1.0338679552078247
0.05316144600510597 -0.7274262309074402 1.0417912006378174
0.17023636400699615 -0.2958161234855652 0.9737474322319031
0.05042856186628342 -0.717332661151886 1.015685796737671
0.05535490810871124 -0.7179357409477234 1.03262197971344
0.1297360360622406 -0.4455193877220154 0.9951767325401306
0.10206376016139984 -0.4874861538410187 0.9352473616600037
0.09764572978019714 -0.4766201972961426 0.9250959157943726
0.07083499431610107 -0.6697047352790833 1.0070433616638184
0.12200694531202316 -0.4897100627422333 0.9792276620864868
0.07839150726795197 -0.5847209692001343 1.016435980796814
0.0742378830909729 -0.5841599106788635 1.0088083744049072
0.15190424025058746 -0.30568620562553406 0.966333270072937
0.152428537607193 -0.3136560320854187 0.9677702784538269
0.14562556147575378 -0.4247322380542755 1.0011383295059204
0.11039476841688156 -0.4807647466659546 0.9495389461517334
0.14221453666687012 -0.43409666419029236 0.9813761711120605
0.1353478878736496 -0.4203486144542694 0.9444141983985901
0.11833786964416504 -0.43107202649116516 0.9950730800628662
0.1631709635257721 -0.26022398471832275 0.9558544158935547
0.159126877784729 -0.29878902435302734 0.9456079006195068
0.1534205824136734 -0.2959737181663513 0.9424634575843811
0.15592680871486664 -0.3054257929325104 0.9463388919830322
0.13854315876960754 -0.368106484413147 0.9431893825531006
0.1534397304058075 -0.34641557931900024 0.9502027630805969
0.10831233859062195 -0.4741600751876831 0.9362021684646606
0.11566872894763947 -0.4813533425331116 0.9581025838851929
0.09993958473205566 -0.5497171878814697 0.9693649411201477
0.1143130362033844 -0.5156266093254089 0.974872350692749
0.0803942084312439 -0.5235965251922607 0.9876517653465271
