-0.544702410697937 0.1489877998828888 1.2258260250091553
-0.5478654503822327 0.14643296599388123 1.2836847305297852
-0.5265887975692749 0.1346498280763626 1.2551097869873047
-0.5226848125457764 0.12400759756565094 1.2270631790161133
-0.5232740044593811 0.12333354353904724 1.1825577020645142
-0.5356547832489014 0.12367255240678787 1.290386438369751
-0.5185772180557251 0.14375285804271698 1.3032053709030151
-0.5465883016586304 0.14297619462013245 1.3713078498840332
-0.553070604801178 0.12050488591194153 1.3648061752319336
-0.5361887812614441 0.1412530541419983 1.3629999160766602
-0.514832079410553 0.13494080305099487 1.3527997732162476
-0.5198528170585632 0.12651774287223816 1.3581197261810303
-0.5283897519111633 0.1267741173505783 1.3366929292678833
-0.5215800404548645 0.12413910776376724 1.3960270881652832
-0.5256616473197937 0.1255233883857727 1.2569156885147095
-0.4909195899963379 0.1301361620426178 1.2871836423873901
-0.5259316563606262 0.1402360200881958 1.444543719291687
-0.5294293165206909 0.12982654571533203 1.443261981010437
-0.49473056197166443 0.09593328833580017 1.4412891864776611
-0.5014752745628357 0.12798570096492767 1.4287678003311157
-0.508085310459137 0.12636907398700714 1.4730056524276733
-0.4994127154350281 0.10679702460765839 1.424312949180603
-0.49910613894462585 0.13546442985534668 1.4667165279388428
-0.49012839794158936 0.12813888490200043 1.50190269947052
-0.4953645169734955 0.11260287463665009 1.492126226425171
-0.4908076524734497 0.10224802792072296 1.5326825380325317
-0.5032063722610474 0.10484146326780319 1.562102198600769
-0.5008322596549988 0.1076105460524559 1.5547223091125488
-0.503585159778595 0.1017664447426796 1.5439057350158691
-0.4899713099002838 0.10979389399290085 1.5410665273666382
-0.47472646832466125 0.09661209583282471 1.5944997072219849
-0.46299290657043457 0.07563396543264389 1.5556191205978394
-0.4534685015678406 0.09436263144016266 1.5855445861816406
-0.4955800175666809 0.08973322808742523 1.6131618022918701
-0.48886844515800476 0.10431227087974548 1.6148264408111572
-0.47830870747566223 0.08735784143209457 1.5911256074905396
-0.4494715929031372 0.07010500878095627 1.6452568769454956
-0.452472984790802 0.06213577091693878 1.6353219747543335
-0.4400872588157654 0.08439737558364868 1.6454864740371704
-0.40514153242111206 0.054212041199207306 1.6215155124664307
-0.4130762815475464 0.07656063139438629 1.6764172315597534
-0.38154852390289307 0.04837469756603241 1.667426586151123
-0.40095260739326477 0.07889966666698456 1.6267616748809814
-0.35903868079185486 0.06115913763642311 1.6720349788665771
-0.3429342806339264 0.04265793412923813 1.6757891178131104
-0.34280458092689514 0.06952855736017227 1.6473209857940674
-0.33270949125289917 0.07622155547142029 1.6742832660675049
-0.3209034502506256 0.05502115935087204 1.66383957862854
-0.3073124289512634 0.05444437637925148 1.618256688117981
-0.31192296743392944 0.023516643792390823 1.6554913520812988
-0.3085779547691345 0.0345369428396225 1.5468459129333496
-0.288669615983963 0.02410888671875 1.607980489730835
-0.24496950209140778 0.0409453846514225 1.5441036224365234
-0.263774573802948 0.029403410851955414 1.5800848007202148
-0.2776014804840088 0.037493325769901276 1.613606572151184
-0.24534375965595245 0.015409436076879501 1.5357218980789185
-0.2069488912820816 0.03633260354399681 1.5026029348373413
-0.20410653948783875 0.013920985162258148 1.4760056734085083
-0.22913523018360138 0.01733219251036644 1.532178521156311
-0.23636792600154877 0.05303744971752167 1.4937185049057007
-0.12851357460021973 -0.010489124804735184 1.3649036884307861
-0.17320585250854492 0.021006669849157333 1.449439525604248
-0.1550959199666977 0.00724443793296814 1.4094963073730469
-0.12196332216262817 0.02481815218925476 1.3364189863204956
-0.1209854707121849 0.0030443966388702393 1.3709793090820312
-0.11321283876895905 0.011469468474388123 1.3612046241760254
-0.11856076121330261 0.021049484610557556 1.3178141117095947
-0.07607411593198776 -0.019118135794997215 1.3195855617523193
-0.05526953935623169 -0.007235273718833923 1.325114130973816
-0.061287540942430496 -0.00138893723487854 1.3489360809326172
-0.059585656970739365 -0.023193132132291794 1.3373968601226807
0.03907892480492592 -0.03435976058244705 1.3503564596176147
0.0504654124379158 -0.0396181158721447 1.3229986429214478
0.04547698795795441 -0.05242091417312622 1.336187481880188
0.046586912125349045 -0.024737617000937462 1.3385143280029297
0.08185696601867676 -0.04639371111989021 1.3622446060180664
0.08317811042070389 -0.030690304934978485 1.358925223350525
0.10164174437522888 -0.04430432990193367 1.3081927299499512
0.12431488186120987 -0.05417434126138687 1.3670990467071533
0.10603207349777222 -0.052038248628377914 1.3079309463500977
0.1174079030752182 -0.049575939774513245 1.3858397006988525
0.11555084586143494 -0.03081570751965046 1.3149912357330322
0.11954763531684875 -0.031874995678663254 1.3848719596862793
0.140311598777771 -0.0323873795568943 1.4320546388626099
0.15274550020694733 -0.04048433154821396 1.4889798164367676
0.17044654488563538 -0.05880413204431534 1.3495194911956787
0.15779507160186768 -0.05199412256479263 1.5117483139038086
0.16962078213691711 -0.06111658737063408 1.4251141548156738
0.17162060737609863 -0.03393695876002312 1.5055242776870728
0.1820460855960846 -0.04227052256464958 1.572235345840454
0.193695068359375 -0.03223700821399689 1.580651879310608
0.19767382740974426 -0.03617524355649948 1.6123108863830566
0.1958804428577423 -0.04743662476539612 1.6334450244903564
0.20819899439811707 -0.05913698673248291 1.6421706676483154
0.2301844358444214 -0.05347572639584541 1.660539150238037
0.2574537396430969 -0.03199531510472298 1.6458029747009277
0.23355761170387268 -0.03700505197048187 1.6638884544372559
0.2626799941062927 -0.06283264607191086 1.6248400211334229
0.3092297911643982 -0.04939214140176773 1.5399444103240967
0.25854507088661194 -0.05584683269262314 1.654991865158081
0.3070376515388489 -0.0457768440246582 1.6628412008285522
0.30325454473495483 -0.062329404056072235 1.658892035484314
0.3556399345397949 -0.07359538227319717 1.629691481590271
0.3177090883255005 -0.07126833498477936 1.5982850790023804
0.33687543869018555 -0.09186772257089615 1.496962308883667
0.34207144379615784 -0.057944126427173615 1.4485390186309814
0.3539552092552185 -0.05493715777993202 1.642696738243103
0.4369528889656067 -0.08814258873462677 1.5725314617156982
0.3667454719543457 -0.06066596508026123 1.641876459121704
0.4019509553909302 -0.07577380537986755 1.623008370399475
0.3783789277076721 -0.06250923126935959 1.591955542564392
0.4043698012828827 -0.061050720512866974 1.6286046504974365
0.43679994344711304 -0.07033366709947586 1.5841223001480103
0.43566960096359253 -0.06584083288908005 1.56009042263031
0.3915826678276062 -0.07966756820678711 1.567711353302002
0.40827932953834534 -0.07114916294813156 1.6008754968643188
0.4329705238342285 -0.08146685361862183 1.5502114295959473
0.4580446481704712 -0.06514061242341995 1.5133533477783203
0.4633728563785553 -0.07797516137361526 1.510620355606079
0.4689892530441284 -0.06908249855041504 1.4754165410995483
0.4796810448169708 -0.09016823023557663 1.468265414237976
0.5147974491119385 -0.06526961177587509 1.4877406358718872
0.5066779851913452 -0.0805349051952362 1.4858462810516357
0.5119566917419434 -0.07479816675186157 1.4437847137451172
0.49420252442359924 -0.08181218802928925 1.470386266708374
0.5087155103683472 -0.08072921633720398 1.4006352424621582
0.5092350244522095 -0.0925949215888977 1.401179552078247
0.5501869916915894 -0.0819007083773613 1.3694125413894653
0.5343335866928101 -0.08694501221179962 1.3367228507995605
0.514763355255127 -0.10196714103221893 1.3406484127044678
0.5379029512405396 -0.09252620488405228 1.2957179546356201
0.5115931630134583 -0.0947730615735054 1.436532735824585
0.5406208038330078 -0.0825958251953125 1.4206290245056152
0.5361740589141846 -0.09491785615682602 1.3707422018051147
0.5284650921821594 -0.10438498854637146 1.4204368591308594
0.6033615469932556 -0.10492352396249771 1.2908779382705688
0.5614097118377686 -0.11535558104515076 1.3159186840057373
0.5772948265075684 -0.10053608566522598 1.2932424545288086
0.5769824385643005 -0.10030372440814972 1.3433172702789307
0.5594849586486816 -0.10951260477304459 1.2949705123901367
0.5718501210212708 -0.09685839712619781 1.2641255855560303
0.5652480125427246 -0.1106947734951973 1.2625505924224854
0.6092314720153809 -0.10936716198921204 1.2986865043640137
0.6014846563339233 -0.11476370692253113 1.2847089767456055
0.6047896146774292 -0.1124763935804367 1.3052303791046143
0.5991305708885193 -0.11297197639942169 1.2371068000793457
0.6447224617004395 -0.11293856799602509 1.2000302076339722
0.6024434566497803 -0.10682541131973267 1.212417721748352
0.64561527967453 -0.11339059472084045 1.1778156757354736
0.6305657029151917 -0.12480057775974274 1.1751747131347656
0.6557465195655823 -0.12567956745624542 0.9930776953697205
0.6364912986755371 -0.1388634592294693 1.0102115869522095
0.6506630182266235 -0.14985524117946625 0.9645452499389648
0.6621307134628296 -0.13307133316993713 0.9928006529808044
0.6065050959587097 -0.16503630578517914 0.975082516670227
0.6549580097198486 -0.1821022629737854 0.9292653799057007
0.6492184400558472 -0.19206398725509644 0.9314743876457214
-0.467115581035614 0.053431447595357895 0.8597339987754822
-0.44065728783607483 0.03986157476902008 0.8244227766990662
-0.4370037913322449 0.02789957821369171 0.793545126914978
-0.43752697110176086 0.026973675936460495 0.830824613571167
-0.4068027436733246 0.029999662190675735 0.7687000036239624
-0.39775320887565613 0.009748362004756927 0.761622428894043
-0.478555828332901 0.10666333138942719 0.9170116782188416
-0.45960259437561035 0.06106610968708992 0.9593073129653931
-0.45117831230163574 0.05466641113162041 0.9077485799789429
-0.4348868131637573 0.048914678394794464 0.9031565189361572
-0.4151800274848938 0.036660369485616684 0.8316746354103088
-0.39716005325317383 0.0079522505402565 0.8035848736763
-0.4107528626918793 -0.004378043115139008 0.7730904817581177
-0.37168198823928833 -0.00590597465634346 0.6848254203796387
-0.3714107871055603 -0.0217781700193882 0.7031010389328003
-0.3437802195549011 -0.051010612398386 0.6671993136405945
-0.3966066837310791 0.019424114376306534 0.8652277588844299
-0.3876538872718811 0.0195385180413723 0.8005922436714172
-0.355907678604126 0.00024339929223060608 0.6799482107162476
-0.3861812949180603 0.003077276051044464 0.7903273701667786
-0.3851570188999176 0.01607336848974228 0.8157597780227661
-0.3856523633003235 -0.00387394055724144 0.7694867849349976
-0.3678779602050781 -0.029759559780359268 0.7728232145309448
-0.430561900138855 0.07406720519065857 1.0893727540969849
-0.31448161602020264 -0.10644330084323883 0.649458646774292
-0.29412707686424255 -0.11614245176315308 0.5710951089859009
-0.44913384318351746 0.05451551452279091 1.190887451171875
-0.4553241729736328 0.06414612382650375 1.1151517629623413
-0.4163213074207306 0.06725408136844635 1.0632612705230713
-0.46678900718688965 0.06529884040355682 1.2133868932724
-0.4613351821899414 0.113184355199337 1.1556720733642578
-0.3574722111225128 -0.06833264976739883 0.8473791480064392
-0.4758474826812744 0.11600056290626526 1.3482799530029297
-0.4389941692352295 0.09273150563240051 1.2892723083496094
-0.2709512412548065 -0.007270801812410355 0.6998399496078491
-0.25368204712867737 -0.010662432760000229 0.6184890270233154
-0.32398146390914917 0.015734732151031494 0.8381561040878296
-0.2347254455089569 -0.037941645830869675 0.6054242849349976
-0.345267117023468 0.01206376776099205 1.001397967338562
-0.3548142910003662 -0.012449078261852264 0.9352864623069763
-0.31683090329170227 0.011362086981534958 0.9003685712814331
-0.3043464124202728 0.01013319194316864 0.9440501928329468
-0.2978886365890503 0.029728733003139496 0.9497920274734497
-0.33615773916244507 0.013520434498786926 1.0224031209945679
-0.4243670105934143 0.05972425639629364 1.4030197858810425
-0.450765997171402 0.1030590832233429 1.4316822290420532
-0.3054063618183136 0.03977028280496597 1.043697476387024
-0.36912447214126587 0.07119777798652649 1.2061587572097778
-0.3817555904388428 0.03719262033700943 1.1820555925369263
-0.39643043279647827 0.05300461873412132 1.508922815322876
-0.3915797770023346 0.05270480737090111 1.3921148777008057
-0.4190272092819214 0.09090125560760498 1.491971731185913
-0.31787532567977905 0.03272823244333267 1.1302759647369385
-0.31674838066101074 0.05780692771077156 1.1472125053405762
-0.3084981143474579 0.03168400377035141 1.094198226928711
-0.3006786108016968 0.040538255125284195 1.089094638824463
-0.3467976748943329 0.08197624236345291 1.3369730710983276
-0.31577688455581665 0.07321291416883469 1.2758967876434326
-0.2996576726436615 0.03938424959778786 1.4422041177749634
-0.2277686595916748 0.04114951193332672 1.090428113937378
-0.34710681438446045 0.07784399390220642 1.525791883468628
-0.22960473597049713 0.02631477639079094 1.4197896718978882
-0.26625126600265503 0.0681295245885849 1.414530873298645
-0.2194816768169403 0.024548489600419998 1.3520622253417969
-0.20514912903308868 0.055768225342035294 1.3489872217178345
-0.18331867456436157 0.04619830846786499 1.2608752250671387
-0.15630188584327698 0.02963290549814701 1.2263292074203491
0.17015759646892548 -0.032005034387111664 1.1795713901519775
0.15079857409000397 -0.04975651204586029 1.1890058517456055
0.1765509992837906 -0.046101026237010956 1.1414964199066162
0.21450072526931763 -0.0379953607916832 1.3095364570617676
0.17214266955852509 -0.0625341460108757 1.2391846179962158
0.186211958527565 -0.03950249403715134 1.2496501207351685
0.22941826283931732 -0.04068942368030548 1.1969770193099976
0.23522686958312988 -0.07201738655567169 1.182064175605774
0.23255693912506104 -0.04543812572956085 1.1028261184692383
0.24221840500831604 -0.049138739705085754 1.073067545890808
0.22838816046714783 -0.06000840663909912 1.1028928756713867
0.2434934377670288 -0.06317102164030075 1.0797721147537231
0.2714507579803467 -0.05162821710109711 1.0855026245117188
0.27566611766815186 -0.04541533440351486 1.4480170011520386
0.26237648725509644 -0.07187798619270325 1.4085010290145874
0.3108721673488617 -0.05848253145813942 1.0611552000045776
0.28798729181289673 -0.08118747919797897 1.0697569847106934
0.26925110816955566 -0.0618477538228035 1.0902509689331055
0.2963104248046875 -0.06607528775930405 1.0546047687530518
0.32645824551582336 -0.07004060596227646 1.0205172300338745
0.28235986828804016 -0.08132388442754745 1.3177107572555542
0.36690863966941833 -0.07277502119541168 1.1409425735473633
0.30289262533187866 -0.09272806346416473 1.0862070322036743
0.31370094418525696 -0.07239368557929993 1.10184907913208
0.36027732491493225 -0.06866796314716339 1.2726293802261353
0.3419336974620819 -0.09310060739517212 1.1309380531311035
0.3804832696914673 -0.08331383764743805 1.0543882846832275
0.37322086095809937 -0.07186400890350342 1.1026830673217773
0.3664322793483734 -0.08468885719776154 1.0712921619415283
0.36822038888931274 -0.11185045540332794 1.0947457551956177
0.37783879041671753 -0.07157213985919952 1.313706874847412
0.38360169529914856 -0.08313396573066711 1.2015244960784912
0.36346960067749023 -0.10741403698921204 1.2199358940124512
0.3828297257423401 -0.09696763753890991 1.4400758743286133
0.39998728036880493 -0.08897360414266586 1.0913668870925903
0.41108250617980957 -0.07210414111614227 1.4173227548599243
0.4158276319503784 -0.08955150097608566 1.3570555448532104
0.4276081323623657 -0.1065756231546402 1.4019222259521484
0.45158636569976807 -0.13485963642597198 0.8940191268920898
0.4454541802406311 -0.11893171817064285 1.3345310688018799
0.46939706802368164 -0.12219501286745071 1.2919573783874512
0.4530305564403534 -0.0907510295510292 1.2517733573913574
0.45001715421676636 -0.13105419278144836 1.152160406112671
0.45940500497817993 -0.10020648688077927 1.1550184488296509
0.47997915744781494 -0.09419649839401245 1.2584547996520996
0.48638567328453064 -0.10225038975477219 1.1960808038711548
0.50438392162323 -0.11734909564256668 1.1335947513580322
0.5187656879425049 -0.0955280140042305 1.2807945013046265
0.515739917755127 -0.11962641775608063 1.2531639337539673
0.4735894203186035 -0.23184604942798615 0.7412218451499939
0.4883354902267456 -0.2441500872373581 0.607114851474762
0.5249042510986328 -0.19761922955513 0.6014422178268433
0.4954885244369507 -0.1992424875497818 0.6323516964912415
0.5220490097999573 -0.1637340784072876 0.9413995742797852
0.5217541456222534 -0.1588326394557953 0.9016688466072083
0.5483696460723877 -0.11885109543800354 1.1241024732589722
0.5682084560394287 -0.14306867122650146 0.64093416929245
0.5588424205780029 -0.1457296907901764 0.706753134727478
0.5985163450241089 -0.16245290637016296 0.8927939534187317
0.6123117804527283 -0.18310579657554626 0.7976821660995483
0.5637137293815613 -0.17710399627685547 0.8079119920730591
0.5916852355003357 -0.19710981845855713 0.8169860243797302
-0.438864529132843 0.015488777309656143 0.7423695921897888
-0.43283653259277344 -0.0016650334000587463 0.7522515058517456
-0.5040556788444519 0.1155310571193695 1.0954270362854004
-0.5001208782196045 0.12667885422706604 1.1082837581634521
-0.4792012572288513 0.10735409706830978 1.0600029230117798
-0.4370885491371155 0.06722328066825867 0.965539813041687
-0.42933526635169983 0.0608096569776535 1.0103580951690674
-0.43958520889282227 0.03384382277727127 0.9222838878631592
-0.40061110258102417 0.04381921514868736 0.9259372353553772
-0.43799376487731934 0.04068656265735626 1.0570030212402344
-0.478924959897995 0.08500580489635468 1.2175536155700684
-0.4734160304069519 0.08481025695800781 1.1797152757644653
-0.29619985818862915 -0.0015682503581047058 0.7437566518783569
-0.3338542580604553 0.006811611354351044 0.6936485767364502
-0.2874795198440552 -0.005086397752165794 0.629067063331604
-0.4547666013240814 0.10133103281259537 1.2235705852508545
-0.4911562204360962 0.09143675863742828 1.2657442092895508
-0.3530036509037018 -0.03896048292517662 0.8101045489311218
-0.345359742641449 -0.04800461232662201 0.794133186340332
-0.2969120740890503 -0.07254324853420258 0.6370910406112671
-0.28229820728302 -0.09671323001384735 0.5923594832420349
-0.35861414670944214 0.030721236020326614 0.9316180348396301
-0.5049030184745789 0.10779838263988495 1.3673310279846191
-0.36928755044937134 0.03461766242980957 0.9721873998641968
-0.3368985652923584 0.037363577634096146 0.9022476077079773
-0.39233100414276123 0.008500073105096817 0.9982866048812866
-0.38614919781684875 0.0033726058900356293 0.9757732152938843
-0.3398289382457733 0.03837956488132477 0.9896035194396973
-0.403201699256897 0.03002243861556053 1.0858712196350098
-0.31323865056037903 0.013689331710338593 0.857639491558075
-0.2941909730434418 -0.0051618702709674835 0.7927032709121704
-0.42598438262939453 0.07974763959646225 1.1596958637237549
-0.3739095628261566 0.05441824719309807 1.1019682884216309
-0.3781895935535431 0.027227655053138733 1.0637600421905518
-0.45986509323120117 0.09177617728710175 1.4234998226165771
-0.4429319202899933 0.05079635977745056 1.2346415519714355
-0.36706167459487915 0.03072405979037285 1.1452757120132446
-0.4447788894176483 0.07548254728317261 1.4793586730957031
-0.38473135232925415 0.09380152076482773 1.383374571800232
-0.40052181482315063 0.05248820781707764 1.2712600231170654
-0.3085678219795227 0.04419087991118431 1.0875706672668457
-0.3343808054924011 0.027765199542045593 1.0992013216018677
-0.38319000601768494 0.08069632947444916 1.2725412845611572
-0.3500128388404846 0.07405152916908264 1.2118546962738037
-0.33929821848869324 0.08137878775596619 1.447739839553833
-0.3310227394104004 0.04345405846834183 1.274627685546875
-0.28747549653053284 0.0289132259786129 1.1937994956970215
-0.27440550923347473 0.053911224007606506 1.190935730934143
-0.2620764970779419 0.04512341320514679 1.1269800662994385
-0.2528254985809326 0.022067908197641373 1.223943829536438
-0.23993027210235596 0.04698147997260094 1.1365365982055664
-0.3127843141555786 0.07674373686313629 1.3616588115692139
-0.27718523144721985 0.040423810482025146 1.3253464698791504
-0.2002374231815338 0.036779724061489105 1.1293179988861084
-0.1827332228422165 0.038011014461517334 1.153088927268982
-0.1921352744102478 0.046635620296001434 1.4213858842849731
-0.194973886013031 0.01638328656554222 1.2659368515014648
0.19944721460342407 -0.059400126338005066 1.1209999322891235
0.18291914463043213 -0.0329960435628891 1.3942248821258545
0.26625505089759827 -0.04339068755507469 1.1535240411758423
0.2526683211326599 -0.06472332775592804 1.1440603733062744
0.2538706660270691 -0.04251398891210556 1.0883886814117432
0.30537599325180054 -0.06037063151597977 1.2502233982086182
0.2978706955909729 -0.08548018336296082 1.1695942878723145
0.33748412132263184 -0.0628606528043747 1.0255240201950073
0.3616938292980194 -0.06346490979194641 1.385655403137207
0.3600786626338959 -0.10873084515333176 1.1232284307479858
0.4393825829029083 -0.08977023512125015 1.3209630250930786
0.46135157346725464 -0.13686935603618622 0.8070536851882935
0.4767931401729584 -0.12756802141666412 0.7889180779457092
0.4718809723854065 -0.1364910900592804 0.6801828742027283
0.4745389223098755 -0.13588716089725494 0.6101471185684204
0.4650731682777405 -0.15369059145450592 0.6233036518096924
0.48197633028030396 -0.11282197386026382 1.0728126764297485
0.4920097887516022 -0.12840107083320618 0.6874247193336487
0.4868442714214325 -0.12863221764564514 0.614121675491333
0.4572562575340271 -0.18199878931045532 0.8561784029006958
0.45649367570877075 -0.19591115415096283 0.9058127403259277
0.4402296841144562 -0.21089677512645721 0.8750177025794983
0.46238866448402405 -0.194207563996315 0.8086494207382202
0.5208857655525208 -0.1358869969844818 0.7099663615226746
0.5185428261756897 -0.14458051323890686 0.6303399205207825
0.5181304812431335 -0.1452527791261673 0.8703948259353638
0.4759618937969208 -0.18770933151245117 0.850486695766449
0.496818870306015 -0.20312415063381195 0.797238290309906
0.47017258405685425 -0.2065010368824005 0.855489194393158
0.47776880860328674 -0.23163171112537384 0.7849988341331482
0.4879160523414612 -0.1735033094882965 0.9233884811401367
0.5235302448272705 -0.18223850429058075 0.8710277080535889
0.5149874687194824 -0.20781968533992767 0.6384279727935791
0.49221140146255493 -0.2317015826702118 0.582949161529541
0.5389117002487183 -0.16546398401260376 0.5937346816062927
0.5334422588348389 -0.14628252387046814 0.9427488446235657
0.527685821056366 -0.16040284931659698 0.7366094589233398
0.4995786249637604 -0.22633884847164154 0.7036880254745483
0.5244977474212646 -0.2195032685995102 0.6977514028549194
0.5477617383003235 -0.2077484279870987 0.6194096803665161
0.5768290162086487 -0.15639996528625488 0.875639021396637
0.5934150218963623 -0.15616177022457123 0.8406679630279541
0.5852398872375488 -0.17976321280002594 0.6734921932220459
0.582247793674469 -0.19540421664714813 0.6940106153488159
0.5393350720405579 -0.12967851758003235 1.0391550064086914
0.6234942674636841 -0.1273406594991684 0.9915487766265869
0.5862839818000793 -0.14412836730480194 0.984235405921936
0.6052519679069519 -0.12403173744678497 1.1711159944534302
0.5966820120811462 -0.12113334238529205 1.1288334131240845
0.591718852519989 -0.1172955110669136 1.1247597932815552
0.5925005674362183 -0.1344134360551834 1.1110892295837402
0.6197430491447449 -0.12703993916511536 1.047184705734253
0.6100846529006958 -0.13385869562625885 1.0654346942901611
-0.4671846032142639 0.07916097342967987 0.9034684896469116
-0.46418505907058716 0.05751092731952667 0.9173286557197571
-0.4638342261314392 0.0334155336022377 0.8876104950904846
-0.30164018273353577 -0.05005236715078354 0.6124082207679749
-0.296326220035553 -0.09572836011648178 0.5787249207496643
-0.3418695032596588 -0.04623553529381752 0.790817141532898
-0.35036513209342957 -0.052358727902173996 0.7379120588302612
-0.3542327284812927 -0.07925903797149658 0.7755870819091797
-0.33815282583236694 -0.08157479763031006 0.6697431802749634
-0.3076096177101135 -0.0695723444223404 0.6788461804389954
-0.29967421293258667 -0.0946403294801712 0.6480063199996948
-0.3778640031814575 -0.012833844870328903 0.9267024993896484
-0.36146339774131775 -0.04178639128804207 0.8810407519340515
-0.3707708716392517 -0.024952374398708344 0.8806922435760498
-0.3198421895503998 -0.08619039505720139 0.7120502591133118
-0.3135899305343628 -0.06374682486057281 0.7152113318443298
-0.34143638610839844 -0.0666128471493721 0.8060147762298584
-0.3369353711605072 -0.05035486817359924 0.7634472846984863
-0.39870554208755493 0.06335940957069397 1.0678201913833618
-0.3139565587043762 0.024898726493120193 0.9174929261207581
-0.28241556882858276 0.01160164549946785 0.9565205574035645
-0.28210771083831787 0.0315779373049736 0.9534057378768921
-0.35743749141693115 0.02328118309378624 1.0948902368545532
-0.3024575710296631 0.02572026476264 1.041961908340454
-0.2871250510215759 0.036081116646528244 0.9857065081596375
-0.2851372957229614 0.01718645915389061 0.9772934317588806
-0.3186497390270233 0.044667184352874756 1.3253129720687866
-0.27391064167022705 0.04197506979107857 1.073238730430603
-0.26448434591293335 0.01756168156862259 1.1148920059204102
-0.24820175766944885 0.045717187225818634 1.0781618356704712
-0.20587706565856934 0.021183662116527557 1.1212937831878662
-0.21890631318092346 0.03908582776784897 1.0936479568481445
-0.17092174291610718 0.026433929800987244 1.180984616279602
0.3964619040489197 -0.08807022869586945 1.0086755752563477
0.4377732574939728 -0.0918382853269577 1.4747860431671143
0.46470385789871216 -0.11810211092233658 0.9653472304344177
0.4156392216682434 -0.0877615213394165 0.9520640969276428
0.4331146478652954 -0.1255778670310974 0.9438491463661194
0.4402255415916443 -0.1132308766245842 0.9381712675094604
0.4394155740737915 -0.103188157081604 1.1357156038284302
0.4409943222999573 -0.15973225235939026 0.9607142806053162
0.45122578740119934 -0.1688796579837799 0.9062735438346863
0.4375345706939697 -0.19187793135643005 0.9274377226829529
0.4409204423427582 -0.1880686730146408 0.8999520540237427
0.4528624415397644 -0.17357438802719116 0.8496074080467224
0.4719872772693634 -0.17712019383907318 0.6578465104103088
0.4797368049621582 -0.17990170419216156 0.6090735793113708
0.5076464414596558 -0.1708509922027588 0.5960793495178223
0.48929211497306824 -0.1412333846092224 0.943073034286499
0.4966076612472534 -0.13964930176734924 0.909043550491333
0.47671574354171753 -0.18875785171985626 0.878484308719635
0.4639745354652405 -0.19530117511749268 0.8411092162132263
0.45065024495124817 -0.21813610196113586 0.8077644109725952
0.4842436909675598 -0.1363195925951004 1.2394304275512695
0.5402166247367859 -0.15535898506641388 0.8736809492111206
0.56111079454422 -0.16853536665439606 0.8274092674255371
0.5433099865913391 -0.1585182249546051 0.9950227737426758
0.5694409012794495 -0.21709415316581726 0.6548277735710144
0.572655200958252 -0.180635467171669 0.6250309944152832
0.5590448379516602 -0.18344596028327942 0.8538492918014526
0.5611729621887207 -0.1930796355009079 0.8036195635795593
0.6530824899673462 -0.15268445014953613 0.9766745567321777
0.6043494939804077 -0.18626783788204193 0.936651885509491
0.6206307411193848 -0.16736488044261932 0.9334838390350342
0.6219155788421631 -0.18786311149597168 0.8050205111503601
0.6266738176345825 -0.1757209599018097 0.8187204599380493
-0.49248403310775757 0.10995011776685715 1.065456748008728
-0.3176465332508087 -0.03680107742547989 0.5635595917701721
-0.3922269344329834 -0.012590732425451279 0.8669064044952393
-0.37545597553253174 -0.03380950167775154 0.8394124507904053
-0.40656864643096924 0.01621582731604576 0.9115771651268005
-0.47297215461730957 0.0878463163971901 1.3515756130218506
-0.38535797595977783 0.04786378890275955 0.9484832286834717
-0.377413809299469 0.030541714280843735 0.9200727939605713
-0.26319772005081177 -0.055409111082553864 0.5950448513031006
-0.25241783261299133 -0.029850590974092484 0.5924630761146545
-0.347688227891922 -0.02756519615650177 0.8831741809844971
-0.33758866786956787 -0.04543563723564148 0.8303931355476379
-0.3461693823337555 -0.045050669461488724 0.8699448704719543
-0.45900365710258484 0.06792062520980835 1.3057243824005127
-0.4212145507335663 0.08132729679346085 1.2072924375534058
-0.22166559100151062 0.0514889657497406 1.1914050579071045
0.13382239639759064 -0.036346469074487686 1.219946026802063
0.12043942511081696 -0.04789641499519348 1.226383090019226
0.20984038710594177 -0.06778369843959808 1.1536438465118408
0.2070450335741043 -0.04812512919306755 1.0891565084457397
0.28855597972869873 -0.05487758666276932 1.188080072402954
0.3338674306869507 -0.07171846926212311 1.0685734748840332
0.32317548990249634 -0.08333786576986313 1.0541107654571533
0.3998218774795532 -0.11249928176403046 1.1843371391296387
0.4308851659297943 -0.12435257434844971 1.257944107055664
0.42944952845573425 -0.13265417516231537 1.0792545080184937
0.4436505436897278 -0.21205025911331177 0.813887894153595
0.47596779465675354 -0.20330800116062164 0.7665897011756897
0.4614923596382141 -0.22363828122615814 0.7227026224136353
0.4788159132003784 -0.20509767532348633 0.6750515699386597
0.4974505305290222 -0.1582992970943451 1.0022268295288086
0.5012145638465881 -0.24101899564266205 0.6028016805648804
-0.4531506299972534 0.04243060201406479 0.9106552600860596
-0.28313973546028137 -0.029754482209682465 0.7435716390609741
-0.2640392482280731 -0.04091532155871391 0.6938040256500244
-0.47280776500701904 0.08531050384044647 1.4533846378326416
-0.27239689230918884 0.03921941667795181 1.0614609718322754
-0.2621317207813263 0.03802997246384621 1.0326156616210938
-0.2454404979944229 0.03204144164919853 1.0586254596710205
-0.2033107578754425 0.039449624717235565 1.1005332469940186
-0.14068174362182617 0.016022363677620888 1.2484135627746582
-0.14587682485580444 -0.002450164407491684 1.2474192380905151
0.35838407278060913 -0.10076899826526642 1.3168505430221558
0.3921622037887573 -0.10851166397333145 1.358771800994873
0.4888409972190857 -0.13231857120990753 0.9724865555763245
0.4792391359806061 -0.1251051127910614 0.9022724032402039
0.45708128809928894 -0.14738990366458893 1.0737576484680176
0.45526617765426636 -0.17677000164985657 0.7965586185455322
0.5187007188796997 -0.15160812437534332 1.0398452281951904
0.5168623924255371 -0.1410321444272995 1.1264044046401978
0.5832368731498718 -0.16586248576641083 0.9649149179458618
0.5779868364334106 -0.17499303817749023 0.9039897322654724
0.571755051612854 -0.20769163966178894 0.7409206628799438
0.5183126330375671 -0.21855199337005615 0.6619412899017334
0.5830568075180054 -0.18574120104312897 0.7323622703552246
-0.31242966651916504 -0.0575287751853466 0.583393931388855
-0.27515894174575806 -0.036236029118299484 0.5838943123817444
-0.3435470461845398 -0.04614494740962982 0.7853087782859802
-0.3043838143348694 -0.06293407082557678 0.6417871713638306
-0.26840442419052124 -0.059077098965644836 0.6365153789520264
-0.32826560735702515 0.00318899005651474 0.9378500580787659
-0.23691245913505554 0.02625902369618416 1.199106216430664
-0.22928228974342346 0.02985113486647606 1.1471211910247803
-0.2314433455467224 0.0388491228222847 1.1206578016281128
-0.20484164357185364 0.015677310526371002 1.1922558546066284
-0.18322601914405823 0.00731997936964035 1.126778244972229
-0.18162012100219727 0.02447631023824215 1.116633653640747
0.21042682230472565 -0.03177011385560036 1.0955921411514282
0.428691029548645 -0.13826313614845276 1.0103474855422974
0.46247828006744385 -0.16815094649791718 1.0001791715621948
0.46900975704193115 -0.1792941391468048 0.957308828830719
0.5462909936904907 -0.20765388011932373 0.7908384203910828
-0.3644064664840698 -0.021102208644151688 0.6587969660758972
-0.3569784164428711 -0.04261649399995804 0.6250119209289551
-0.35237887501716614 -0.03258199989795685 0.6195276975631714
-0.36717766523361206 0.02836664393544197 0.8356117606163025
-0.3250892460346222 -0.031778715550899506 0.8035979866981506
-0.3346163332462311 -0.03682912141084671 0.8514939546585083
-0.17122697830200195 0.009744066745042801 1.2097489833831787
-0.13024666905403137 0.003847561776638031 1.3200032711029053
-0.12020669132471085 0.00850662775337696 1.3094686269760132
0.1239360123872757 -0.057735376060009 1.2363905906677246
0.23363430798053741 -0.05720090493559837 1.5729354619979858
0.3814111351966858 -0.06343851238489151 1.502650260925293
0.4063090682029724 -0.08440328389406204 1.5142937898635864
0.44617581367492676 -0.09189900755882263 1.4418022632598877
0.5643693208694458 -0.12055499106645584 1.195868968963623
0.5924587249755859 -0.11678199470043182 1.2277398109436035
0.5827054977416992 -0.09960488975048065 1.1742608547210693
0.585986852645874 -0.12399906665086746 1.1552941799163818
0.6150093078613281 -0.11076480895280838 1.1728209257125854
-0.4929943084716797 0.0944027304649353 0.9970816373825073
-0.47494786977767944 0.10547278821468353 0.9850876927375793
-0.5184314846992493 0.1266365796327591 1.2373546361923218
-0.5008706450462341 0.1289350688457489 1.2200915813446045
-0.30996018648147583 -0.004600491374731064 0.6084222793579102
-0.2971579432487488 -0.01775091327726841 0.5697123408317566
-0.33109647035598755 -0.06373931467533112 0.6796062588691711
-0.3546714782714844 0.015019070357084274 0.7910714149475098
-0.39250749349594116 0.056863535195589066 0.9960979223251343
-0.4660283327102661 0.08988417685031891 1.4996963739395142
0.2165425419807434 -0.044824015349149704 1.1579632759094238
0.2723643183708191 -0.0492740161716938 1.3655251264572144
0.3519737720489502 -0.07690921425819397 1.0804599523544312
0.354137659072876 -0.06626463681459427 1.205527663230896
0.3855469822883606 -0.0945664793252945 1.0094218254089355
0.399635910987854 -0.1058330163359642 0.9587485790252686
0.39772558212280273 -0.12655332684516907 1.034132957458496
0.46880707144737244 -0.15185391902923584 0.7564682960510254
0.47360774874687195 -0.1629459261894226 0.7466588020324707
0.4862549602985382 -0.20928244292736053 0.8015568852424622
0.5668690800666809 -0.15182103216648102 0.9658822417259216
0.5723224878311157 -0.15460708737373352 0.7562422156333923
-0.3310012221336365 -0.04644845798611641 0.5919445753097534
-0.2919333577156067 -0.04351457208395004 0.5573739409446716
-0.2484428882598877 0.05222397670149803 1.0360691547393799
-0.20956887304782867 0.048893630504608154 1.1201796531677246
-0.17910870909690857 0.016877099871635437 1.1686595678329468
0.5503793358802795 -0.15137898921966553 0.7918760776519775
0.5554930567741394 -0.18494804203510284 0.5685721635818481
0.561860978603363 -0.18963707983493805 0.5815223455429077
-0.3667362928390503 -0.03742187097668648 0.8208110332489014
-0.304460346698761 -0.028612157329916954 0.7541961669921875
-0.2924021780490875 -0.04987308755517006 0.7122124433517456
0.4687502384185791 -0.10089325159788132 1.366298794746399
0.5681435465812683 -0.1654970794916153 0.5759620070457458
0.6034938097000122 -0.18599097430706024 0.8680495023727417
-0.23143227398395538 0.056279927492141724 1.2660589218139648
0.5973359942436218 -0.16272780299186707 0.9553977847099304
-0.3026413321495056 -0.008185956627130508 0.8274750709533691
0.4774743318557739 -0.22495029866695404 0.620186448097229
0.5833081007003784 -0.15665462613105774 0.9457839727401733
-0.36013156175613403 -0.06177861616015434 0.7879958152770996
-0.3453483581542969 -0.08105988800525665 0.9332495927810669
-0.3525921702384949 -0.0780797004699707 0.9435166716575623
-0.3366425037384033 -0.10411862283945084 0.9398713707923889
-0.3486253023147583 -0.10072372108697891 0.9482055902481079
-0.32051751017570496 -0.06683948636054993 1.00397789478302
-0.3279746174812317 -0.07690852880477905 0.9814638495445251
-0.3147180378437042 -0.06417861580848694 0.9538655877113342
-0.3097236156463623 -0.04132160544395447 0.989742636680603
-0.32116395235061646 -0.09667566418647766 0.9823944568634033
-0.326618492603302 -0.12119190394878387 0.9681107997894287
-0.3015303909778595 -0.04818475618958473 1.0648844242095947
-0.3077514171600342 -0.12293675541877747 0.9715855717658997
-0.31666243076324463 -0.08769997209310532 0.9768511652946472
-0.31119370460510254 -0.11311083287000656 1.0078585147857666
-0.3062872290611267 -0.08763142675161362 1.007080078125
-0.28742820024490356 -0.03350120410323143 1.0406413078308105
-0.2997439503669739 -0.07805993407964706 1.006198525428772
-0.30009910464286804 -0.09047925472259521 1.0298552513122559
-0.3013853132724762 -0.07161592692136765 1.060404658317566
-0.3120301067829132 -0.039372075349092484 1.0981488227844238
-0.31397193670272827 -0.08921350538730621 1.0849241018295288
-0.27090245485305786 0.004440536256879568 1.1314339637756348
-0.27685001492500305 -0.0018078312277793884 1.0899858474731445
-0.30314818024635315 -0.046483319252729416 1.1307088136672974
-0.246077299118042 0.0009505627676844597 1.0816218852996826
-0.2604510486125946 -0.04213261231780052 1.1833925247192383
-0.2855969965457916 -0.09544621407985687 1.134143590927124
-0.24388545751571655 0.013223572634160519 1.125516653060913
-0.2162216454744339 0.000147906132042408 1.1372230052947998
-0.21967262029647827 -0.0023772213608026505 1.1924251317977905
-0.19626004993915558 -0.0028793178498744965 1.1941156387329102
-0.20275194942951202 -0.06914293020963669 1.254687786102295
-0.24777160584926605 -0.08812727779150009 1.1829137802124023
-0.18921494483947754 -0.007723530754446983 1.2369801998138428
-0.2207300215959549 -0.0334172323346138 1.2361993789672852
-0.18176411092281342 -0.01727229543030262 1.2737895250320435
-0.16943302750587463 -0.024856768548488617 1.3094522953033447
-0.1682310253381729 -0.07227597385644913 1.3091412782669067
-0.20193098485469818 -0.1044602319598198 1.2094392776489258
-0.1590745896100998 -0.008358184248209 1.6897867918014526
-0.10726270079612732 0.06054455786943436 1.3918448686599731
-0.128470316529274 0.06488816440105438 0.851799726486206
-0.1737707257270813 0.014433454722166061 0.8544202446937561
-0.14821791648864746 -0.07939063012599945 0.859737753868103
-0.19106781482696533 -0.10698236525058746 0.8495090007781982
-0.14282797276973724 0.012079771608114243 1.6048663854599
-0.16674518585205078 -0.019330507144331932 1.710107684135437
-0.13506299257278442 -0.011432487517595291 1.663870930671692
-0.11633851379156113 0.021617412567138672 1.622657060623169
-0.12707531452178955 0.00476016104221344 1.56976318359375
-0.1163979023694992 -0.007021598517894745 1.028815507888794
-0.15649715065956116 -0.050705064088106155 0.9879130721092224
-0.16408485174179077 -0.11720085144042969 0.9721102118492126
-0.12946903705596924 -0.01009288802742958 1.5054287910461426
-0.24042023718357086 -0.07622583955526352 0.03431413322687149
-0.2521323561668396 -0.14467498660087585 0.012995457276701927
-0.2576448619365692 -0.16479650139808655 0.03591379523277283
-0.13947607576847076 -0.06660537421703339 1.3594310283660889
-0.12830008566379547 -0.0223765280097723 1.315342664718628
-0.12469383329153061 -0.04581087827682495 1.2929950952529907
-0.14892303943634033 -0.07751347124576569 1.3457722663879395
-0.13372166454792023 -0.114947110414505 1.297249674797058
-0.18945647776126862 -0.04418472200632095 0.45569396018981934
-0.18775247037410736 -0.07158490270376205 0.37002211809158325
-0.19990141689777374 -0.018756400793790817 0.3112907111644745
-0.20642542839050293 -0.047143593430519104 0.336963415145874
-0.12906771898269653 -0.0007450990378856659 1.6343024969100952
-0.1281033307313919 -0.08254596590995789 1.25778067111969
-0.13420788943767548 -0.08626658469438553 1.2183455228805542
-0.13638931512832642 -0.11288901418447495 1.2438273429870605
-0.1602250635623932 -0.12628434598445892 1.2400610446929932
-0.19265086948871613 -0.009165462106466293 0.23683924973011017
-0.1319044530391693 -0.07167301326990128 1.4944285154342651
-0.115207739174366 -0.004277583211660385 1.5060020685195923
-0.12468375265598297 -0.03436931222677231 1.4962021112442017
-0.1629805862903595 -0.08147371560335159 0.5545933842658997
-0.08321543037891388 -0.0232289656996727 1.7205952405929565
-0.12427245825529099 -0.126733660697937 1.1833295822143555
-0.11455313861370087 -0.051480647176504135 1.1446363925933838
-0.1178119108080864 -0.13480742275714874 0.7294824719429016
-0.08246979117393494 0.026843518018722534 1.6810555458068848
-0.11842504888772964 -0.09599016606807709 1.366518259048462
-0.09699823707342148 -0.12258081138134003 0.8393884897232056
-0.13507375121116638 -0.13256198167800903 0.8592587113380432
-0.12287786602973938 -0.19610333442687988 0.9027822017669678
-0.103347048163414 -0.21308550238609314 0.84307861328125
-0.23046913743019104 -0.19830985367298126 0.06007297337055206
-0.048295944929122925 0.04199177771806717 1.6813735961914062
-0.07704230397939682 -0.012891732156276703 1.7059475183486938
-0.13239431381225586 -0.047188904136419296 1.4126015901565552
-0.11507048457860947 -0.07237841933965683 1.4531927108764648
-0.1666620671749115 0.0012048035860061646 0.30611592531204224
-0.1892789900302887 -0.019260957837104797 0.19144773483276367
-0.22243694961071014 -0.1889580935239792 0.10000479966402054
-0.19069500267505646 -0.002389306202530861 0.036465734243392944
-0.09976209700107574 -0.04266076162457466 1.2997157573699951
-0.14303766191005707 -0.1074465662240982 0.5285017490386963
-0.18453653156757355 -0.16760241985321045 -0.0036202939227223396
-0.22455516457557678 -0.17054671049118042 -0.007076486013829708
-0.08155452460050583 -0.0145307257771492 1.5195568799972534
-0.09048840403556824 -0.04067437723278999 1.4761384725570679
-0.032824479043483734 -0.2144148349761963 0.8999314904212952
-0.07850783318281174 0.08797617256641388 0.8552002310752869
-0.19006499648094177 -0.12492860108613968 0.24683502316474915
-0.1657475233078003 -0.11639797687530518 0.16979439556598663
-0.16953188180923462 -0.008523769676685333 0.08387738466262817
-0.08725196123123169 -0.039119988679885864 1.2680182456970215
-0.0976167619228363 -0.054489850997924805 1.2276337146759033
-0.0713803619146347 -0.15813253819942474 1.275795817375183
-0.11844159662723541 -0.03711910918354988 0.6496458053588867
-0.10020443052053452 -0.13700881600379944 0.7240291833877563
-0.06397958844900131 -0.12378992140293121 0.8037371635437012
-0.15506064891815186 -0.12135633081197739 0.13556703925132751
-0.17365238070487976 -0.18557021021842957 0.06406509876251221
-0.11051462590694427 -0.12120780348777771 1.4434977769851685
-0.0828734040260315 -0.03693872317671776 1.3334470987319946
-0.05689963325858116 -0.03672939911484718 1.2759766578674316
-0.11269130557775497 -0.10841492563486099 0.5516271591186523
-0.0931825190782547 -0.0893503725528717 0.5515315532684326
-0.1283974051475525 0.0068781557492911816 0.4943254292011261
-0.08724016696214676 -0.10803885757923126 1.4153087139129639
-0.06001126393675804 -0.07211802154779434 1.4023183584213257
-0.08809473365545273 -0.0250785481184721 1.3742165565490723
-0.10318383574485779 -0.03062567301094532 0.5009885430335999
-0.03527510538697243 -0.0030086711049079895 1.7135595083236694
-0.10551135987043381 -0.16695427894592285 1.5654206275939941
-0.040252674371004105 -0.18863660097122192 0.9707474708557129
-0.06473864614963531 -0.08189263939857483 1.4152648448944092
-0.047066740691661835 -0.11029426753520966 1.398368000984192
-0.06669959425926208 -0.0940423533320427 1.3913711309432983
-0.05634867399930954 -0.1639205515384674 1.501881718635559
-0.09153635799884796 -0.1507478654384613 1.4532945156097412
-0.03841790556907654 -0.05472491681575775 1.4284547567367554
-0.07889352738857269 -0.05216711014509201 0.623343825340271
0.002827279269695282 -0.04788052290678024 1.7261162996292114
-0.004407132044434547 0.05377005785703659 1.65614652633667
-0.04833381250500679 -0.17809538543224335 1.4514124393463135
-0.060880012810230255 -0.15167318284511566 1.41005539894104
-0.024490749463438988 -0.06282316148281097 1.403304100036621
-0.03632153570652008 -0.158955916762352 1.4120672941207886
0.003978177905082703 -0.04540414735674858 1.384169578552246
-0.01907726563513279 -0.05025675892829895 1.267061710357666
0.00794151984155178 0.004024628549814224 1.710702896118164
-0.005740784108638763 -0.06527429819107056 1.429785966873169
-0.013646405190229416 -0.107054702937603 1.41302490234375
0.03782269358634949 0.016881877556443214 1.6776132583618164
0.013685014098882675 -0.03817193955183029 1.7111626863479614
-0.012385379523038864 -0.09979505091905594 1.4031388759613037
0.022065769881010056 -0.12876659631729126 1.4346030950546265
-0.003169786185026169 -0.08139906823635101 1.4088733196258545
0.05887450650334358 -0.09180241823196411 0.5743285417556763
0.027485378086566925 -0.044253211468458176 1.4643726348876953
0.09323792904615402 -0.11495772749185562 0.4901890158653259
-0.00835211668163538 -0.19481679797172546 1.2349958419799805
0.047001246362924576 -0.08215300738811493 1.240739345550537
0.04447568580508232 -0.08994290232658386 1.135176420211792
0.12109778821468353 -0.19396397471427917 0.060288723558187485
0.14025886356830597 -0.1933741718530655 0.034854646772146225
0.10991477221250534 -0.03705637529492378 0.042623888701200485
0.004942562431097031 -0.17878630757331848 1.2244679927825928
-0.0035164300352334976 -0.20505967736244202 1.1477770805358887
0.05629491060972214 -0.14078941941261292 0.7127007842063904
0.10537992417812347 -0.10402661561965942 0.015522070229053497
0.05838426202535629 -0.04500008374452591 1.6714622974395752
0.00792066752910614 -0.1790057122707367 1.570198893547058
0.006272593513131142 -0.1588881015777588 1.4923204183578491
0.004105649888515472 -0.15767210721969604 1.449718952178955
0.09047818183898926 -0.16147679090499878 0.8613351583480835
0.10642346739768982 -0.057333726435899734 1.6983542442321777
0.03389215096831322 -0.046523455530405045 1.5099416971206665
0.030377192422747612 -0.06674975156784058 1.4811006784439087
0.11443255841732025 -0.037425607442855835 0.30265524983406067
0.10758481174707413 -0.031124966219067574 0.23980726301670074
0.12437155097723007 -0.03254466503858566 0.020724546164274216
0.05267874896526337 -0.06264159828424454 1.7504041194915771
0.05959653481841087 -0.06993954628705978 1.3779661655426025
0.09242819994688034 -0.21926996111869812 0.8502379655838013
0.07839103788137436 -0.13224714994430542 0.8458415269851685
0.1220681294798851 -0.19568130373954773 0.847029447555542
0.08355419337749481 -0.03957841172814369 0.7347411513328552
0.16358503699302673 -0.19420015811920166 0.04934978112578392
0.0712490826845169 -0.05491971969604492 1.6820077896118164
0.030274614691734314 -0.1761963814496994 1.1204078197479248
0.030563579872250557 -0.17517898976802826 1.239769697189331
0.029542509466409683 -0.19270405173301697 1.236741065979004
0.1255657821893692 -0.1916252076625824 0.914642870426178
0.051363348960876465 -0.11796118319034576 1.5150885581970215
0.062496960163116455 -0.04580627381801605 1.523484468460083
0.05835234373807907 -0.07005734741687775 1.50562584400177
0.062338441610336304 -0.08467139303684235 1.5010877847671509
0.06581179797649384 -0.09795553982257843 1.477487325668335
0.11997703462839127 -0.06653480231761932 0.6314483880996704
0.11720088124275208 -0.13228195905685425 0.6498975157737732
0.06481848657131195 -0.11587303876876831 1.359007716178894
0.0729333758354187 -0.07388266921043396 1.3030192852020264
0.04361749440431595 -0.07203425467014313 1.3245439529418945
0.04880125820636749 -0.08716779947280884 1.2982758283615112
0.11239491403102875 -0.11952336132526398 0.8122701048851013
0.16925281286239624 -0.062098730355501175 0.023018106818199158
0.1807491034269333 -0.09057414531707764 0.02180364355444908
0.07493177801370621 -0.060846082866191864 1.63772451877594
0.08184773474931717 -0.08099471777677536 1.352830410003662
0.17646700143814087 -0.08687081187963486 0.2876698076725006
0.10108324140310287 -0.044329214841127396 1.6167638301849365
0.07989514619112015 -0.018580157309770584 1.6241610050201416
0.08758486807346344 -0.04461995139718056 1.5863234996795654
0.18350380659103394 -0.08713283389806747 0.10327962040901184
0.1893228441476822 -0.1592937409877777 0.04150894656777382
0.17434722185134888 -0.18299554288387299 0.07793354988098145
0.15677744150161743 -0.01943562924861908 0.9522527456283569
