0.4959946870803833 -0.2556138038635254 0.8759977221488953
0.4862135052680969 -0.12198058515787125 1.3162105083465576
0.5879279971122742 -0.19038522243499756 0.9395105838775635
0.6139445304870605 -0.208645761013031 0.8929100036621094
0.5747942924499512 -0.18098360300064087 1.066178321838379
0.636265218257904 -0.2777043581008911 0.7193491458892822
0.6460190415382385 -0.24084240198135376 0.6827130317687988
0.6068312525749207 -0.22016145288944244 0.9234973192214966
0.6126712560653687 -0.23644715547561646 0.8720425367355347
0.6876406669616699 -0.1822282373905182 1.0510059595108032
0.6400569677352905 -0.21713432669639587 1.0133466720581055
0.6609669327735901 -0.19913387298583984 1.0065784454345703
0.6739487648010254 -0.23688483238220215 0.8763205409049988
0.677898645401001 -0.21758370101451874 0.8848314881324768
-0.465248167514801 0.1361764669418335 1.0085278749465942
-0.20363524556159973 -0.05612161010503769 0.5136868953704834
-0.33404961228370667 -0.0012669414281845093 0.8303899765014648
-0.31266286969184875 -0.02479785680770874 0.8054186105728149
-0.3553532361984253 0.032416488975286484 0.8707460761070251
-0.49117282032966614 0.14470797777175903 1.3228508234024048
-0.33758965134620667 0.06666091829538345 0.9062561988830566
-0.323331356048584 0.044593486934900284 0.8803036212921143
-0.15374422073364258 -0.07091431319713593 0.5585319995880127
-0.13994713127613068 -0.04585089534521103 0.5542680025100708
-0.2904832363128662 -0.011988971382379532 0.8550512790679932
-0.27271193265914917 -0.036010533571243286 0.8031755685806274
-0.28734713792800903 -0.02987327054142952 0.8464553952217102
-0.47099748253822327 0.121430903673172 1.277799367904663
-0.41625961661338806 0.12607437372207642 1.1762093305587769
-0.21526888012886047 0.08678339421749115 1.183298110961914
0.15271736681461334 -0.005796277895569801 1.2343043088912964
0.13805273175239563 -0.017879191786050797 1.2424020767211914
0.2405540943145752 -0.04721122235059738 1.1880180835723877
0.2489376813173294 -0.034792348742485046 1.115043044090271
0.312913179397583 -0.03492878004908562 1.2313741445541382
0.37416690587997437 -0.06575624644756317 1.1155132055282593
0.3654541075229645 -0.08009440451860428 1.1008455753326416
0.4157857298851013 -0.09741917252540588 1.2509835958480835
0.4320563077926636 -0.10470910370349884 1.331868290901184
0.455242782831192 -0.13004547357559204 1.1472532749176025
0.4923655390739441 -0.24721916019916534 0.8802010416984558
0.5295608043670654 -0.24313625693321228 0.8298777341842651
0.5179861187934875 -0.2722167372703552 0.7881215214729309
0.5413188338279724 -0.25563228130340576 0.7339251041412354
0.5308051109313965 -0.17570734024047852 1.0716631412506104
0.5694947838783264 -0.30278950929641724 0.6644991040229797
-0.4031677842140198 0.0571729838848114 0.8579866886138916
-0.19885490834712982 -0.028708890080451965 0.7115595936775208
-0.1704341322183609 -0.044009365141391754 0.6594828367233276
-0.5049432516098022 0.15125048160552979 1.4293559789657593
-0.24488584697246552 0.06821642816066742 1.0463666915893555
-0.2307235598564148 0.06461215019226074 1.0169603824615479
-0.22026973962783813 0.057952333241701126 1.0492818355560303
-0.18348003923892975 0.06585191935300827 1.0924644470214844
-0.14461295306682587 0.04728959500789642 1.2471084594726562
-0.15308544039726257 0.030204594135284424 1.2483628988265991
0.3558109402656555 -0.06915290653705597 1.381622076034546
0.3790288269519806 -0.0758378654718399 1.4317494630813599
0.5293642282485962 -0.14858508110046387 1.0375657081604004
0.5283733606338501 -0.14792129397392273 0.9615758061408997
0.48153916001319885 -0.1506878137588501 1.1443777084350586
0.5117664933204651 -0.21284987032413483 0.8563615679740906
0.5459684729576111 -0.1640578806400299 1.1141809225082397
0.5351309776306152 -0.14480683207511902 1.20108962059021
0.6180993914604187 -0.19246643781661987 1.0372728109359741
0.617340087890625 -0.20836575329303741 0.974025309085846
0.6275932192802429 -0.25726747512817383 0.8073497414588928
0.5834075212478638 -0.27474966645240784 0.7235520482063293
0.6444309949874878 -0.23707686364650726 0.7972452640533447
-0.2036108672618866 -0.07392284274101257 0.5422403216362
-0.16224965453147888 -0.0529586561024189 0.5425346493721008
-0.2718021869659424 -0.04360974580049515 0.7538487315177917
-0.20519405603408813 -0.07352738827466965 0.605430006980896
-0.16490571200847626 -0.07189621031284332 0.6035763025283813
-0.27971339225769043 0.023467857390642166 0.9116379618644714
-0.23479336500167847 0.06292781233787537 1.1943482160568237
-0.2194211483001709 0.06111070141196251 1.1406145095825195
-0.2165442407131195 0.07056566327810287 1.1134264469146729
-0.20257708430290222 0.05001653730869293 1.1899302005767822
-0.17259904742240906 0.03539373725652695 1.1246459484100342
-0.16717875003814697 0.05034506320953369 1.1128431558609009
0.2534170150756836 -0.019136380404233932 1.1204841136932373
0.46262186765670776 -0.1468009352684021 1.0737155675888062
0.49272289872169495 -0.18096569180488586 1.069765329360962
0.5040167570114136 -0.19741113483905792 1.027040719985962
0.5971051454544067 -0.25065794587135315 0.8580004572868347
-0.26808351278305054 -0.02979167178273201 0.6066656112670898
-0.25697410106658936 -0.05697830766439438 0.5768170952796936
-0.2505585253238678 -0.046226222068071365 0.571201503276825
-0.3014330267906189 0.03516724333167076 0.7937397360801697
-0.25432276725769043 -0.02655579149723053 0.7731832265853882
-0.2710639238357544 -0.026267413049936295 0.8254743218421936
-0.17082339525222778 0.04262396693229675 1.2095849514007568
-0.1452682763338089 0.039981722831726074 1.316823959350586
-0.13338221609592438 0.043679989874362946 1.3053593635559082
0.13852612674236298 -0.026442579925060272 1.2551953792572021
0.18624943494796753 0.008136007934808731 1.6327406167984009
0.3472805619239807 -0.011338455602526665 1.5744293928146362
0.36801615357398987 -0.03163348510861397 1.5920151472091675
0.42043358087539673 -0.051029399037361145 1.523028016090393
0.5746669769287109 -0.11522343754768372 1.273342251777649
0.5993044376373291 -0.11430460214614868 1.3082979917526245
0.6001317501068115 -0.10045961290597916 1.2480921745300293
0.6020951271057129 -0.12767279148101807 1.2324714660644531
0.6294569969177246 -0.11392669379711151 1.2485053539276123
-0.45482414960861206 0.11650055646896362 0.9396001100540161
-0.4357496500015259 0.1255817413330078 0.9225896000862122
-0.5206974148750305 0.17285186052322388 1.1867821216583252
-0.4986940622329712 0.1740114986896515 1.1746318340301514
-0.20233915746212006 -0.02043076418340206 0.5590575933456421
-0.18236221373081207 -0.03786350041627884 0.5190451145172119
-0.2392517328262329 -0.06904830783605576 0.6433075666427612
-0.2773459851741791 0.019584041088819504 0.7475501894950867
-0.3508566617965698 0.08024865388870239 0.9569400548934937
-0.5020216703414917 0.1572713851928711 1.4803460836410522
0.24940930306911469 -0.022981183603405952 1.185594081878662
0.26753196120262146 -0.01041148416697979 1.4096977710723877
0.3901021182537079 -0.07130056619644165 1.1324920654296875
0.3761259913444519 -0.045503996312618256 1.2582868337631226
0.42798560857772827 -0.09794862568378448 1.0650908946990967
0.44477513432502747 -0.11430005729198456 1.0147603750228882
0.4300212264060974 -0.12801748514175415 1.0957920551300049
0.5306376218795776 -0.18903416395187378 0.8118312954902649
0.5356507301330566 -0.2059217393398285 0.8017423152923584
0.5351202487945557 -0.24857749044895172 0.8690446615219116
0.6041958332061768 -0.1763869971036911 1.0351537466049194
0.6358855366706848 -0.20191243290901184 0.8172372579574585
-0.2234569638967514 -0.06144000589847565 0.5464696884155273
-0.1759144365787506 -0.06332153081893921 0.5112329721450806
-0.2176922857761383 0.07724851369857788 1.0196603536605835
-0.19282540678977966 0.0778898298740387 1.1117966175079346
-0.1728505790233612 0.04731662571430206 1.1663838624954224
0.6086052060127258 -0.19525887072086334 0.8520423769950867
0.633816659450531 -0.25184956192970276 0.6205592751502991
0.639085054397583 -0.2553560733795166 0.6353062987327576
-0.298892617225647 -0.029282020404934883 0.7890177965164185
-0.2224508821964264 -0.028359126299619675 0.723784327507019
-0.2040664702653885 -0.05254002660512924 0.6820310354232788
0.45623382925987244 -0.07275595515966415 1.446203351020813
0.6484443545341492 -0.2328040599822998 0.627200722694397
0.6508899927139282 -0.2240639477968216 0.9388344287872314
-0.23724837601184845 0.09659226983785629 1.2580220699310303
0.6335737109184265 -0.18917912244796753 1.0277109146118164
-0.23477774858474731 -0.002142868936061859 0.797814130783081
0.544633686542511 -0.28204426169395447 0.6805698871612549
0.6210130453109741 -0.18670949339866638 1.015786051750183
-0.2888031005859375 -0.05561224743723869 0.7547620534896851
-0.3608466386795044 -0.12937003374099731 0.9669507145881653
-0.36665457487106323 -0.1256963014602661 0.977280855178833
-0.3489246666431427 -0.14707624912261963 0.9763756990432739
-0.3578067123889923 -0.14483867585659027 0.9860013723373413
-0.3363356292247772 -0.09868776053190231 1.0339423418045044
-0.3422907888889313 -0.11342444270849228 1.0131393671035767
-0.33316323161125183 -0.10382817685604095 0.9836651682853699
-0.33108511567115784 -0.07549891620874405 1.0153923034667969
-0.33184579014778137 -0.12837189435958862 1.018518328666687
-0.3344077467918396 -0.15600046515464783 1.0079967975616455
-0.3191380500793457 -0.06553920358419418 1.0930092334747314
-0.31488528847694397 -0.15485911071300507 1.010251522064209
-0.329042911529541 -0.12190407514572144 1.0091156959533691
-0.3165687918663025 -0.13709929585456848 1.0462040901184082
-0.3175084590911865 -0.11416682600975037 1.03878915309906
-0.3087274134159088 -0.05463428795337677 1.0627703666687012
-0.3114016652107239 -0.10491186380386353 1.037688136100769
-0.3109482228755951 -0.11130090802907944 1.06217622756958
-0.3150899410247803 -0.08913063257932663 1.0898466110229492
-0.3309195637702942 -0.050319984555244446 1.1236250400543213
-0.3223104476928711 -0.0996926948428154 1.119694471359253
-0.29784733057022095 -0.0016210798639804125 1.1490837335586548
-0.30576765537261963 -0.013677556067705154 1.1061511039733887
-0.3206920623779297 -0.0505763441324234 1.1580876111984253
-0.2742074429988861 -0.0113203264772892 1.0950692892074585
-0.27701833844184875 -0.03345567360520363 1.2076404094696045
-0.2914581298828125 -0.09329963475465775 1.1669138669967651
-0.2739914059638977 0.008062651380896568 1.1379711627960205
-0.24430067837238312 0.0011054081842303276 1.1481397151947021
-0.2467736005783081 0.009396320208907127 1.204525113105774
-0.22429531812667847 0.009382486343383789 1.2029876708984375
-0.21837018430233002 -0.04045230522751808 1.2753362655639648
-0.25664669275283813 -0.07144172489643097 1.2113053798675537
-0.2141677737236023 0.015758652240037918 1.2469546794891357
-0.2407272756099701 -0.011393992230296135 1.2552237510681152
-0.20164306461811066 0.012861140072345734 1.285125494003296
-0.1868751347064972 0.010999385267496109 1.3198766708374023
-0.18109887838363647 -0.035944864153862 1.3272653818130493
-0.2117719203233719 -0.07933790236711502 1.2341593503952026
-0.18760307133197784 0.05501262843608856 1.7083359956741333
-0.1283872127532959 0.10404437780380249 1.385365605354309
-0.12882840633392334 0.06623755395412445 0.866002082824707
-0.17491775751113892 0.01673022471368313 0.8749749064445496
-0.15183134377002716 -0.07562018930912018 0.878581166267395
-0.19520387053489685 -0.10354838520288467 0.8704484701156616
-0.1695011705160141 0.0682830810546875 1.6184577941894531
-0.19619441032409668 0.043974194675683975 1.7295756340026855
-0.16334928572177887 0.049121372401714325 1.6810197830200195
-0.14314547181129456 0.07901694625616074 1.6341743469238281
-0.1528381109237671 0.060262564569711685 1.582971215248108
-0.1151946634054184 -0.0015754606574773788 1.031921148300171
-0.15270036458969116 -0.049757830798625946 0.9966354370117188
-0.15929758548736572 -0.11798219382762909 0.9840980768203735
-0.15072648227214813 0.041788794100284576 1.5158116817474365
-0.2918708622455597 -0.06392247974872589 0.06479182094335556
-0.30788904428482056 -0.12345106899738312 0.029452098533511162
-0.31214895844459534 -0.14828844368457794 0.046489566564559937
-0.15413245558738708 -0.024359358474612236 1.3743669986724854
-0.14401735365390778 0.015653107315301895 1.3214672803878784
-0.13836458325386047 -0.010713770985603333 1.3023403882980347
-0.1623551845550537 -0.03541765734553337 1.362733006477356
-0.1456444412469864 -0.07913817465305328 1.3187363147735596
-0.22902937233448029 -0.028608910739421844 0.48039302229881287
-0.2298397421836853 -0.056631337851285934 0.39618998765945435
-0.24242660403251648 -0.004138014279305935 0.3345722258090973
-0.24821005761623383 -0.03082631342113018 0.3628305494785309
-0.15668682754039764 0.05838054046034813 1.6505954265594482
-0.1405811756849289 -0.05102912709116936 1.27134108543396
-0.14347262680530548 -0.06101950258016586 1.2294522523880005
-0.146555557847023 -0.0852569118142128 1.260254144668579
-0.17033423483371735 -0.0984598696231842 1.2613822221755981
-0.23840926587581635 0.006249495316296816 0.26032334566116333
-0.1539110690355301 -0.021929215639829636 1.5109350681304932
-0.13783971965312958 0.047008391469717026 1.5167020559310913
-0.1467151939868927 0.01809757947921753 1.5088750123977661
-0.19721773266792297 -0.06516483426094055 0.578568696975708
-0.1111365556716919 0.039203941822052 1.742661476135254
-0.1300249546766281 -0.106646329164505 1.1986010074615479
-0.11760479211807251 -0.03506700322031975 1.1470955610275269
-0.1371694952249527 -0.12392115592956543 0.7464228272438049
-0.11199375241994858 0.0891086757183075 1.6943869590759277
-0.1335143744945526 -0.05495533347129822 1.3863937854766846
-0.10442045331001282 -0.11836490035057068 0.8506759405136108
-0.13895659148693085 -0.13045412302017212 0.8723717331886292
-0.1227923333644867 -0.19739902019500732 0.9108539819717407
-0.10641023516654968 -0.2130666971206665 0.8484399318695068
-0.2855525612831116 -0.1872154325246811 0.06376487016677856
-0.07475554198026657 0.10709497332572937 1.6938745975494385
-0.10463894158601761 0.0492081493139267 1.7278159856796265
-0.15201304852962494 0.0009192228317260742 1.4243953227996826
-0.13520121574401855 -0.024437155574560165 1.4695022106170654
-0.20713289082050323 0.0175966564565897 0.32920581102371216
-0.2358594685792923 -0.007604473270475864 0.21175439655780792
-0.2746444046497345 -0.18495577573776245 0.10718173533678055
-0.2415267825126648 -0.0031170938163995743 0.0714048445224762
-0.11314550042152405 -0.007536675781011581 1.3069915771484375
-0.17821063101291656 -0.09172563254833221 0.5511958599090576
-0.2409219890832901 -0.14548909664154053 0.006834764964878559
-0.2817087173461914 -0.14576053619384766 0.003261587582528591
-0.10418671369552612 0.037918929010629654 1.532116413116455
-0.1099284291267395 0.009248252958059311 1.4895942211151123
-0.03283248841762543 -0.21531811356544495 0.902429461479187
-0.07812046259641647 0.08891855180263519 0.8620580434799194
-0.235101118683815 -0.10945646464824677 0.2726958692073822
-0.2126803696155548 -0.10736352205276489 0.1969061940908432
-0.2200639545917511 -0.01217232272028923 0.11326214671134949
-0.09763400256633759 -0.007444437593221664 1.2723749876022339
-0.1060677021741867 -0.027346814051270485 1.2321767807006836
-0.0797591432929039 -0.12590979039669037 1.300739049911499
-0.14253182709217072 -0.025389309972524643 0.670783519744873
-0.12045621126890182 -0.12587906420230865 0.7381503582000732
-0.07546567916870117 -0.11760329455137253 0.8115137219429016
-0.2040461301803589 -0.11599883437156677 0.16315998136997223
-0.22858497500419617 -0.17857316136360168 0.07179290801286697
-0.12990127503871918 -0.07578764110803604 1.4623069763183594
-0.09734335541725159 0.002277698367834091 1.3415350914001465
-0.06766272336244583 -0.00419655442237854 1.278342366218567
-0.14770078659057617 -0.0938265472650528 0.5734933018684387
-0.12531477212905884 -0.07439771294593811 0.5732994079589844
-0.16430556774139404 0.02196861431002617 0.5162926912307739
-0.10205491632223129 -0.0634392648935318 1.433540940284729
-0.07543803751468658 -0.02610710635781288 1.4183684587478638
-0.10403060913085938 0.016445860266685486 1.3809537887573242
-0.13711003959178925 -0.015525885857641697 0.5213087201118469
-0.06263299286365509 0.06047682464122772 1.732750654220581
-0.12553629279136658 -0.1162831261754036 1.5924193859100342
-0.03797881305217743 -0.18806752562522888 0.9812759160995483
-0.08073164522647858 -0.036406807601451874 1.4313552379608154
-0.060478053987026215 -0.06526540219783783 1.4164131879806519
-0.08038592338562012 -0.049230702221393585 1.4104841947555542
-0.07382281124591827 -0.11615166813135147 1.5261156558990479
-0.11038815975189209 -0.1067616418004036 1.4742441177368164
-0.055293008685112 -0.006646092981100082 1.4416157007217407
-0.10662529617547989 -0.039981432259082794 0.6402300596237183
-0.02274082973599434 0.01415994018316269 1.7525063753128052
-0.031290262937545776 0.11508540064096451 1.6651790142059326
-0.06285205483436584 -0.13269884884357452 1.477085828781128
-0.07549542188644409 -0.10822076350450516 1.4326958656311035
-0.03871362656354904 -0.01686592400074005 1.417837142944336
-0.049584899097681046 -0.11274439841508865 1.4338082075119019
-0.010066065937280655 0.0010854043066501617 1.395341157913208
-0.02835904248058796 -0.018714245408773422 1.2714245319366455
-0.017451010644435883 0.06691945344209671 1.7307391166687012
-0.020353836938738823 -0.018302466720342636 1.4452683925628662
-0.025582805275917053 -0.059728607535362244 1.4311106204986572
0.01192212849855423 0.08032653480768204 1.6938420534133911
-0.010092582553625107 0.023785501718521118 1.7360841035842896
-0.0206214040517807 -0.05144425481557846 1.4201931953430176
0.007361523807048798 -0.08218681812286377 1.4551374912261963
-0.014786290004849434 -0.032091788947582245 1.4251279830932617
0.07920389622449875 -0.09145236015319824 0.5935385227203369
0.01128394901752472 0.004810526967048645 1.4764124155044556
0.11556105315685272 -0.11164918541908264 0.5104896426200867
-0.006306785158813 -0.16474533081054688 1.260094165802002
0.04369073733687401 -0.04894742742180824 1.2512474060058594
0.04632645845413208 -0.0741780698299408 1.1413832902908325
0.14953365921974182 -0.13822858035564423 0.07379196584224701
0.16471454501152039 -0.13093358278274536 0.053480274975299835
0.13554523885250092 -0.006448023021221161 0.08262030780315399
0.00831167958676815 -0.14928743243217468 1.2461003065109253
-0.0013779830187559128 -0.18909475207328796 1.1717520952224731
0.07326921075582504 -0.14088034629821777 0.7332231402397156
0.1319015920162201 -0.05843096226453781 0.05700799077749252
0.03773077577352524 0.013798311352729797 1.6961913108825684
-0.0077432990074157715 -0.12874259054660797 1.600644826889038
-0.010133471339941025 -0.11190486699342728 1.5169026851654053
-0.008665017783641815 -0.11227614432573318 1.4739210605621338
0.09765264391899109 -0.16198959946632385 0.8791415691375732
0.08506171405315399 0.0036969520151615143 1.7245440483093262
0.016614440828561783 0.003358311951160431 1.5278491973876953
0.014795678667724133 -0.01684682071208954 1.4986670017242432
0.13837972283363342 -0.022841691970825195 0.3300831615924835
0.13058879971504211 -0.014734841883182526 0.2678682506084442
0.14776268601417542 0.002537861466407776 0.06473220884799957
0.02933460846543312 6.844103336334229e-05 1.7793114185333252
0.04839716851711273 -0.018717315047979355 1.396842360496521
0.09829121828079224 -0.21952605247497559 0.8655726909637451
0.08890769630670547 -0.1325962096452713 0.8662017583847046
0.1291804164648056 -0.19610151648521423 0.8678677082061768
0.09755263477563858 -0.04022672772407532 0.7540656328201294
0.19135230779647827 -0.13085104525089264 0.06561686098575592
0.04750742018222809 0.0026041939854621887 1.7070949077606201
0.03357768431305885 -0.16147921979427338 1.1394267082214355
0.03635410964488983 -0.13631926476955414 1.2629176378250122
0.036624420434236526 -0.15258847177028656 1.2605175971984863
0.12445583939552307 -0.1900608241558075 0.9348234534263611
0.0346435010433197 -0.06963065266609192 1.5387601852416992
0.04554405435919762 0.0029448531568050385 1.5392276048660278
0.04085612669587135 -0.022265251725912094 1.5253422260284424
0.04654059559106827 -0.03811005502939224 1.5206162929534912
0.05391205474734306 -0.05023329704999924 1.497488021850586
0.13850775361061096 -0.06595807522535324 0.6523970365524292
0.13653162121772766 -0.13140356540679932 0.6718242764472961
0.059781014919281006 -0.05388089641928673 1.379925012588501
0.06519219279289246 -0.009550359100103378 1.3193106651306152
0.034171756356954575 -0.011550992727279663 1.3370463848114014
0.043362848460674286 -0.032149553298950195 1.3128342628479004
0.12551185488700867 -0.11931730806827545 0.8344200253486633
0.19243675470352173 -0.015313036739826202 0.06775394082069397
0.20532935857772827 -0.039549726992845535 0.06331424415111542
0.05660122260451317 -0.005420379340648651 1.6614197492599487
0.0726248025894165 -0.031532756984233856 1.3718615770339966
0.2014780044555664 -0.06925757229328156 0.3155493438243866
0.08157819509506226 0.010629650205373764 1.6378133296966553
0.06020823493599892 0.037706706672906876 1.6425930261611938
0.06790393590927124 0.00805802270770073 1.6066021919250488
0.20836135745048523 -0.04574029892683029 0.1397297978401184
0.21537917852401733 -0.098268523812294 0.06677118688821793
0.20453274250030518 -0.12762965261936188 0.09357646107673645
0.15083420276641846 -0.01602211222052574 0.974812388420105
0.15065738558769226 -0.01664230227470398 0.8763107657432556
0.08205323666334152 -0.013653341680765152 1.7203257083892822
0.16758665442466736 0.03669626638293266 0.8829237818717957
0.1789945662021637 0.0001678052358329296 0.9463339447975159
0.08850306272506714 -0.019880376756191254 1.3143184185028076
0.09874497354030609 -0.04022001102566719 1.3018651008605957
0.07064972817897797 -0.05623592808842659 1.3490394353866577
0.09955201297998428 -0.03003804385662079 1.2605664730072021
0.0897110253572464 -0.03289363160729408 1.2404793500900269
0.10118001699447632 -0.10660171508789062 1.2300070524215698
0.11434245109558105 -0.06358297169208527 1.2629103660583496
0.1357901692390442 -0.0438961386680603 1.1968592405319214
0.15069793164730072 -0.05378706008195877 1.1219213008880615
0.17472240328788757 -0.06884133815765381 1.1367250680923462
0.1604006141424179 -0.08098726719617844 1.1877251863479614
0.13134455680847168 -0.11359088122844696 1.2081104516983032
0.1780058592557907 -0.09334456920623779 1.0859557390213013
0.19077271223068237 -0.15472187101840973 1.1412416696548462
0.20042754709720612 -0.1350090354681015 1.120849847793579
0.193171888589859 -0.10997681319713593 1.0931906700134277
0.14643724262714386 -0.18821914494037628 1.1262822151184082
0.17140524089336395 -0.1613687127828598 1.092512845993042
0.1734773814678192 -0.14335164427757263 1.0779935121536255
0.20391122996807098 -0.22867518663406372 0.981336236000061
0.1498231440782547 -0.17595762014389038 1.093438982963562
0.1495518684387207 -0.19484056532382965 1.0652134418487549
0.18976126611232758 -0.1797845959663391 1.0102522373199463
0.1547752171754837 -0.1856200397014618 1.039514183998108
0.1469980925321579 -0.2115987092256546 1.044268250465393
0.17068283259868622 -0.21009357273578644 1.014530062675476
0.1880057454109192 -0.21684226393699646 1.010094404220581
0.14208796620368958 -0.23325487971305847 1.0190751552581787
0.16571079194545746 -0.22939738631248474 1.0098259449005127
0.15333342552185059 -0.22915193438529968 1.0188708305358887
0.1963990330696106 -0.23440508544445038 0.9619370698928833
0.15933620929718018 -0.24395738542079926 1.0069462060928345
0.18120160698890686 -0.2171524167060852 0.9752104878425598
0.18035829067230225 -0.24942205846309662 0.975442111492157
0.19622370600700378 -0.24428550899028778 0.9779638051986694
-0.3098258078098297 -0.045202478766441345 1.0866578817367554
-0.30032309889793396 -0.09947804361581802 1.0757197141647339
-0.2877471446990967 -0.08366905897855759 1.0723532438278198
-0.3038100004196167 -0.11556826531887054 1.1121597290039062
-0.25733786821365356 -0.0442359633743763 1.0812225341796875
-0.2791813015937805 -0.11724279820919037 1.0951257944107056
-0.2030690759420395 -0.009136594831943512 1.224642038345337
-0.20127980411052704 -0.06125986576080322 1.2029757499694824
-0.17143020033836365 -0.09658269584178925 0.9636027812957764
-0.17542046308517456 -0.014801433309912682 0.945298433303833
-0.12556138634681702 0.05110781639814377 0.9293532371520996
-0.08942034840583801 0.1441001445055008 1.2517468929290771
-0.08214214444160461 0.14154130220413208 1.1938409805297852
-0.07918848097324371 0.16479791700839996 1.1679761409759521
-0.150043785572052 -0.011124287731945515 0.9648125171661377
-0.19961810111999512 0.038167089223861694 1.699120044708252
-0.1530248522758484 0.006161577999591827 1.341281533241272
-0.17328502237796783 0.005804073065519333 1.2763563394546509
-0.015006551519036293 0.1540091633796692 1.0738306045532227
-0.036767393350601196 0.15803906321525574 0.9951726198196411
-0.2937931716442108 -0.08095405250787735 0.124127596616745
-0.31270086765289307 -0.1324859857559204 0.07510525733232498
-0.17734062671661377 0.02645871788263321 1.682694673538208
-0.1619979739189148 0.03893490508198738 1.6290512084960938
-0.15764634311199188 -0.12117142975330353 1.2373018264770508
-0.1575838029384613 -0.13705746829509735 1.2119642496109009
-0.16202163696289062 -0.1566479504108429 1.2074854373931885
-0.09895971417427063 0.10645268112421036 1.362074375152588
-0.09091056883335114 0.09848610311746597 1.3582477569580078
-0.13849098980426788 -0.12405449897050858 1.2526389360427856
-0.14708255231380463 -0.0544821098446846 1.1955664157867432
-0.26475539803504944 -0.0977761521935463 0.18859831988811493
-0.2724166810512543 -0.05280285328626633 0.19673238694667816
-0.0423816554248333 0.12087814509868622 1.2464745044708252
-0.15884503722190857 -0.011098053306341171 1.4364062547683716
-0.1572316288948059 -0.005503788590431213 1.4159305095672607
-0.14386478066444397 -0.008731529116630554 1.3988804817199707
-0.1582765132188797 -0.003962267190217972 1.395878791809082
-0.15814208984375 -0.021717380732297897 1.3862017393112183
-0.14941351115703583 -0.10842233896255493 0.793022632598877
-0.16166862845420837 -0.06969659775495529 0.7886978387832642
-0.004614951089024544 0.21005257964134216 1.0847066640853882
-0.0078026060946285725 0.20777088403701782 1.1338725090026855
-0.12949061393737793 -0.11732741445302963 1.2475144863128662
-0.12745505571365356 -0.10910604149103165 0.8648842573165894
-0.266508013010025 -0.018415164202451706 0.1207878589630127
-0.27174505591392517 -0.01865377277135849 0.08353973925113678
-0.13857072591781616 -0.184895321726799 0.8505822420120239
-0.0394219309091568 0.18001620471477509 1.2296991348266602
-0.16147761046886444 -0.08479971438646317 1.5900709629058838
-0.128790944814682 0.023845292627811432 1.5133862495422363
-0.09266435354948044 0.10491183400154114 1.4865658283233643
-0.09498132765293121 0.07048313319683075 1.5419833660125732
-0.11518161743879318 0.07082506269216537 1.5160858631134033
-0.09940112382173538 0.08745793998241425 1.4339431524276733
-0.04826303943991661 0.12411116808652878 1.5306382179260254
-0.12151132524013519 -0.010631900280714035 1.465574860572815
-0.08366432040929794 0.043669603765010834 0.972532331943512
-0.13917584717273712 0.032282374799251556 1.7809157371520996
-0.14803126454353333 0.026629135012626648 1.7747204303741455
-0.15362060070037842 0.01605600118637085 1.7612324953079224
-0.018265297636389732 0.06711676716804504 1.429157018661499
-0.06920205801725388 0.11859337240457535 1.405482530593872
-0.21101343631744385 -0.08168068528175354 0.045774705708026886
-0.01751641184091568 0.15366925299167633 1.3548356294631958
-0.12732209265232086 -0.08639569580554962 1.5046041011810303
-0.18100517988204956 -0.058218322694301605 0.3985006511211395
-0.059867601841688156 0.0672602504491806 1.486380696296692
-0.08477184176445007 0.029249466955661774 1.4677296876907349
-0.02590012550354004 0.12872320413589478 1.4539391994476318
-0.032349005341529846 0.050694696605205536 0.8558443784713745
-0.18989112973213196 0.004101965576410294 0.3494129180908203
0.04022660106420517 0.16867952048778534 0.9985467195510864
-0.030955350026488304 0.035211097449064255 1.030580997467041
-0.1113930195569992 -0.1489834189414978 1.2469747066497803
-0.10429330170154572 -0.15153472125530243 1.148754596710205
-0.17856663465499878 -0.02386174164712429 0.3267967998981476
-0.1640118658542633 -0.03840253874659538 0.2644081115722656
-0.1944963037967682 0.01086837612092495 0.2598229646682739
-0.06654524803161621 0.05039424076676369 1.5030136108398438
-0.09256486594676971 -0.10143810510635376 0.6882911324501038
-0.11829529702663422 -0.02735135704278946 0.6616853475570679
0.044492386281490326 0.20971742272377014 1.1262296438217163
0.05108948051929474 0.20147353410720825 1.0448789596557617
-0.059560421854257584 -0.18490764498710632 1.174302339553833
-0.1929028332233429 -0.0673736110329628 0.12904760241508484
0.03923949599266052 0.15326714515686035 1.035125494003296
0.028742017224431038 0.13233329355716705 1.070473074913025
-0.00019831955432891846 0.04570053517818451 1.4964056015014648
-0.09343510866165161 -0.08281300961971283 1.3798635005950928
0.03440328314900398 0.15653790533542633 1.337819218635559
0.02635544165968895 0.0566989928483963 1.4199566841125488
-0.010004233568906784 0.03876567259430885 1.4962255954742432
0.08610701560974121 0.14249497652053833 1.0456275939941406
0.10406340658664703 0.130082368850708 1.0019503831863403
-0.0313660129904747 -0.09999960660934448 1.3758859634399414
0.013345731422305107 0.03322979062795639 1.0289918184280396
-0.032473642379045486 -0.20039118826389313 1.103691577911377
0.09285207092761993 0.12579402327537537 1.3627920150756836
0.008324671536684036 -0.017772242426872253 1.2881860733032227
0.06096845120191574 0.1015443503856659 1.4609949588775635
0.026641571894288063 0.057827696204185486 1.4611999988555908
0.02232200652360916 -0.03642244264483452 1.2013816833496094
0.04561035335063934 0.09262533485889435 0.9201319217681885
-0.014826703816652298 -0.02035924792289734 1.7175977230072021
0.13089735805988312 -0.10857672989368439 0.08461292833089828
0.12193627655506134 -0.1184445396065712 0.0591316744685173
0.12466244399547577 -0.051556095480918884 0.09681971371173859
-0.05139179155230522 -0.13156293332576752 1.5937777757644653
0.06964661180973053 -0.062341198325157166 0.7175179123878479
0.08152955025434494 0.04182213172316551 1.4312165975570679
0.01831865683197975 -0.04974712058901787 1.4647953510284424
0.056130483746528625 -0.035772062838077545 1.415162444114685
0.01719970442354679 -0.006432458758354187 1.3924236297607422
0.11757321655750275 -0.036541566252708435 0.39774972200393677
0.14016932249069214 -0.1230141744017601 0.24121293425559998
0.13546109199523926 -0.036705270409584045 0.20275232195854187
0.14766229689121246 0.12806440889835358 1.0538039207458496
0.1435960829257965 0.15369781851768494 1.0233182907104492
0.10670521855354309 -0.14584550261497498 0.7450628280639648
0.11291222274303436 -0.05225341022014618 0.6617857813835144
-0.017736434936523438 -0.06690630316734314 1.702422857284546
0.022816509008407593 -0.07942915707826614 1.6604686975479126
0.1299760788679123 -0.13017995655536652 0.5543791055679321
0.006664782762527466 -0.01435011625289917 1.7314398288726807
0.02993302047252655 -0.03157820180058479 1.6817004680633545
0.057832468301057816 -0.1007351279258728 1.1369948387145996
0.06319813430309296 -0.0895732045173645 1.1110268831253052
0.053223252296447754 -0.16068005561828613 1.0936325788497925
0.005744412541389465 -0.11616256088018417 1.5930620431900024
0.03139635920524597 -0.05043250694870949 1.4948135614395142
0.020209312438964844 -0.08968658000230789 1.4916669130325317
0.18531498312950134 0.10564576089382172 1.0171719789505005
0.05063534528017044 -0.09454607963562012 1.2886981964111328
0.0597412995994091 -0.15685142576694489 1.2523000240325928
0.0615273043513298 -0.10583743453025818 1.2344679832458496
0.17618201673030853 -0.02093520388007164 0.15586090087890625
0.19153885543346405 -0.10303707420825958 0.17821872234344482
0.2059459388256073 -0.09010764211416245 0.163706973195076
0.045371636748313904 -0.011529717594385147 1.706114649772644
0.05877658724784851 -0.10320191830396652 1.2910341024398804
0.19094358384609222 -0.03954901918768883 0.43878114223480225
0.1705724149942398 -0.09457479417324066 0.4917653799057007
0.19924893975257874 -0.0540689118206501 0.38169077038764954
0.06820801645517349 -0.05210207402706146 1.4084932804107666
0.05516999214887619 -0.04931655526161194 1.4050397872924805
0.07484661042690277 -0.0414598323404789 1.3646384477615356
0.11785553395748138 0.06262951344251633 0.9289363026618958
0.1298515945672989 -0.11722409725189209 0.8699316382408142
0.20430709421634674 -0.039893995970487595 0.2559882402420044
0.22096765041351318 -0.07049409300088882 0.2635154724121094
0.07768325507640839 -0.022656850516796112 1.3571507930755615
0.15795761346817017 0.06083214282989502 1.2818288803100586
0.17003154754638672 0.08522762358188629 1.260188102722168
0.06656865030527115 -0.22861289978027344 1.1519649028778076
0.14666911959648132 -0.06701401621103287 1.0002738237380981
0.1484987735748291 -0.12421531230211258 0.9943414926528931
0.10172010958194733 -0.02820631116628647 1.1860264539718628
0.10970187187194824 -0.14228057861328125 1.087570309638977
0.1306338757276535 -0.10725612193346024 1.0673441886901855
0.11208592355251312 -0.17014893889427185 1.1548324823379517
-0.29400983452796936 -0.05962790548801422 1.0619875192642212
-0.3035769462585449 -0.11536481976509094 1.0470860004425049
-0.23785056173801422 -0.09675765782594681 1.1384398937225342
-0.24897855520248413 -0.09601633995771408 1.1849918365478516
-0.21652474999427795 -0.0652732104063034 1.1470187902450562
-0.21459755301475525 -0.026789449155330658 1.1651383638381958
-0.18984973430633545 -0.15090839564800262 0.8781217336654663
-0.06561440229415894 0.16734236478805542 1.0334556102752686
-0.07799611240625381 0.15760086476802826 1.1307601928710938
-0.17146873474121094 -0.221126526594162 1.118444561958313
-0.13865122199058533 -0.15893295407295227 0.9551841020584106
-0.27747252583503723 -0.04041843116283417 0.2848396897315979
-0.25546205043792725 -0.08989942073822021 0.29930391907691956
-0.20267029106616974 0.013514898717403412 0.5032552480697632
-0.14948031306266785 -0.19096894562244415 0.8563821911811829
-0.18026918172836304 -0.046291496604681015 0.6455371379852295
-0.16908065974712372 -0.09010893851518631 0.6973239183425903
-0.15084972977638245 -0.033607956022024155 0.7044228315353394
-0.10242430865764618 -0.020039532333612442 1.0915272235870361
-0.11569476127624512 -0.076777383685112 1.114524006843567
0.001707407645881176 0.19789616763591766 1.20194411277771
-0.1126338392496109 -0.019173089414834976 0.8605049848556519
-0.21182920038700104 -0.10205189138650894 0.3112167716026306
-0.11798460781574249 -0.023756761103868484 1.1939430236816406
-0.0950876772403717 -0.040176793932914734 1.123857021331787
-0.19469909369945526 -0.07972903549671173 0.4511934220790863
-0.14296863973140717 0.01145891472697258 1.699950933456421
-0.1503070741891861 -0.022879503667354584 1.6865178346633911
-0.11500895023345947 -0.059749484062194824 1.6951148509979248
-0.1344037801027298 -0.09388823807239532 1.6536630392074585
-0.147691547870636 -0.08681925386190414 1.555544376373291
-0.18848317861557007 -0.05952178314328194 0.3436090052127838
-0.08465172350406647 -0.11504753679037094 0.7376547455787659
-0.16735395789146423 -0.06848228722810745 0.27224820852279663
-0.1856265664100647 -0.09719932824373245 0.27834662795066833
-0.20293977856636047 -0.01730627939105034 0.20732945203781128
-0.045263051986694336 0.06404484063386917 0.9617602229118347
-0.0986991599202156 0.019493620842695236 1.744168996810913
-0.1165495365858078 0.009678352624177933 1.7309434413909912
0.06743539869785309 0.11831269413232803 1.1877468824386597
-0.011546369642019272 0.13798734545707703 1.1828296184539795
0.04195110499858856 0.11015027016401291 1.2398258447647095
-0.008973460644483566 -0.035880714654922485 1.2380235195159912
0.06447966396808624 0.1822165697813034 1.2355420589447021
0.07123823463916779 0.13081026077270508 1.0760927200317383
0.1258964091539383 0.18561898171901703 1.1622638702392578
0.011576047167181969 0.10241493582725525 1.6394996643066406
0.10038717836141586 0.11457773298025131 1.0863866806030273
0.03888285905122757 -0.21800640225410461 0.9059118628501892
0.10560903698205948 -0.08584959805011749 0.2596624791622162
0.1365717500448227 -0.09699039161205292 0.19981834292411804
0.06835389882326126 -0.12980680167675018 0.700222909450531
0.031704433262348175 0.004535348620265722 1.0659924745559692
0.0948852151632309 -0.04857000708580017 0.5708522200584412
0.09649457037448883 0.07865475863218307 1.305235505104065
0.03859858587384224 -0.060516614466905594 1.3989646434783936
0.04166937246918678 0.08590766787528992 1.6040236949920654
0.029538407921791077 0.02136293053627014 1.5700018405914307
0.035342052578926086 0.037070341408252716 1.5479228496551514
0.000820554792881012 -0.008529197424650192 1.7776747941970825
0.03873579204082489 -0.08272042125463486 1.3366566896438599
0.15979407727718353 -0.01814202405512333 0.5039621591567993
0.1270991414785385 -0.0056381989270448685 0.49952176213264465
0.15580403804779053 -0.01293259672820568 0.34931379556655884
0.1782245635986328 -0.016780979931354523 0.32067984342575073
0.0550927072763443 -0.04820016771554947 1.485886812210083
0.042298540472984314 -0.05681319162249565 1.4953639507293701
0.05544145405292511 -0.05220503360033035 1.4796355962753296
0.1317848563194275 -0.05213790386915207 0.769399106502533
0.15197843313217163 -0.09537501633167267 0.6396016478538513
0.11666594445705414 0.022718502208590508 0.9695126414299011
0.09417346864938736 -0.08047093451023102 1.0905945301055908
0.08643616735935211 -0.1340543031692505 1.079380750656128
0.0969131737947464 -0.15811434388160706 1.0293891429901123
0.057726770639419556 -0.014143276959657669 1.6063611507415771
0.06975206732749939 -0.01928236521780491 1.5257219076156616
0.05469726026058197 -0.14968569576740265 1.233541488647461
0.09328433871269226 0.04938972741365433 1.5155558586120605
0.07892203330993652 0.022127121686935425 1.5546373128890991
0.20631644129753113 -0.019454605877399445 0.09154550731182098
0.22012777626514435 -0.06324764341115952 0.07836107164621353
0.1019546240568161 0.027791719883680344 1.4819800853729248
0.11041965335607529 0.03997981548309326 1.4512609243392944
0.12055905908346176 0.028148934245109558 1.4188889265060425
0.12359819561243057 0.04012903571128845 1.4049875736236572
0.06367619335651398 -0.22991539537906647 1.1708242893218994
0.17582498490810394 -0.15836095809936523 0.884577751159668
0.07690278440713882 -0.2061668187379837 1.1821454763412476
0.073544442653656 -0.23209139704704285 1.17144775390625
0.20287898182868958 -0.11374454945325851 0.9048648476600647
0.20545819401741028 -0.09083576500415802 0.8854530453681946
0.21415641903877258 -0.05592426657676697 0.8958210349082947
-0.2212589681148529 -0.08819601684808731 1.1909233331680298
-0.18176743388175964 -0.0875059962272644 1.254442572593689
-0.1898306906223297 -0.08752109110355377 1.2388744354248047
-0.18147173523902893 -0.07934043556451797 1.2442548274993896
-0.17628806829452515 -0.07880328595638275 1.2612106800079346
-0.1949937641620636 0.0023494623601436615 0.886364221572876
-0.15096387267112732 -0.04619845747947693 1.2783862352371216
-0.14588472247123718 -0.06393097341060638 1.0649070739746094
-0.13279542326927185 0.09959486126899719 1.520929217338562
-0.14895319938659668 -0.08141496032476425 1.1863175630569458
-0.14778126776218414 -0.07666599750518799 1.132326602935791
-0.10045425593852997 0.10036604851484299 1.4180259704589844
-0.08404039591550827 0.09336843341588974 1.3813724517822266
-0.13504008948802948 -0.13959108293056488 1.0290751457214355
-0.10093998163938522 -0.1650981307029724 0.9906768798828125
-0.13797883689403534 -0.02704421617090702 0.7896143794059753
-0.0085598174482584 0.17625494301319122 1.2676045894622803
-0.07625532150268555 0.12167368829250336 1.6142394542694092
-0.19881384074687958 -0.0340312235057354 0.07377120107412338
-0.21250276267528534 -0.019088536500930786 0.06515149027109146
-0.08124527335166931 0.024906856939196587 0.8661190271377563
0.001569865271449089 0.09406879544258118 0.8523063659667969
-0.06686539202928543 -0.021264052018523216 0.8450381755828857
0.02934408001601696 0.08135291934013367 1.3279398679733276
-0.05361057445406914 -0.07986436784267426 0.7632195949554443
-0.08469126373529434 -0.1187233179807663 1.5693875551223755
-0.006947043351829052 0.014173207804560661 0.8712853193283081
-0.005891157314181328 -0.027181152254343033 0.8501997590065002
0.01731300912797451 -0.11932909488677979 0.8554321527481079
-0.078348308801651 -0.1628246009349823 0.8553885817527771
-0.008553458377718925 -0.2239561378955841 0.84794020652771
0.037066489458084106 -0.11128547042608261 0.8354758620262146
-0.009377374313771725 -0.16004031896591187 0.8593961000442505
-0.019263457506895065 0.022464025765657425 1.4655228853225708
0.02925720624625683 -0.03791951388120651 0.8477421998977661
0.03415636345744133 -0.050668805837631226 0.831279993057251
-0.006438199430704117 0.02908506989479065 1.5434640645980835
-0.0015296675264835358 0.03562358766794205 1.5191950798034668
0.04558446258306503 -0.12503454089164734 0.8513270616531372
0.13130445778369904 0.05616939067840576 0.8635233640670776
0.10664977133274078 -0.05735834687948227 0.2585718035697937
0.055447835475206375 -0.03585978224873543 0.8210986852645874
0.1019752025604248 0.10970605909824371 1.2171140909194946
0.13512638211250305 -0.08649730682373047 0.38422876596450806
0.13218824565410614 -0.06832604110240936 0.32290834188461304
0.14840227365493774 -0.0900903046131134 0.33911705017089844
0.1465846300125122 -0.1286013126373291 0.28262192010879517
0.08105547726154327 0.06439797580242157 1.484310507774353
0.08214691281318665 -0.01743539422750473 0.855522096157074
0.1094428300857544 -0.036347828805446625 0.8364275693893433
0.06230319291353226 -0.07868308573961258 1.237224817276001
0.16600321233272552 -0.10062608867883682 0.43302100896835327
0.06414495408535004 0.03979037329554558 1.5898354053497314
0.04849935322999954 -0.03440365195274353 1.284398078918457
0.17908558249473572 -0.08930398523807526 0.3401704728603363
0.13092966377735138 0.1652916818857193 1.2186801433563232
0.0711720734834671 -0.062386639416217804 1.2103734016418457
0.16506710648536682 -0.02672610804438591 0.21377910673618317
0.17514552175998688 0.15149107575416565 1.1406195163726807
0.16301298141479492 -0.016277600079774857 0.2500939965248108
0.19061700999736786 -0.12903159856796265 0.2589367628097534
0.13208048045635223 0.056891292333602905 1.3273626565933228
0.06408972293138504 -0.034460946917533875 1.4431588649749756
0.07157888263463974 -0.033812910318374634 1.4115561246871948
0.06204637140035629 -0.032449714839458466 1.4435977935791016
0.08622914552688599 -0.0332295224070549 1.3914037942886353
0.07114146649837494 -0.1725233793258667 1.2210144996643066
0.057079918682575226 -0.18261905014514923 1.2152575254440308
0.1631702184677124 0.0739191547036171 1.2401117086410522
0.192686066031456 0.10341890901327133 1.1833925247192383
0.18800580501556396 0.0983271449804306 1.1501080989837646
0.07706018537282944 -0.04708186537027359 1.2414616346359253
0.06816470623016357 -0.07732643932104111 1.2568459510803223
0.15906526148319244 -0.18342708051204681 0.8938022255897522
0.07541289180517197 -0.08653215318918228 1.2683390378952026
0.07026393711566925 -0.11496815085411072 1.1681591272354126
0.09383699297904968 -0.058916885405778885 1.1454925537109375
0.07933158427476883 -0.09824206680059433 1.1354918479919434
0.12417015433311462 -0.1471160650253296 1.1861836910247803
0.1517089158296585 -0.14398571848869324 1.0576554536819458
0.12118194997310638 -0.1812002956867218 1.111994981765747
-0.17419244349002838 -0.2062998116016388 1.156158685684204
-0.16829515993595123 -0.1399790197610855 1.202143907546997
-0.17532461881637573 -0.1257789433002472 1.2220498323440552
-0.16353626549243927 -0.19383135437965393 1.1579322814941406
-0.11784303188323975 0.10607220232486725 1.4472019672393799
-0.12268621474504471 0.09432303160429001 1.4311604499816895
-0.11794773489236832 0.10984014719724655 1.3887391090393066
-0.16550536453723907 0.013450175523757935 1.6634156703948975
-0.16972880065441132 -0.019858330488204956 1.5797858238220215
-0.2461605668067932 -0.05689043179154396 0.3421446681022644
-0.13291166722774506 -0.06754165887832642 0.857494592666626
-0.13618351519107819 -0.09186618030071259 0.8383926749229431
-0.05103757232427597 0.17874661087989807 1.0130913257598877
-0.11828179657459259 -0.11565040051937103 1.2403982877731323
-0.11971073597669601 -0.02945573441684246 0.8344093561172485
-0.12089607864618301 -0.0058349668979644775 1.7098153829574585
-0.10947507619857788 -0.12006591260433197 1.121490478515625
-0.07827708125114441 -0.18147847056388855 1.1181830167770386
-0.006543437018990517 0.15318559110164642 1.1145089864730835
0.062420036643743515 0.13317222893238068 1.1147990226745605
-0.07266354560852051 -0.026667151600122452 1.1390380859375
-0.05517476052045822 -0.11465458571910858 0.8487820029258728
-0.06473711878061295 -0.18765881657600403 1.051077127456665
-0.05161280930042267 0.01546119898557663 1.0506147146224976
-0.07513431459665298 -0.10700727254152298 1.6668425798416138
0.0369853638112545 -0.10243068635463715 0.7712839841842651
-0.014817562885582447 0.10157811641693115 1.2966288328170776
0.1191302016377449 -0.07891228795051575 0.05479656159877777
0.16628225147724152 0.16646772623062134 1.0814722776412964
0.12329667061567307 0.12301753461360931 1.1363979578018188
0.12027907371520996 0.19311928749084473 1.0900804996490479
0.09997168928384781 0.08537092804908752 0.8640249967575073
0.17754115164279938 0.0066580623388290405 0.08011006563901901
0.12391339242458344 -0.03857199102640152 0.8634361028671265
0.1687348634004593 -0.09144242852926254 0.3917234241962433
0.06787092983722687 -0.0550752617418766 1.3798234462738037
0.06152244657278061 -0.07908898591995239 1.3057560920715332
0.19920797646045685 -0.001754719763994217 0.8862603902816772
0.19509123265743256 -0.05264157056808472 0.9507765769958496
0.139227956533432 -0.17020003497600555 1.0763003826141357
-0.2581265866756439 -0.1103275716304779 1.1550654172897339
-0.1932278424501419 -0.08249735087156296 0.939608097076416
-0.21150422096252441 -0.0722469836473465 0.8886412382125854
-0.12101501226425171 0.09517112374305725 1.3837544918060303
-0.09139269590377808 0.12317851185798645 1.2527167797088623
-0.1479106843471527 0.02577926591038704 1.5031116008758545
-0.13908842206001282 -0.055443741381168365 1.0329668521881104
-0.14612360298633575 -0.0848625898361206 1.0708768367767334
-0.1469716578722 0.028871480375528336 1.5036399364471436
-0.14704342186450958 0.015690602362155914 1.4905362129211426
-0.14829541742801666 0.022233307361602783 1.4989069700241089
-0.1493239551782608 0.019290588796138763 1.5010889768600464
-0.15526464581489563 0.008635252714157104 1.4908857345581055
-0.24057790637016296 -0.11720015108585358 0.19197534024715424
-0.1706266552209854 -0.05498245358467102 1.6286776065826416
-0.046484194695949554 -0.017666466534137726 1.1933192014694214
-0.20470434427261353 -0.13340164721012115 0.06590785086154938
-0.06488548964262009 -0.02189229428768158 1.234410285949707
-0.0193029697984457 -0.03249513357877731 1.1512030363082886
-0.0348215252161026 0.09236731380224228 0.9246593713760376
-0.06434326618909836 -0.020999208092689514 1.726351261138916
-0.07598577439785004 -0.06595036387443542 0.7030875086784363
0.01026919111609459 0.10191547870635986 1.265537142753601
-0.005077820271253586 -0.19233468174934387 1.0015857219696045
-0.06055434048175812 -0.17926260828971863 1.2185025215148926
0.06517741829156876 0.12075572460889816 1.1556934118270874
0.12609677016735077 -0.06099478155374527 0.18863648176193237
0.05120820179581642 -0.180436909198761 0.9915155172348022
0.10296567529439926 -0.1746819019317627 0.9803134202957153
