-0.0035715028643608093 -0.05645175278186798 1.6942503452301025
0.1110435277223587 -0.1375865936279297 0.06773076951503754
0.10639703273773193 -0.15380582213401794 0.03986189514398575
0.10596086084842682 -0.07225509732961655 0.07442322373390198
-0.04191147908568382 -0.16024449467658997 1.5698786973953247
0.060379479080438614 -0.06255295872688293 0.7037451267242432
0.0897362232208252 0.015443570911884308 1.4284759759902954
0.024431142956018448 -0.07839389145374298 1.4478330612182617
0.060947760939598083 -0.06821036338806152 1.3974785804748535
0.02311939187347889 -0.040086016058921814 1.3802988529205322
0.10324233770370483 -0.0439876951277256 0.3793032765388489
0.1209593117237091 -0.1359279453754425 0.22623282670974731
0.12257672846317291 -0.048508420586586 0.18246608972549438
0.149847149848938 0.11595483869314194 1.0722459554672241
0.14691263437271118 0.14068546891212463 1.0452134609222412
0.09683522582054138 -0.14586582779884338 0.7302361726760864
0.10238982737064362 -0.0521048977971077 0.6475193500518799
-0.0074753537774086 -0.10146765410900116 1.676395297050476
0.032785069197416306 -0.11266569793224335 1.6351680755615234
0.11688417196273804 -0.13127067685127258 0.5407095551490784
0.019083498045802116 -0.0501653254032135 1.7077711820602417
0.04258251190185547 -0.06471095979213715 1.6583338975906372
0.055835992097854614 -0.11009387671947479 1.1278818845748901
0.062124550342559814 -0.09797163307666779 1.1036620140075684
0.05146219953894615 -0.1674431413412094 1.082848310470581
0.013477180153131485 -0.1455782651901245 1.5683012008666992
0.03845164179801941 -0.0793880745768547 1.4784413576126099
0.028035210445523262 -0.1193012073636055 1.4721955060958862
0.1870548576116562 0.09723109006881714 1.0372297763824463
0.04574963450431824 -0.12639504671096802 1.2733817100524902
0.050122734159231186 -0.1849116086959839 1.2350537776947021
0.058085691183805466 -0.12614089250564575 1.2186076641082764
0.16175590455532074 -0.03919548541307449 0.13299624621868134
0.1717105209827423 -0.126587375998497 0.16051244735717773
0.18574301898479462 -0.11511651426553726 0.1452709138393402
0.05621397867798805 -0.04784210026264191 1.6840258836746216
0.0525863915681839 -0.1381700336933136 1.2764543294906616
0.17759393155574799 -0.045914094895124435 0.4202229082584381
0.15708819031715393 -0.09842386841773987 0.47552943229675293
0.1844176948070526 -0.06333060562610626 0.36268067359924316
0.07157422602176666 -0.08582698553800583 1.3888072967529297
0.058210063725709915 -0.08371980488300323 1.3865026235580444
0.0770077258348465 -0.07289241254329681 1.3478370904922485
0.11919113248586655 0.060844939202070236 0.9168550968170166
0.12322285771369934 -0.11732785403728485 0.8537425994873047
0.1893816590309143 -0.054404255002737045 0.23536789417266846
0.20471380650997162 -0.08449257910251617 0.24434548616409302
0.08057603985071182 -0.06016804277896881 1.3402080535888672
0.162800133228302 0.04040563106536865 1.2856347560882568
0.17473845183849335 0.06644180417060852 1.2671504020690918
0.050607264041900635 -0.25008130073547363 1.1323347091674805
0.14996299147605896 -0.06978137791156769 0.9869519472122192
0.15140843391418457 -0.1263716220855713 0.9779152870178223
0.09162680059671402 -0.07617656886577606 1.17014741897583
0.08956805616617203 -0.18931379914283752 1.0705291032791138
0.10808054357767105 -0.15410587191581726 1.0481858253479004
0.09781511127948761 -0.2157173752784729 1.1373835802078247
-0.27907419204711914 -0.046070396900177 1.0443769693374634
-0.2945757210254669 -0.09963395446538925 1.0253398418426514
-0.2322169840335846 -0.09650754928588867 1.1184351444244385
-0.245576411485672 -0.10011535882949829 1.1627140045166016
-0.20625200867652893 -0.06863760948181152 1.1326940059661865
-0.19885751605033875 -0.030617322772741318 1.1534627676010132
-0.18749132752418518 -0.15127193927764893 0.8669092655181885
-0.05494929105043411 0.1523851454257965 1.0550148487091064
-0.06811046600341797 0.13816872239112854 1.1476141214370728
-0.1701727956533432 -0.22411757707595825 1.0961253643035889
-0.14095228910446167 -0.1577216386795044 0.9447886943817139
-0.24982969462871552 -0.05022743344306946 0.26857441663742065
-0.2286863625049591 -0.09872562438249588 0.2831382155418396
-0.18058253824710846 0.005064740311354399 0.4869877099990845
-0.1467009037733078 -0.1910925805568695 0.8486708998680115
-0.1633121371269226 -0.053988903760910034 0.6284907460212708
-0.15580283105373383 -0.09697558730840683 0.6822534799575806
-0.13819292187690735 -0.04078707471489906 0.6900019645690918
-0.10178110003471375 -0.026539571583271027 1.088744878768921
-0.11594559252262115 -0.08352525532245636 1.1073087453842163
0.013051262125372887 0.1739986091852188 1.2161376476287842
-0.11044580489397049 -0.021171359345316887 0.8499681353569031
-0.18462269008159637 -0.10950189083814621 0.29622650146484375
-0.11363528668880463 -0.038264479488134384 1.1895908117294312
-0.09336009621620178 -0.048274051398038864 1.120725393295288
-0.17042705416679382 -0.08738607913255692 0.4361701011657715
-0.1271066963672638 -0.024615826085209846 1.6806849241256714
-0.1352645605802536 -0.05730312690138817 1.6636086702346802
-0.10160346329212189 -0.09346344321966171 1.6706616878509521
-0.12165196985006332 -0.12445798516273499 1.629137635231018
-0.13611359894275665 -0.11700338870286942 1.5339741706848145
-0.16364270448684692 -0.0682196170091629 0.32822278141975403
-0.07270079851150513 -0.12001290172338486 0.7294133901596069
-0.14027491211891174 -0.07663555443286896 0.25662219524383545
-0.1587836742401123 -0.10607216507196426 0.2631840109825134
-0.17497918009757996 -0.022734997794032097 0.19374334812164307
-0.04582974314689636 0.06394250690937042 0.9585512280464172
-0.08352284133434296 -0.017871776595711708 1.7226027250289917
-0.10117162764072418 -0.026217561215162277 1.709441900253296
0.07252770662307739 0.10058349370956421 1.2011440992355347
-0.0026681660674512386 0.11759635806083679 1.194509506225586
0.048485711216926575 0.09138111770153046 1.248948097229004
-0.00658513605594635 -0.05286501348018646 1.23097562789917
0.07384111732244492 0.15868662297725677 1.2481954097747803
0.07730984687805176 0.11591517925262451 1.09371018409729
0.13244366645812988 0.16593776643276215 1.179337978363037
0.025489535182714462 0.06611477583646774 1.629626989364624
0.10590946674346924 0.09943239390850067 1.1031413078308105
0.037727780640125275 -0.21757622063159943 0.8992515802383423
0.0880076065659523 -0.09621430933475494 0.24394568800926208
0.11656179279088974 -0.11137012392282486 0.1833372712135315
0.05745566636323929 -0.1297805905342102 0.6867343783378601
0.033983368426561356 -0.0026528886519372463 1.0646262168884277
0.0827542319893837 -0.04773184284567833 0.5558606386184692
0.10504700243473053 0.05694419890642166 1.3080408573150635
0.03856053575873375 -0.09764185547828674 1.3827077150344849
0.054675374180078506 0.04990530014038086 1.5938515663146973
0.040081389248371124 -0.011873457580804825 1.5541284084320068
0.04524136707186699 0.0049301087856292725 1.5359466075897217
0.013134665787220001 -0.04642944037914276 1.752826452255249
0.03337031975388527 -0.12024305760860443 1.3223592042922974
0.14738179743289948 -0.021070633083581924 0.4851941466331482
0.11581629514694214 -0.008280958980321884 0.4804726243019104
0.1424030214548111 -0.021161198616027832 0.329489529132843
0.16479170322418213 -0.027073625475168228 0.3002949357032776
0.06179969385266304 -0.07842716574668884 1.4693567752838135
0.0506872721016407 -0.08657440543174744 1.4773648977279663
0.06179715692996979 -0.07951986789703369 1.4625160694122314
0.12250231206417084 -0.053007692098617554 0.7551191449165344
0.1404632329940796 -0.0956982970237732 0.6251449584960938
0.12060704082250595 0.020354831591248512 0.9574741721153259
0.0944669246673584 -0.08771643787622452 1.0851614475250244
0.08564490079879761 -0.14016523957252502 1.0707390308380127
0.09766550362110138 -0.162056565284729 1.0190021991729736
0.06619099527597427 -0.04729701206088066 1.5871942043304443
0.07716108858585358 -0.04866398870944977 1.5095808506011963
0.04491597041487694 -0.17704439163208008 1.2164400815963745
0.10245461761951447 0.017592336982488632 1.5036641359329224
0.08736288547515869 -0.011580873280763626 1.5396438837051392
0.19189150631427765 -0.046984896063804626 0.06530831754207611
0.20410063862800598 -0.09729786962270737 0.055248379707336426
0.10978106409311295 -0.0014510340988636017 1.4696059226989746
0.11726473271846771 0.011197186075150967 1.4436718225479126
0.12727734446525574 0.0036878660321235657 1.4132779836654663
0.1302236020565033 0.014970019459724426 1.4009132385253906
0.04957305267453194 -0.25245577096939087 1.1505168676376343
0.1710270643234253 -0.15915165841579437 0.8652638792991638
0.06159357726573944 -0.23110759258270264 1.1626025438308716
0.057188019156455994 -0.2554909288883209 1.1517963409423828
0.19859331846237183 -0.11507080495357513 0.8832536935806274
0.19990579783916473 -0.09208575636148453 0.8638766407966614
0.20998099446296692 -0.05733510106801987 0.8739848732948303
-0.2166576087474823 -0.09569089859724045 1.1718487739562988
-0.17575356364250183 -0.10238533467054367 1.2369738817214966
-0.18396544456481934 -0.10182678699493408 1.2215288877487183
-0.17541198432445526 -0.09388137608766556 1.2279386520385742
-0.1694757044315338 -0.09591098874807358 1.2456116676330566
-0.19421231746673584 0.0009351838380098343 0.8709735870361328
-0.14309380948543549 -0.06584839522838593 1.266297459602356
-0.14646869897842407 -0.06778200715780258 1.0587856769561768
-0.11713074892759323 0.0662197396159172 1.5134185552597046
-0.1460844874382019 -0.0932600349187851 1.1766096353530884
-0.14773689210414886 -0.08446116745471954 1.124189019203186
-0.08659635484218597 0.07206263393163681 1.416155457496643
-0.07068942487239838 0.06619548052549362 1.3821146488189697
-0.13692066073417664 -0.14113226532936096 1.017529010772705
-0.10289988666772842 -0.16503262519836426 0.9799842834472656
-0.13115128874778748 -0.03190052881836891 0.7762762308120728
0.004082617349922657 0.1507512480020523 1.2784364223480225
-0.059477273374795914 0.08437366783618927 1.606410264968872
-0.16757823526859283 -0.03556913137435913 0.054156020283699036
-0.18198463320732117 -0.019097337499260902 0.04382573813199997
-0.08006219565868378 0.023680904880166054 0.8579580187797546
0.0009282603859901428 0.09330011904239655 0.8492003679275513
-0.06359037011861801 -0.023844271898269653 0.8365083932876587
0.03943696990609169 0.058309994637966156 1.3313637971878052
-0.044576626271009445 -0.08464384078979492 0.7564487457275391
-0.07441018521785736 -0.1478925347328186 1.5449717044830322
-0.006962231360375881 0.014083587564527988 0.8671379089355469
-0.0059041669592261314 -0.028023861348628998 0.845450222492218
0.013208869844675064 -0.11901000142097473 0.8494620323181152
-0.07737750560045242 -0.16230913996696472 0.8514808416366577
-0.008537406101822853 -0.22324791550636292 0.844071626663208
0.029768088832497597 -0.11126070469617844 0.8249883055686951
-0.010614600032567978 -0.1592646837234497 0.8553072214126587
-0.01059257984161377 -0.008198622614145279 1.453498125076294
0.023964334279298782 -0.03810448572039604 0.8406794667243958
0.02829383686184883 -0.05054628849029541 0.8209851384162903
0.004845738410949707 -0.004130195826292038 1.5302330255508423
0.008956223726272583 0.004745073616504669 1.5075924396514893
0.03929896280169487 -0.12469301372766495 0.8416516780853271
0.12765750288963318 0.05498654395341873 0.8510611057281494
0.08966528624296188 -0.06780927628278732 0.24088047444820404
0.04751785099506378 -0.035828858613967896 0.8092247247695923
0.10741300880908966 0.0914575457572937 1.2269260883331299
0.118904247879982 -0.09366962313652039 0.36690500378608704
0.11665230244398117 -0.0793846920132637 0.30570709705352783
0.13251960277557373 -0.10006801038980484 0.322665810585022
0.12848632037639618 -0.14001087844371796 0.26735496520996094
0.0905747190117836 0.034289535135030746 1.4757963418960571
0.07731178402900696 -0.01760595664381981 0.843799889087677
0.10168974101543427 -0.036541275680065155 0.8215914964675903
0.060832954943180084 -0.0985894501209259 1.2249960899353027
0.1503330022096634 -0.10706634074449539 0.41655346751213074
0.07443410903215408 0.007094670087099075 1.5750346183776855
0.04946158453822136 -0.06179380789399147 1.272125482559204
0.16364271938800812 -0.10017713904380798 0.3227096199989319
0.1365399956703186 0.1453961431980133 1.231961727142334
0.0710446834564209 -0.07977055758237839 1.2003965377807617
0.1531822681427002 -0.03955978527665138 0.1928265541791916
0.17911915481090546 0.13374000787734985 1.1558809280395508
0.1486775130033493 -0.02896597608923912 0.22948777675628662
0.17204789817333221 -0.1419510841369629 0.24375760555267334
0.13913971185684204 0.036034248769283295 1.329641580581665
0.06941184401512146 -0.06857801228761673 1.4223015308380127
0.07599510997533798 -0.06838912516832352 1.3929733037948608
0.06868255138397217 -0.06561164557933807 1.4240498542785645
0.08961483836174011 -0.061940837651491165 1.3728420734405518
0.05976008623838425 -0.1989816129207611 1.201999306678772
0.04457424581050873 -0.2095348984003067 1.19654381275177
0.16682745516300201 0.05619146674871445 1.2465118169784546
0.19648563861846924 0.08598373085260391 1.194697380065918
0.19078388810157776 0.08423072099685669 1.162667155265808
0.07026159763336182 -0.09040747582912445 1.2265353202819824
0.05812735855579376 -0.12055002152919769 1.2424721717834473
0.15526963770389557 -0.18428148329257965 0.876430869102478
0.06712797284126282 -0.1314110904932022 1.253948450088501
0.05815662071108818 -0.16246958076953888 1.1548402309417725
0.07833269238471985 -0.11014989018440247 1.1295571327209473
0.06492175906896591 -0.14660972356796265 1.1214637756347656
0.11154679954051971 -0.1901935338973999 1.167698860168457
0.13206207752227783 -0.19001807272434235 1.0373971462249756
0.10417045652866364 -0.22601021826267242 1.0942336320877075
-0.1721581667661667 -0.2113940566778183 1.1332262754440308
-0.1623319387435913 -0.15092195570468903 1.1834535598754883
-0.1701943576335907 -0.13843025267124176 1.2041486501693726
-0.16098622977733612 -0.20034244656562805 1.1372743844985962
-0.10306889563798904 0.07633908838033676 1.445239782333374
-0.10758553445339203 0.0644444152712822 1.428818941116333
-0.1035546287894249 0.08201449364423752 1.3892405033111572
-0.14935080707073212 -0.02051318809390068 1.6453535556793213
-0.15468592941761017 -0.05048859119415283 1.5618633031845093
-0.22160673141479492 -0.0650673359632492 0.32506805658340454
-0.12933732569217682 -0.07061662524938583 0.8446849584579468
-0.13086985051631927 -0.09566521644592285 0.8265791535377502
-0.04041241109371185 0.16359734535217285 1.035179615020752
-0.11414539813995361 -0.12977898120880127 1.2246947288513184
-0.11502910405397415 -0.033123262226581573 0.8224773406982422
-0.10497317463159561 -0.041614606976509094 1.6878108978271484
-0.1108776107430458 -0.12677153944969177 1.1108331680297852
-0.07976050674915314 -0.18655306100845337 1.1030669212341309
0.0027213413268327713 0.13513760268688202 1.1310670375823975
0.06964302062988281 0.11663563549518585 1.1304166316986084
-0.07057859748601913 -0.037362467497587204 1.1368045806884766
-0.05188645422458649 -0.11620348691940308 0.8441305756568909
-0.06666786223649979 -0.19133591651916504 1.0389211177825928
-0.051140692085027695 0.010892022401094437 1.0494812726974487
-0.06345513463020325 -0.13832883536815643 1.640189528465271
0.027746448293328285 -0.10189749300479889 0.7591962814331055
-0.005140719935297966 0.0783919245004654 1.3008333444595337
0.10415539145469666 -0.11016238480806351 0.030930466949939728
0.16899754106998444 0.15121257305145264 1.1018059253692627
0.1283262073993683 0.10761871933937073 1.1499916315078735
0.12661467492580414 0.17535006999969482 1.112404465675354
0.09712190181016922 0.0844874158501625 0.8548563122749329
0.16320066154003143 -0.017107021063566208 0.05163348466157913
0.118266761302948 -0.03897702693939209 0.8470081686973572
0.1536141335964203 -0.09926806390285492 0.37492835521698
0.06861618906259537 -0.09394215792417526 1.3637232780456543
0.05533639341592789 -0.12032101303339005 1.2917836904525757
0.1954711228609085 -0.00326384324580431 0.8658342361450195
0.1949804127216339 -0.05461523309350014 0.9308280944824219
0.11972622573375702 -0.21494179964065552 1.057140827178955
-0.2550573945045471 -0.11065113544464111 1.1317344903945923
-0.19417645037174225 -0.08186481893062592 0.9243050217628479
-0.20958665013313293 -0.07384130358695984 0.8726317882537842
-0.1061326339840889 0.06914901733398438 1.383270025253296
-0.07921411842107773 0.10019313544034958 1.26070237159729
-0.13479165732860565 -0.004437588155269623 1.490572452545166
-0.14066274464130402 -0.05706517770886421 1.0263231992721558
-0.14738544821739197 -0.08873827755451202 1.0630474090576172
-0.133127823472023 -0.0022929199039936066 1.4907646179199219
-0.13359111547470093 -0.014587122946977615 1.4782226085662842
-0.13613873720169067 -0.0071784742176532745 1.4873534440994263
-0.1365339607000351 -0.011783767491579056 1.4883021116256714
-0.1425309181213379 -0.02264411747455597 1.4774916172027588
-0.21122920513153076 -0.1212630569934845 0.17313072085380554
-0.15653228759765625 -0.08560768514871597 1.6077797412872314
-0.042934857308864594 -0.03211306035518646 1.1902813911437988
-0.17282214760780334 -0.13678479194641113 0.05620626360177994
-0.06090228259563446 -0.038122016936540604 1.2292490005493164
-0.017793960869312286 -0.04411086440086365 1.1484817266464233
-0.0357215441763401 0.09198494255542755 0.9198307991027832
-0.05188138037919998 -0.05801117792725563 1.70203697681427
-0.06303636729717255 -0.07067237794399261 0.6939614415168762
0.018609941005706787 0.08009006828069687 1.2725636959075928
-0.005522333085536957 -0.1937727928161621 0.9913222789764404
-0.06181061267852783 -0.1916135847568512 1.2004125118255615
0.07181142270565033 0.10350929945707321 1.1688183546066284
0.10833687335252762 -0.072538360953331 0.17092107236385345
0.05090644210577011 -0.18178990483283997 0.9826169013977051
0.1054057627916336 -0.17604073882102966 0.9669079184532166
0.06442303210496902 0.0075143612921237946 1.5040006637573242
0.03376452252268791 -0.1791640818119049 1.1513017416000366
0.018622877076268196 -0.05386916548013687 1.1484043598175049
0.07971906661987305 -0.04282176494598389 1.0809283256530762
0.0813777893781662 0.05448530986905098 0.9530947804450989
0.1559719741344452 -0.14925357699394226 0.0053979139775037766
0.13248227536678314 -0.14182937145233154 0.0009010881185531616
0.1833619475364685 -0.12354093044996262 0.010753724724054337
0.18936702609062195 -0.1225576102733612 0.22694680094718933
0.06777928024530411 -0.06688904762268066 1.420003890991211
0.06956092268228531 -0.06803184747695923 1.4228484630584717
0.04893685132265091 -0.08693153411149979 1.2930985689163208
0.053824447095394135 -0.11438512802124023 1.2795747518539429
0.20971377193927765 0.10528510808944702 1.1039294004440308
0.207032710313797 0.08630715310573578 1.061307430267334
0.21644280850887299 0.08928322792053223 1.0588395595550537
0.1416216790676117 -0.18294984102249146 1.0419100522994995
0.11699233949184418 -0.23701399564743042 1.0392602682113647
0.12193308770656586 -0.26182591915130615 1.0330817699432373
-0.2436445653438568 -0.06759990751743317 1.0660392045974731
-0.17681725323200226 -0.17585887014865875 1.172316074371338
-0.18925660848617554 -0.06975739449262619 0.35663720965385437
-0.007124593481421471 0.14256851375102997 1.0128695964813232
-0.1178935244679451 -0.14386571943759918 1.058653473854065
-0.03395943343639374 -0.045449696481227875 0.8372445702552795
-0.05640621483325958 -0.033909525722265244 0.8005281686782837
-0.05191093683242798 -0.08660315722227097 0.8038790822029114
-0.009996446780860424 -0.005444730166345835 1.095711350440979
0.021683458238840103 -0.20649074018001556 0.8329423069953918
0.09457133710384369 0.01264340989291668 0.8596789836883545
0.14219918847084045 0.10485514998435974 1.1209975481033325
0.07737194001674652 -0.030570538714528084 1.5141804218292236
0.08999936282634735 -0.010566096752882004 1.49691903591156
0.18185460567474365 -0.122899129986763 0.9303019046783447
-0.18065065145492554 -0.18691569566726685 1.1424061059951782
-0.12659960985183716 0.037611737847328186 1.5265610218048096
0.018647510558366776 0.1484513282775879 1.0572963953018188
-0.10533695667982101 0.05754448473453522 1.5588911771774292
-0.08691152185201645 0.024615127593278885 1.5442156791687012
-0.05964381992816925 0.013040408492088318 1.524085521697998
0.012140197679400444 -0.200252503156662 1.0485670566558838
0.02037355676293373 -0.15820443630218506 1.2365474700927734
0.14436624944210052 -0.129099041223526 0.1457451432943344
0.05883444845676422 -0.1496681272983551 1.1969211101531982
0.07437028735876083 -0.13651016354560852 1.1472893953323364
0.11469684541225433 0.02084982767701149 1.412236213684082
0.10593418776988983 0.050756365060806274 1.4284427165985107
0.08176984637975693 -0.09825347363948822 1.1561534404754639
0.12195291370153427 -0.07630982995033264 0.8317134380340576
0.03318287059664726 -0.19218003749847412 1.2238152027130127
0.14218896627426147 0.04810519143939018 1.3485057353973389
-0.07924891263246536 0.09232048690319061 1.3372740745544434
-0.18194414675235748 0.005090869031846523 0.36352136731147766
0.04112759977579117 -0.10272069275379181 0.7177263498306274
-0.015858683735132217 -0.14765672385692596 1.6238842010498047
-0.05437362939119339 0.1631690263748169 1.095548152923584
-0.16318745911121368 -0.09619137644767761 1.248870611190796
-0.13944290578365326 -0.03377189859747887 0.3949158489704132
0.03265190124511719 0.09093409031629562 1.4592012166976929
0.1133909523487091 -0.14737948775291443 0.012375202029943466
0.06599022448062897 -0.08104074001312256 1.459566593170166
0.06305250525474548 -0.0793294608592987 1.4594415426254272
0.06327348202466965 -0.07372555881738663 1.3818564414978027
0.18304036557674408 -0.10938726365566254 0.19469454884529114
0.18345284461975098 -0.07482617348432541 0.17830707132816315
0.06778280436992645 -0.15723446011543274 1.2024133205413818
-0.17128925025463104 -0.15460863709449768 0.9225306510925293
-0.08848641812801361 0.07986953854560852 1.3621180057525635
-0.08890599012374878 0.07697553187608719 1.3639676570892334
-0.09370211511850357 0.07665207982063293 1.3634523153305054
-0.15622884035110474 -0.06490598618984222 0.19441474974155426
-0.03239082917571068 -0.09878452122211456 0.8398488759994507
0.11505550891160965 -0.10560988634824753 0.13541482388973236
0.07269654422998428 -0.18520085513591766 1.165558934211731
0.04745963588356972 -0.10918207466602325 1.58585524559021
0.13675661385059357 -0.0975559800863266 0.7834210395812988
0.1320721060037613 0.01475425437092781 1.3839441537857056
0.13623669743537903 0.03165477141737938 1.3566213846206665
0.10978811234235764 -0.05245807021856308 0.03700636327266693
-0.07951620221138 -0.4885992407798767 1.1099835634231567
-0.07075244188308716 -0.46751540899276733 1.0795868635177612
-0.07514077425003052 -0.4746793508529663 1.0844807624816895
-0.08048321306705475 -0.4645356833934784 1.0919628143310547
-0.08403462171554565 -0.4858957529067993 1.0966640710830688
-0.0761326253414154 -0.4823571443557739 1.108309268951416
0.004015445709228516 -0.3789215385913849 1.0651367902755737
-0.007705566473305225 -0.379528284072876 1.0636392831802368
-0.008900942280888557 -0.39894750714302063 1.0729713439941406
-0.017157670110464096 -0.4047674536705017 1.0775609016418457
0.06705499440431595 -0.27368786931037903 0.9808295369148254
0.06247052550315857 -0.2776075303554535 0.9997430443763733
0.06572504341602325 -0.2841947078704834 0.9764942526817322
-0.020916329696774483 -0.39316415786743164 1.0323681831359863
-0.02564641647040844 -0.40516233444213867 1.0490670204162598
-0.017745597288012505 -0.42149946093559265 1.099593162536621
-0.01670229807496071 -0.4144466519355774 1.089162826538086
0.04422459006309509 -0.30703240633010864 0.9658970832824707
0.037337079644203186 -0.3130447566509247 0.9860682487487793
0.04297979548573494 -0.3346325755119324 1.0543538331985474
0.04184918850660324 -0.32946470379829407 1.0470331907272339
-0.05531103163957596 -0.47109559178352356 1.1173964738845825
-0.06006862223148346 -0.4595016837120056 1.0736991167068481
0.06678523123264313 -0.285321980714798 0.9653670191764832
0.05924735590815544 -0.28935980796813965 0.961048424243927
0.18805837631225586 -0.16018667817115784 1.0200932025909424
0.183396115899086 -0.16667702794075012 1.019869327545166
0.1859298199415207 -0.15972900390625 0.999311089515686
-0.039013348519802094 -0.44026583433151245 1.098190188407898
-0.04839625954627991 -0.4561091661453247 1.1037348508834839
0.06584283709526062 -0.2876031994819641 0.9603439569473267
0.06254670023918152 -0.2902321517467499 0.950880765914917
-0.09605506807565689 -0.5093998312950134 1.0616788864135742
-0.09731262922286987 -0.5168554186820984 1.0741580724716187
0.20230716466903687 -0.1490877866744995 1.0123074054718018
0.19633592665195465 -0.1563447117805481 1.0250682830810547
0.1967260241508484 -0.14939960837364197 1.0054187774658203
0.189528226852417 -0.15644317865371704 0.9974789023399353
-0.1066436693072319 -0.5375727415084839 1.1290700435638428
-0.11262628436088562 -0.5527035593986511 1.1432768106460571
-0.11498118937015533 -0.5522879958152771 1.1246669292449951
0.00862916186451912 -0.3590097725391388 1.002012014389038
0.00487985834479332 -0.3724433183670044 1.0065382719039917
-0.010683541186153889 -0.3862319588661194 0.9985402226448059
-0.0009321356192231178 -0.38278740644454956 1.0007442235946655
0.19544555246829987 -0.16510429978370667 1.0286797285079956
0.199996680021286 -0.15210941433906555 0.9992368817329407
-0.023526320233941078 -0.4371718168258667 1.1132802963256836
-0.016066284850239754 -0.4384928345680237 1.1163651943206787
-0.03371165692806244 -0.4472094178199768 1.1167439222335815
-0.0413038432598114 -0.4629569351673126 1.1232919692993164
0.03211485967040062 -0.3346063196659088 0.9847681522369385
0.023951787501573563 -0.34585630893707275 0.9827041625976562
0.020261095836758614 -0.34456729888916016 0.9900474548339844
0.20308589935302734 -0.15440025925636292 1.0045936107635498
0.19575242698192596 -0.1643151044845581 1.0270309448242188
0.19297382235527039 -0.16478464007377625 1.0006380081176758
0.07086212188005447 -0.27336323261260986 0.9184151887893677
0.06752851605415344 -0.27632129192352295 0.9127300977706909
0.06919240206480026 -0.28067636489868164 0.9370665550231934
0.0690910741686821 -0.28413161635398865 0.9270609021186829
0.06692449748516083 -0.27836763858795166 0.9218664765357971
-0.01128331571817398 -0.40559646487236023 0.9964762330055237
-0.013288726098835468 -0.39472055435180664 0.990570068359375
-0.014814927242696285 -0.3992607891559601 0.9799013137817383
-0.020872609689831734 -0.3992539048194885 0.9830748438835144
0.19281744956970215 -0.16431814432144165 1.011091947555542
-0.10763586312532425 -0.558700442314148 1.1487910747528076
-0.11439044028520584 -0.5565049052238464 1.1324207782745361
-0.11219484359025955 -0.5691767930984497 1.1473420858383179
-0.12108595669269562 -0.5667868852615356 1.1526310443878174
-0.11682872474193573 -0.5506610870361328 1.116701364517212
0.08880791068077087 -0.2861279547214508 0.9770216941833496
0.07199691236019135 -0.29174238443374634 0.9658361673355103
-0.08122637867927551 -0.5015610456466675 1.0551942586898804
-0.09963350743055344 -0.5195075273513794 1.0673909187316895
-0.10238847881555557 -0.5314416289329529 1.0839053392410278
0.05856987088918686 -0.3377474546432495 1.050374984741211
0.04880840703845024 -0.34891390800476074 1.0552910566329956
0.04441346973180771 -0.3594425916671753 1.052321195602417
-0.015597257763147354 -0.4382397532463074 1.1158229112625122
-0.0190704558044672 -0.4445253610610962 1.1084766387939453
-0.04431464150547981 -0.47832411527633667 1.123820185661316
-0.00854572281241417 -0.4176652431488037 1.096280813217163
-0.05627622455358505 -0.4826625883579254 1.0667657852172852
-0.07915505021810532 -0.5048438310623169 1.070990800857544
0.060968026518821716 -0.33643555641174316 1.0468380451202393
-0.009919511154294014 -0.4321051836013794 1.0808357000350952
0.0038443859666585922 -0.4180981516838074 1.0734835863113403
-0.014902807772159576 -0.4413255751132965 1.0893102884292603
-0.0973336324095726 -0.5397083759307861 1.1177809238433838
-0.09175492823123932 -0.5306706428527832 1.105329990386963
-0.017722593620419502 -0.41888636350631714 1.0320974588394165
-0.014503931626677513 -0.42355361580848694 1.0439561605453491
-0.02518230676651001 -0.43557795882225037 1.052106261253357
-0.018459800630807877 -0.4397255480289459 1.0604568719863892
0.025063224136829376 -0.38281911611557007 1.0569696426391602
-0.0017731841653585434 -0.40614914894104004 1.0710766315460205
-0.04685823246836662 -0.47728314995765686 1.1067332029342651
-0.0562724769115448 -0.49650540947914124 1.1039601564407349
-0.06572844088077545 -0.4944312572479248 1.1107573509216309
-0.04660738632082939 -0.4746539294719696 1.080322027206421
-0.05101481452584267 -0.48145145177841187 1.0765668153762817
0.010445082560181618 -0.39973193407058716 1.0271848440170288
-0.0025642234832048416 -0.41146379709243774 1.0329593420028687
0.005683166440576315 -0.3894200026988983 1.0112515687942505
-0.0021358951926231384 -0.4087299704551697 1.022721529006958
-0.01296798326075077 -0.41421812772750854 1.0337575674057007
0.020330900326371193 -0.38457202911376953 1.0350117683410645
0.02997567504644394 -0.3777644634246826 1.0354540348052979
0.027277708053588867 -0.3656321167945862 1.0073834657669067
0.02783854305744171 -0.3744058310985565 1.0229436159133911
-0.05815606564283371 -0.4884607195854187 1.0822290182113647
-0.06361570954322815 -0.5016012191772461 1.0921540260314941
-0.0635085478425026 -0.49359309673309326 1.08519446849823
-0.053477056324481964 -0.5001023411750793 1.0885628461837769
0.09047535806894302 -0.2988080382347107 0.9916738867759705
-0.05986452102661133 -0.4490351378917694 1.0955737829208374
-0.0709858238697052 -0.4586988091468811 1.0897787809371948
-0.027484316378831863 -0.40683233737945557 1.0722576379776
-0.029079366475343704 -0.4063379168510437 1.0676844120025635
-0.038647912442684174 -0.4155316948890686 1.0776721239089966
-0.034503497183322906 -0.4108758866786957 1.0677942037582397
-0.03557963669300079 -0.4183272123336792 1.0775947570800781
-0.006384100764989853 -0.3869761824607849 1.0457862615585327
-0.017808575183153152 -0.3905963599681854 1.04904305934906
-0.0005224971100687981 -0.37379395961761475 1.0389881134033203
-0.035025253891944885 -0.41991662979125977 1.081929087638855
-0.07518703490495682 -0.4786236882209778 1.0641945600509644
-0.08256442844867706 -0.48799803853034973 1.0887236595153809
-0.031662244349718094 -0.4114280045032501 1.045783519744873
-0.09525440633296967 -0.49973833560943604 1.106854796409607
-0.10293649882078171 -0.5191907286643982 1.1073906421661377
-0.09172811359167099 -0.5078744292259216 1.0960149765014648
-0.10856946557760239 -0.530091404914856 1.1210848093032837
0.08359077572822571 -0.27145975828170776 0.996745228767395
0.07832091301679611 -0.30337798595428467 1.0682919025421143
0.06889427453279495 -0.30446088314056396 1.0637701749801636
0.07497622072696686 -0.3073500096797943 1.0706915855407715
0.034346677362918854 -0.32647860050201416 0.9888300895690918
0.17850211262702942 -0.16392451524734497 0.9909815788269043
0.1832643300294876 -0.17190814018249512 1.0338892936706543
0.1745428591966629 -0.18146821856498718 1.0288889408111572
0.172084778547287 -0.17784583568572998 1.0198700428009033
0.010889491066336632 -0.3876686692237854 1.0750019550323486
-0.062023963779211044 -0.4827617406845093 1.1317470073699951
-0.11043327301740646 -0.5329197645187378 1.1003460884094238
0.14097687602043152 -0.20451697707176208 0.9923993945121765
0.1315654218196869 -0.22697696089744568 0.9891595840454102
0.021650372073054314 -0.37242382764816284 1.076687216758728
0.011601079255342484 -0.37710651755332947 1.0716581344604492
-0.008763987571001053 -0.40355604887008667 1.0817912817001343
-0.11286754906177521 -0.5415315628051758 1.1012040376663208
-0.11520737409591675 -0.5593483448028564 1.1541345119476318
-0.11563634127378464 -0.5658692121505737 1.1580467224121094
-0.12226604670286179 -0.5622998476028442 1.1399797201156616
0.10101421177387238 -0.25820720195770264 0.9936801195144653
0.09354923665523529 -0.27172181010246277 0.9979219436645508
0.0008981358259916306 -0.40700268745422363 1.0802429914474487
0.07982749491930008 -0.273425817489624 0.9798982739448547
-0.10078581422567368 -0.5241053104400635 1.0763517618179321
0.11065716296434402 -0.2755137085914612 1.0791068077087402
0.11140230298042297 -0.2773629426956177 1.0747133493423462
0.10191996395587921 -0.28428253531455994 1.0672426223754883
0.10070621967315674 -0.2886948883533478 1.0787726640701294
0.09547090530395508 -0.2988527715206146 1.0812331438064575
0.0883108600974083 -0.2858005166053772 1.043440818786621
0.0982164740562439 -0.2858637571334839 1.0488120317459106
-0.11972078680992126 -0.5665343999862671 1.159732460975647
-0.03312825411558151 -0.42562925815582275 1.0361896753311157
-0.03576929122209549 -0.43635356426239014 1.0434379577636719
-0.03944704309105873 -0.4367014765739441 1.0464452505111694
-0.021953944116830826 -0.4134984016418457 1.0180988311767578
0.10671153664588928 -0.2893754839897156 1.075444221496582
0.09666861593723297 -0.3027706444263458 1.0792546272277832
0.06601430475711823 -0.2949170470237732 0.9531818628311157
0.10633760690689087 -0.2855309844017029 1.075331449508667
0.10162299126386642 -0.28786152601242065 1.0675017833709717
-0.016366668045520782 -0.427524209022522 1.1033499240875244
0.06093604117631912 -0.3006388247013092 0.9276807904243469
0.059789028018713 -0.2982061505317688 0.9200849533081055
0.0471188947558403 -0.3053763806819916 0.9148648977279663
0.0444524884223938 -0.31271880865097046 0.9213135242462158
0.10089940577745438 -0.28475773334503174 0.9975551962852478
0.08773889392614365 -0.30968329310417175 1.0665359497070312
-0.026359261944890022 -0.4470805525779724 1.0951735973358154
-0.03905229642987251 -0.4635920822620392 1.1050302982330322
0.06118426099419594 -0.30799540877342224 0.9542050361633301
0.06190937012434006 -0.3131752610206604 0.9547482132911682
0.055151812732219696 -0.3079022765159607 0.9402939081192017
-0.033801160752773285 -0.4629431962966919 1.09804368019104
-0.025845127180218697 -0.44947636127471924 1.085780382156372
-0.03144825994968414 -0.4558054208755493 1.0706533193588257
-0.021346403285861015 -0.44563955068588257 1.0653022527694702
-0.08844108879566193 -0.516231119632721 1.0876597166061401
-0.08326637744903564 -0.5190410017967224 1.0907412767410278
0.07290053367614746 -0.30752289295196533 0.9702078104019165
0.08122625946998596 -0.313273549079895 1.0167869329452515
0.07240548729896545 -0.3284473419189453 1.0154387950897217
0.07386932522058487 -0.3219849467277527 1.0057859420776367
0.05981414020061493 -0.33726727962493896 1.021342158317566
0.050553202629089355 -0.3413197994232178 1.0153247117996216
-0.03663120046257973 -0.4709978997707367 1.082399606704712
-0.02659304253757 -0.4618053138256073 1.0795447826385498
-0.04611361026763916 -0.4927363991737366 1.0975341796875
0.009040743112564087 -0.4216759204864502 1.0626411437988281
-0.008890397846698761 -0.44134747982025146 1.0754263401031494
0.0012510111555457115 -0.4234358072280884 1.0639863014221191
-0.012204263359308243 -0.4320288300514221 1.0618221759796143
-0.01073572039604187 -0.44003909826278687 1.0684205293655396
-0.01081350538879633 -0.4283289313316345 1.0690152645111084
-0.012750044465065002 -0.44295138120651245 1.0697546005249023
-0.04872778803110123 -0.5033658742904663 1.0975664854049683
-0.05159362405538559 -0.4969870448112488 1.0870864391326904
-0.06739020347595215 -0.4619510769844055 1.1006660461425781
-0.08289242535829544 -0.47676217555999756 1.1051455736160278
-0.07333457469940186 -0.4614749848842621 1.0850574970245361
-0.07882934808731079 -0.47431761026382446 1.0959371328353882
0.06743156909942627 -0.2940518856048584 1.050660490989685
0.057089827954769135 -0.2879525125026703 0.9878122806549072
0.04859452322125435 -0.29544973373413086 0.9859701991081238
0.07939192652702332 -0.27636292576789856 1.0237197875976562
-0.05485585704445839 -0.4575231075286865 1.1022400856018066
-0.052563659846782684 -0.44757673144340515 1.0757304430007935
0.03803751617670059 -0.32167091965675354 1.0142031908035278
0.03200004622340202 -0.32586905360221863 1.0031341314315796
0.056951358914375305 -0.3077692985534668 1.046064019203186
0.05145420879125595 -0.3193870782852173 1.0499845743179321
-0.04590800404548645 -0.44088882207870483 1.0731725692749023
-0.05970937758684158 -0.4673827290534973 1.1074198484420776
0.024556875228881836 -0.3444935977458954 1.0170204639434814
0.003976404666900635 -0.364474356174469 1.0314518213272095
0.0066870516166090965 -0.3623324930667877 1.0114386081695557
-0.040314871817827225 -0.4234810769557953 1.0602003335952759
-0.09728046506643295 -0.5216373801231384 1.1206603050231934
-0.11120864003896713 -0.5425176024436951 1.1298766136169434
-0.10976575314998627 -0.5449563264846802 1.1141822338104248
0.08629118651151657 -0.29318559169769287 1.0785878896713257
0.06600329279899597 -0.31749671697616577 1.0753577947616577
0.03418171405792236 -0.34810709953308105 1.0605586767196655
0.022056913003325462 -0.36469846963882446 1.0691909790039062
0.0025308486074209213 -0.3734721839427948 1.0095640420913696
0.06155261769890785 -0.3289499878883362 1.08600914478302
0.058464281260967255 -0.31439492106437683 1.0525751113891602
0.05570293962955475 -0.3293713331222534 1.0521879196166992
-0.07190143316984177 -0.4965932369232178 1.133942723274231
-0.08454006165266037 -0.515066385269165 1.128556728363037
-0.04272475093603134 -0.43563348054885864 1.0477631092071533
0.1248268187046051 -0.23423756659030914 1.016219973564148
0.1306515485048294 -0.22306056320667267 1.0142664909362793
-0.01767626404762268 -0.3905813694000244 0.9932824373245239
0.03214714676141739 -0.3652579188346863 1.0639102458953857
0.028588756918907166 -0.37528350949287415 1.07832670211792
-0.06546369194984436 -0.4926685690879822 1.1331031322479248
-0.06462804973125458 -0.5004134774208069 1.1306253671646118
-0.07773037999868393 -0.507583737373352 1.1322753429412842
0.04815692827105522 -0.3155626058578491 0.9527890086174011
0.042168814688920975 -0.3253246545791626 0.9514528512954712
0.03716852143406868 -0.32420551776885986 0.951846182346344
0.044252488762140274 -0.30809518694877625 0.945338785648346
0.048417478799819946 -0.30996471643447876 0.9395305514335632
0.04456165060400963 -0.3107283115386963 0.9266995191574097
0.03157791495323181 -0.32795193791389465 0.9738215208053589
0.04289761558175087 -0.30750301480293274 0.9202021360397339
0.0348392128944397 -0.31376853585243225 0.9142481088638306
0.09934399276971817 -0.27842211723327637 1.0223572254180908
0.0969662219285965 -0.2822253108024597 1.0233160257339478
0.08650574833154678 -0.27680832147598267 0.9928653240203857
0.08436241745948792 -0.30283060669898987 1.072187900543213
0.08170872181653976 -0.30961865186691284 1.0690970420837402
-0.015612022951245308 -0.4380306005477905 1.1273422241210938
-0.015939034521579742 -0.4332287311553955 1.127418041229248
-0.0140103530138731 -0.427137553691864 1.1126484870910645
0.04559679329395294 -0.31736090779304504 0.9125534296035767
0.042656637728214264 -0.3034115731716156 0.911795973777771
0.03637313470244408 -0.3284713625907898 0.9714146256446838
-0.05998947098851204 -0.4713495373725891 1.0579031705856323
-0.07283700257539749 -0.48305660486221313 1.0583547353744507
0.102576345205307 -0.29201173782348633 1.0508837699890137
0.10765118896961212 -0.2680034041404724 1.0199335813522339
-0.05645839124917984 -0.4935082197189331 1.1148885488510132
-0.009145684540271759 -0.3927854299545288 0.9957547187805176
0.17258013784885406 -0.18986421823501587 0.9936521053314209
0.16635221242904663 -0.20016032457351685 0.9946577548980713
-0.002838817425072193 -0.39865005016326904 1.0048301219940186
0.11319757997989655 -0.265750527381897 1.0070221424102783
0.10441957414150238 -0.27851173281669617 1.0116912126541138
0.1009388417005539 -0.27637773752212524 1.0003395080566406
-0.03783115744590759 -0.46504783630371094 1.0787230730056763
0.08323227614164352 -0.29289594292640686 0.973435640335083
0.012724418193101883 -0.3862178325653076 1.0157496929168701
0.09979748725891113 -0.2922145128250122 1.0145655870437622
0.09094513952732086 -0.30254828929901123 1.0179132223129272
0.09300068765878677 -0.30072689056396484 1.0416523218154907
0.08182983100414276 -0.3119562268257141 1.0297855138778687
0.10206986218690872 -0.2861957550048828 1.0016958713531494
0.09265823662281036 -0.2864803969860077 0.9900470972061157
-0.03337506577372551 -0.46799516677856445 1.0867059230804443
-0.013912570662796497 -0.3906613886356354 1.0662310123443604
-0.02193283662199974 -0.3874691128730774 1.06194269657135
-0.02192680910229683 -0.3981646001338959 1.0739717483520508
-0.018070142716169357 -0.38596707582473755 1.0547488927841187
-0.03162345290184021 -0.39729639887809753 1.0657707452774048
-0.04923771694302559 -0.43765756487846375 1.0926486253738403
-0.05505842715501785 -0.445842444896698 1.0995234251022339
-0.02622089721262455 -0.4066500663757324 1.063858151435852
-0.03566312417387962 -0.4145675599575043 1.0560673475265503
-0.043801065534353256 -0.43111321330070496 1.0767401456832886
-0.04182843863964081 -0.4296916425228119 1.0867393016815186
0.04405967891216278 -0.30881088972091675 1.010068416595459
0.07455993443727493 -0.29456984996795654 1.0640977621078491
0.0877520889043808 -0.28264492750167847 1.0497982501983643
0.09845839440822601 -0.2530757486820221 1.0138992071151733
0.0994056910276413 -0.2521400451660156 1.0044910907745361
-0.02366010472178459 -0.4111432433128357 1.0265154838562012
-0.007362430915236473 -0.3808813691139221 1.0158908367156982
-0.023952443152666092 -0.3991604745388031 0.9929903745651245
-0.015491414815187454 -0.3897032141685486 1.0188977718353271
0.17200800776481628 -0.187558114528656 1.0278204679489136
0.18333792686462402 -0.16804328560829163 1.0070514678955078
0.17369838058948517 -0.1769503355026245 1.0131793022155762
0.17117993533611298 -0.17850752174854279 1.003262996673584
0.1591705083847046 -0.18163347244262695 0.9986563324928284
0.1251802146434784 -0.22853946685791016 0.9910910129547119
0.11348780989646912 -0.2396446168422699 0.9932385683059692
0.10379518568515778 -0.2764095067977905 1.0778266191482544
-0.018369903787970543 -0.4354841113090515 1.1252079010009766
-0.04582105576992035 -0.4656524360179901 1.1211317777633667
-0.08492671698331833 -0.49565428495407104 1.0544743537902832
-0.08230665326118469 -0.49228471517562866 1.0576988458633423
0.05312906950712204 -0.2942422032356262 0.9225447177886963
0.04236648231744766 -0.30261269211769104 0.9157153367996216
0.13726341724395752 -0.2330455482006073 1.0144248008728027
0.12651006877422333 -0.2407417893409729 1.0149972438812256
-0.019965320825576782 -0.43093380331993103 1.129428505897522
0.019470302388072014 -0.3638501465320587 0.9993325471878052
0.012121088802814484 -0.37402108311653137 1.0055803060531616
0.02931325137615204 -0.3722027540206909 1.068692922592163
0.018329085782170296 -0.3795890808105469 1.0694468021392822
0.007361525669693947 -0.39411038160324097 1.0718894004821777
0.056645337492227554 -0.329515278339386 0.9818223714828491
0.16376063227653503 -0.20904995501041412 1.0062493085861206
0.1546114832162857 -0.2176099568605423 0.9950994253158569
-0.08476550877094269 -0.5231133699417114 1.1005388498306274
0.06051141023635864 -0.34021860361099243 1.0383868217468262
0.052812475711107254 -0.3537519574165344 1.0295246839523315
0.05933324620127678 -0.3293152451515198 0.9954451322555542
0.05769479274749756 -0.32384222745895386 0.9700862169265747
0.04053540527820587 -0.33617663383483887 0.9895574450492859
0.07300232350826263 -0.3170166611671448 1.0239640474319458
0.08235311508178711 -0.31771382689476013 1.0406219959259033
0.07364252209663391 -0.32468748092651367 1.0397459268569946
0.06945699453353882 -0.3299565017223358 1.0261409282684326
0.06044445186853409 -0.2925412058830261 1.0276848077774048
0.07137598097324371 -0.2731918692588806 1.0067245960235596
0.06500685960054398 -0.28150856494903564 1.0168840885162354
0.057062163949012756 -0.28872084617614746 1.006222128868103
-0.06503645330667496 -0.45730531215667725 1.081665277481079
0.05222932994365692 -0.2915300726890564 0.9747911095619202
-0.07582785189151764 -0.49030810594558716 1.1141104698181152
0.023733140900731087 -0.3380821943283081 1.0017635822296143
0.15161539614200592 -0.1949092596769333 1.011320948600769
0.14221319556236267 -0.20139728486537933 1.0049718618392944
0.1449602097272873 -0.2005743384361267 0.9979363679885864
0.06559543311595917 -0.3143584728240967 1.0537066459655762
0.06302501261234283 -0.32740098237991333 1.076226830482483
0.06737404316663742 -0.3159976005554199 1.0598064661026
0.04721580445766449 -0.30838966369628906 0.9522217512130737
0.0308152474462986 -0.31075233221054077 0.9144079089164734
-0.05103326216340065 -0.450656533241272 1.0542986392974854
-0.05387032404541969 -0.457893967628479 1.054871678352356
-0.06238631159067154 -0.46689778566360474 1.0609946250915527
0.08744601160287857 -0.2778608798980713 1.0274358987808228
0.06577571481466293 -0.32830411195755005 1.0808621644973755
0.057994309812784195 -0.33001708984375 1.080137848854065
0.06540749967098236 -0.3273979425430298 1.065902590751648
0.0647263452410698 -0.32609662413597107 1.0497971773147583
-0.10040455311536789 -0.5149091482162476 1.0637061595916748
-0.11093120276927948 -0.5367159843444824 1.09546959400177
0.17681507766246796 -0.17987948656082153 0.9992316961288452
0.18296222388744354 -0.17110615968704224 0.9823310375213623
0.1811065375804901 -0.17137020826339722 0.9949467182159424
0.17699120938777924 -0.1786787509918213 0.995097815990448
0.17600595951080322 -0.1806454062461853 0.9880824089050293
0.17282523214817047 -0.168132483959198 0.9788461327552795
0.17103910446166992 -0.18056830763816833 0.9846272468566895
0.04085754230618477 -0.3335333466529846 0.984777569770813
0.16131316125392914 -0.1940249502658844 0.9796589612960815
0.13763535022735596 -0.23155897855758667 0.9934821724891663
0.12625069916248322 -0.24104633927345276 0.9912367463111877
0.1237383484840393 -0.25103041529655457 1.0061235427856445
0.09899882972240448 -0.289928674697876 1.0189299583435059
0.0950084775686264 -0.29003918170928955 1.0355321168899536
0.04689512401819229 -0.32617950439453125 0.9616168141365051
0.03380132466554642 -0.37876152992248535 1.0447368621826172
0.03764167055487633 -0.36344781517982483 1.0241419076919556
-0.025242174044251442 -0.4622936546802521 1.0829246044158936
0.024437207728624344 -0.3959297835826874 1.0484826564788818
0.013084040954709053 -0.4113204777240753 1.0589113235473633
0.021906331181526184 -0.4106406569480896 1.0489284992218018
0.004703357815742493 -0.4214214086532593 1.0590627193450928
0.016682913526892662 -0.35682761669158936 1.051098346710205
-0.0010058511979877949 -0.3662799596786499 1.0521689653396606
0.02539905533194542 -0.3460800051689148 1.0511109828948975
0.005074655637145042 -0.35961824655532837 1.0413457155227661
-0.0924571305513382 -0.4986807107925415 1.0763698816299438
0.10009463131427765 -0.2535328269004822 0.9977290034294128
0.0875643715262413 -0.2658773958683014 0.999879777431488
0.0875709056854248 -0.26576724648475647 1.0135554075241089
0.11761465668678284 -0.231704980134964 1.009108543395996
0.11146577447652817 -0.23919640481472015 1.0135498046875
-0.02388080768287182 -0.4268413186073303 1.1100140810012817
-0.030831143260002136 -0.43428120017051697 1.1090654134750366
-0.011893892660737038 -0.41825413703918457 1.0992296934127808
-0.069109708070755 -0.4765918254852295 1.0585596561431885
0.07019785791635513 -0.2744382917881012 0.9182687997817993
0.06468845158815384 -0.2786388397216797 0.9185881018638611
0.19009049236774445 -0.1622956395149231 0.9867026805877686
0.17930655181407928 -0.16339418292045593 0.9793736338615417
0.16951477527618408 -0.19611382484436035 1.0381981134414673
0.17213596403598785 -0.2044648826122284 1.0322035551071167
-0.07952326536178589 -0.5158668756484985 1.1269028186798096
-0.09255195409059525 -0.5306839942932129 1.1244219541549683
