-0.2975504994392395 -0.03697352111339569 1.0730934143066406
-0.29340314865112305 -0.08983051031827927 1.0585119724273682
-0.27836260199546814 -0.07439849525690079 1.0568156242370605
-0.2990812063217163 -0.10757516324520111 1.0927505493164062
-0.24585473537445068 -0.03823219984769821 1.070042610168457
-0.2749360501766205 -0.11084786057472229 1.0765057802200317
-0.1923164576292038 -0.017039373517036438 1.2162221670150757
-0.19552366435527802 -0.06811191141605377 1.1905202865600586
-0.17302745580673218 -0.09564897418022156 0.954094648361206
-0.17708167433738708 -0.014395513571798801 0.9341635704040527
-0.12692977488040924 0.05105005204677582 0.921391487121582
-0.07904408872127533 0.12619943916797638 1.256543755531311
-0.07375244796276093 0.12558552622795105 1.1994956731796265
-0.0686480849981308 0.14970193803310394 1.1771246194839478
-0.15194503962993622 -0.010655784048140049 0.9553972482681274
-0.1861368715763092 0.013721093535423279 1.6824915409088135
-0.14570903778076172 -0.01078178733587265 1.3326400518417358
-0.16495582461357117 -0.0072506144642829895 1.2684680223464966
-0.00783141516149044 0.1426449418067932 1.0857967138290405
-0.028754645958542824 0.1474137306213379 1.0097054243087769
-0.27253299951553345 -0.08081717044115067 0.11113479733467102
-0.290589302778244 -0.13671453297138214 0.066280797123909
-0.16469980776309967 0.00015601515769958496 1.6668150424957275
-0.15037816762924194 0.014655236154794693 1.6143994331359863
-0.15454669296741486 -0.13008591532707214 1.2222907543182373
-0.15464332699775696 -0.1440410614013672 1.1973438262939453
-0.15981222689151764 -0.16335704922676086 1.191145896911621
-0.08876942098140717 0.0867486521601677 1.3607146739959717
-0.08029887080192566 0.07992906868457794 1.3574997186660767
-0.13600434362888336 -0.1344364732503891 1.2382179498672485
-0.143460214138031 -0.06342257559299469 1.1879997253417969
-0.24407841265201569 -0.10034248977899551 0.1749812811613083
-0.25240230560302734 -0.05537033453583717 0.18553119897842407
-0.03363119065761566 0.10514426231384277 1.250708818435669
-0.15054050087928772 -0.031510043889284134 1.4244815111160278
-0.14866729080677032 -0.025507964193820953 1.4045469760894775
-0.13605713844299316 -0.02735087275505066 1.3873014450073242
-0.1507461965084076 -0.02326072007417679 1.384934663772583
-0.15175798535346985 -0.039192646741867065 1.3734716176986694
-0.14356014132499695 -0.11206991970539093 0.7834147214889526
-0.1564100682735443 -0.07334889471530914 0.7776765823364258
0.004570415243506432 0.19524967670440674 1.09931480884552
0.0015701623633503914 0.19170258939266205 1.1464660167694092
-0.12701638042926788 -0.127963587641716 1.2330002784729004
-0.12426933646202087 -0.11091358214616776 0.8565198183059692
-0.2452905774116516 -0.01745717227458954 0.10567862540483475
-0.2503349184989929 -0.019284110516309738 0.06691963970661163
-0.1365923136472702 -0.1847505271434784 0.8444032669067383
-0.030399074777960777 0.16332487761974335 1.2371227741241455
-0.15254513919353485 -0.10557965934276581 1.571282148361206
-0.11911803483963013 0.0019734352827072144 1.5014042854309082
-0.08139016479253769 0.08171004056930542 1.4818828105926514
-0.08391879498958588 0.047342538833618164 1.5323121547698975
-0.10490749031305313 0.048186518251895905 1.5073208808898926
-0.08972080796957016 0.06721770763397217 1.4303067922592163
-0.037826795130968094 0.09981618076562881 1.5265507698059082
-0.11325814574956894 -0.030546918511390686 1.4532428979873657
-0.08502644300460815 0.04390405863523483 0.9673101305961609
-0.12801378965377808 0.004618890583515167 1.7617971897125244
-0.1354595422744751 -0.0004145130515098572 1.755002498626709
-0.14350491762161255 -0.010075733065605164 1.7419646978378296
-0.00984993390738964 0.04760527238249779 1.426892876625061
-0.05834435299038887 0.09853549301624298 1.404307246208191
-0.1884186863899231 -0.08670461177825928 0.033746592700481415
-0.007558322045952082 0.1347285956144333 1.3562043905258179
-0.12103574723005295 -0.10574664175510406 1.486981987953186
-0.16324736177921295 -0.06272415071725845 0.3866803050041199
-0.05139468237757683 0.04596557840704918 1.479496955871582
-0.07665205746889114 0.007345452904701233 1.4576386213302612
-0.01626589521765709 0.10748026520013809 1.4522418975830078
-0.03241301327943802 0.049946099519729614 0.8516230583190918
-0.17179729044437408 -0.0007849952671676874 0.3382246494293213
0.04842954874038696 0.158549502491951 1.0155744552612305
-0.029932981356978416 0.03245781734585762 1.0287929773330688
-0.1095237135887146 -0.158034086227417 1.231297492980957
-0.10523279756307602 -0.15638002753257751 1.1367406845092773
-0.1599079668521881 -0.029178565368056297 0.3154042065143585
-0.14490826427936554 -0.043411485850811005 0.2533610761165619
-0.1755320280790329 0.005130321253091097 0.24890661239624023
-0.05699218064546585 0.02834836021065712 1.4933724403381348
-0.08225943148136139 -0.10580968856811523 0.680970311164856
-0.10819868743419647 -0.03217887878417969 0.6520707011222839
0.052220381796360016 0.1937008500099182 1.139716625213623
0.05792561173439026 0.18948712944984436 1.061822533607483
-0.060991447418928146 -0.19086699187755585 1.159605622291565
-0.17164798080921173 -0.06838167458772659 0.11706357449293137
0.045604147017002106 0.14295119047164917 1.0486379861831665
0.034579601138830185 0.12029434740543365 1.0822182893753052
0.007426105439662933 0.023791929706931114 1.4884189367294312
-0.0901348665356636 -0.10020014643669128 1.3650829792022705
0.04350415617227554 0.1365436464548111 1.3413949012756348
0.03417860344052315 0.03871911019086838 1.4174392223358154
-0.0028634220361709595 0.017043519765138626 1.486441731452942
0.09087977558374405 0.13157178461551666 1.0595982074737549
0.10804091393947601 0.12139415740966797 1.015575647354126
-0.030753647908568382 -0.11728542298078537 1.3604273796081543
0.014614945277571678 0.029756493866443634 1.02692449092865
-0.034937698394060135 -0.2045302391052246 1.0916633605957031
0.10003796219825745 0.10727847367525101 1.3644225597381592
0.01123255118727684 -0.032562922686338425 1.2806358337402344
0.06807893514633179 0.07958295941352844 1.458176851272583
0.03354736045002937 0.03821109980344772 1.4565761089324951
0.023045511916279793 -0.04743119329214096 1.1958808898925781
0.04624997079372406 0.091684490442276 0.9159770011901855
-0.007865078747272491 -0.045805104076862335 1.6974948644638062
0.11694075167179108 -0.12998373806476593 0.071822889149189
0.11109443008899689 -0.14458872377872467 0.04450737684965134
0.11165586113929749 -0.06687530875205994 0.08008858561515808
-0.04579416289925575 -0.15123721957206726 1.5734446048736572
0.06326469779014587 -0.06245721876621246 0.7067723274230957
0.08713055402040482 0.022455178201198578 1.4271680116653442
0.021694593131542206 -0.0698113813996315 1.4498677253723145
0.05863511189818382 -0.05850646644830704 1.400071620941162
0.020789284259080887 -0.03039582446217537 1.3814300298690796
0.10756894201040268 -0.04197501018643379 0.3837546110153198
0.12670621275901794 -0.13256700336933136 0.22982287406921387
0.12648601830005646 -0.045625343918800354 0.18732722103595734
0.14978602528572083 0.1179342269897461 1.0660221576690674
0.14661630988121033 0.14270418882369995 1.0382800102233887
0.09982135891914368 -0.1458187997341156 0.7335704565048218
0.10568084567785263 -0.05207618325948715 0.6507859230041504
-0.011684413999319077 -0.09117399901151657 1.6803280115127563
0.02869231626391411 -0.10288971662521362 1.6390761137008667
0.12087533622980118 -0.1308087408542633 0.5437751412391663
0.014613822102546692 -0.0395658016204834 1.7112077474594116
0.038137733936309814 -0.054957643151283264 1.6616895198822021
0.05600040405988693 -0.10743945837020874 1.1289138793945312
0.06211737543344498 -0.09581326693296432 1.1042184829711914
0.05155138671398163 -0.16555456817150116 1.0844534635543823
0.009915955364704132 -0.13665899634361267 1.5721248388290405
0.03549882397055626 -0.07093340903520584 1.4803937673568726
0.024787578731775284 -0.11064330488443375 1.4748849868774414
0.18708479404449463 0.09808847308158875 1.0307525396347046
0.04597444459795952 -0.11704152077436447 1.275710105895996
0.05167325586080551 -0.17648082971572876 1.2381632328033447
0.05820363014936447 -0.1203513890504837 1.2211679220199585
0.1657586693763733 -0.03427734971046448 0.1388525813817978
0.1776011735200882 -0.12018196284770966 0.16502879559993744
0.19176536798477173 -0.10823436081409454 0.15008459985256195
0.051938533782958984 -0.0373755618929863 1.687103271484375
0.05303782597184181 -0.12776827812194824 1.2787282466888428
0.18157371878623962 -0.044014617800712585 0.4248250424861908
0.1612626612186432 -0.09725799411535263 0.4794467091560364
0.18880432844161987 -0.0606192983686924 0.36729440093040466
0.069541797041893 -0.07575886696577072 1.3920282125473022
0.0563509464263916 -0.07358752191066742 1.389356255531311
0.07545715570449829 -0.06382997334003448 1.3503930568695068
0.11859886348247528 0.06121049448847771 0.9192862510681152
0.12498421967029572 -0.1173284649848938 0.8576785326004028
0.19354809820652008 -0.05050131306052208 0.24060401320457458
0.20940934121608734 -0.08071170002222061 0.24916554987430573
0.07866771519184113 -0.04941396415233612 1.342587947845459
0.16115282475948334 0.045127369463443756 1.2831016778945923
0.17328740656375885 0.07053683698177338 1.2638251781463623
0.05382654815912247 -0.24345913529396057 1.1364434957504272
0.14865270256996155 -0.0690368264913559 0.9897114038467407
0.1501809060573578 -0.125752255320549 0.9815249443054199
0.09308046102523804 -0.06298847496509552 1.1726934909820557
0.0927119255065918 -0.17672422528266907 1.073947787284851
0.11206531524658203 -0.14175447821617126 1.0520358085632324
0.09915340691804886 -0.20323115587234497 1.1410083770751953
-0.2827067971229553 -0.049489811062812805 1.0479316711425781
-0.29653993248939514 -0.10345851629972458 1.0303866863250732
-0.23362453281879425 -0.09567922353744507 1.122699499130249
-0.24640154838562012 -0.0978400707244873 1.1675537824630737
-0.20925197005271912 -0.06717857718467712 1.1354072093963623
-0.20335689187049866 -0.0291511919349432 1.1551363468170166
-0.1879647970199585 -0.15099266171455383 0.8693127036094666
-0.05611454322934151 0.15610848367214203 1.0477259159088135
-0.06939763575792313 0.14330336451530457 1.1413074731826782
-0.17090512812137604 -0.22235411405563354 1.100899338722229
-0.14015963673591614 -0.15788286924362183 0.9465820789337158
-0.2579454779624939 -0.04692773520946503 0.27281609177589417
-0.23666498064994812 -0.09555787593126297 0.2874066233634949
-0.187081977725029 0.008016901090741158 0.4911850392818451
-0.1473238468170166 -0.19085747003555298 0.8499457836151123
-0.1684463769197464 -0.05118214339017868 0.6327669620513916
-0.15994355082511902 -0.0945490226149559 0.685909628868103
-0.1419793963432312 -0.0385177880525589 0.6935504674911499
-0.10199232399463654 -0.024784822016954422 1.0881741046905518
-0.11601383239030838 -0.08127464354038239 1.1077055931091309
0.011077556759119034 0.18008925020694733 1.2104129791259766
-0.11092917621135712 -0.020623406395316124 0.852193295955658
-0.19262105226516724 -0.10664483159780502 0.3001059889793396
-0.11486130952835083 -0.033980607986450195 1.1890833377838135
-0.09388458728790283 -0.045881323516368866 1.120076060295105
-0.17760057747364044 -0.08446371555328369 0.43999966979026794
-0.13198810815811157 -0.01363445445895195 1.6828373670578003
-0.1399986296892166 -0.04657406359910965 1.6666308641433716
-0.10614536702632904 -0.08294031023979187 1.6741018295288086
-0.12603530287742615 -0.11459521949291229 1.6327100992202759
-0.1400483399629593 -0.10741210728883743 1.5369584560394287
-0.17120090126991272 -0.06516619026660919 0.3321394622325897
-0.07623185217380524 -0.11836391687393188 0.7309713363647461
-0.14849162101745605 -0.07372348755598068 0.26062196493148804
-0.16693928837776184 -0.10295332223176956 0.2671327590942383
-0.18347467482089996 -0.02069305256009102 0.1970793753862381
-0.04551447555422783 0.06379931420087814 0.9582959413528442
-0.08848292380571365 -0.006559837609529495 1.7253130674362183
-0.10613694041967392 -0.015200827270746231 1.7122780084609985
0.0715949684381485 0.10485702753067017 1.19612717628479
-0.00423502828925848 0.12302263081073761 1.1894633769989014
0.0470002181828022 0.09634298831224442 1.2446670532226562
-0.007640622556209564 -0.04800030216574669 1.2310389280319214
0.07194259762763977 0.16431544721126556 1.2430285215377808
0.07652595639228821 0.11909686028957367 1.0874714851379395
0.13121303915977478 0.17009809613227844 1.1733922958374023
0.021154802292585373 0.07642965018749237 1.6297850608825684
0.10518142580986023 0.10240747779607773 1.0973953008651733
0.037921663373708725 -0.21756672859191895 0.9001308083534241
0.09332379698753357 -0.09338551759719849 0.24769964814186096
0.12255287915468216 -0.10769598931074142 0.18726758658885956
0.060746967792510986 -0.12966454029083252 0.6896723508834839
0.033166397362947464 -0.0009294525953009725 1.063765525817871
0.08647996932268143 -0.04785063862800598 0.5593474507331848
0.1025952696800232 0.06239355728030205 1.3054612874984741
0.03751787543296814 -0.08647393435239792 1.385041356086731
0.05053890869021416 0.05991175025701523 1.5942530632019043
0.036465853452682495 -0.0024231597781181335 1.5558075904846191
0.04166051745414734 0.014019466936588287 1.5368523597717285
0.008426569402217865 -0.035313431173563004 1.7564252614974976
0.03366195037961006 -0.1091335192322731 1.3243746757507324
0.15114888548851013 -0.020151730626821518 0.4897356629371643
0.11942549049854279 -0.007393218576908112 0.4850877821445465
0.14642444252967834 -0.018821701407432556 0.3343203067779541
0.16890037059783936 -0.02430306002497673 0.30527061223983765
0.05896500498056412 -0.06970806419849396 1.471339464187622
0.04733710736036301 -0.078006312251091 1.4797269105911255
0.05905119329690933 -0.07147422432899475 1.4646897315979004
0.12512880563735962 -0.05266542732715607 0.7584402561187744
0.1439361572265625 -0.0954722911119461 0.6285893321037292
0.11929967254400253 0.020897721871733665 0.9599728584289551
0.09394590556621552 -0.08578971773386002 1.0854467153549194
0.08540970832109451 -0.1385548710823059 1.0717881917953491
0.09706473350524902 -0.16097694635391235 1.0207406282424927
0.06264087557792664 -0.0378209725022316 1.5896446704864502
0.0739368349313736 -0.04026252403855324 1.511475920677185
0.04648787900805473 -0.16894853115081787 1.2194994688034058
0.09914335608482361 0.026419110596179962 1.504443883895874
0.08413460850715637 -0.0022498667240142822 1.5412887334823608
0.19613750278949738 -0.039622388780117035 0.0722510814666748
0.20879873633384705 -0.08812835812568665 0.06120336055755615
0.1067790538072586 0.006532203406095505 1.470600962638855
0.11473949998617172 0.01894873008131981 1.443569302558899
0.1249530166387558 0.01017700508236885 1.4128507375717163
0.1279909312725067 0.02147972583770752 1.3999710083007812
0.05242057889699936 -0.2455182671546936 1.1547034978866577
0.17206455767154694 -0.15903760492801666 0.869987428188324
0.06444774568080902 -0.22365233302116394 1.1666319370269775
0.060413774102926254 -0.2484390139579773 1.1558685302734375
0.19945324957370758 -0.11481340229511261 0.8885960578918457
0.2011137753725052 -0.09184074401855469 0.869279146194458
0.2108580768108368 -0.057041265070438385 0.8794166445732117
-0.2179373800754547 -0.09259936213493347 1.1757800579071045
-0.17763975262641907 -0.0970718190073967 1.2402067184448242
-0.18577101826667786 -0.09683748334646225 1.224802851676941
-0.17739161849021912 -0.08889709413051605 1.2307499647140503
-0.1714460551738739 -0.09022519737482071 1.248209834098816
-0.19420966506004333 0.0013639628887176514 0.8747097849845886
-0.14544904232025146 -0.05965465307235718 1.2678322792053223
-0.14626380801200867 -0.06649580597877502 1.0590122938156128
-0.12137557566165924 0.07616040110588074 1.5130550861358643
-0.14691099524497986 -0.0895455852150917 1.1776726245880127
-0.14786547422409058 -0.0818433165550232 1.1247813701629639
-0.09020543843507767 0.08024498075246811 1.4143134355545044
-0.07393607497215271 0.07398108392953873 1.3797398805618286
-0.13634741306304932 -0.14058545231819153 1.0191164016723633
-0.102298803627491 -0.1649153232574463 0.9814538955688477
-0.1331350952386856 -0.030349573120474815 0.7793625593185425
0.00147169828414917 0.15747782588005066 1.2734591960906982
-0.06410397589206696 0.09521067142486572 1.6059942245483398
-0.17699699103832245 -0.035119399428367615 0.05939085781574249
-0.1912136822938919 -0.018887514248490334 0.049599215388298035
-0.0802564024925232 0.02397393435239792 0.8593343496322632
0.0011622924357652664 0.0934007316827774 0.8491926193237305
-0.06454653292894363 -0.023202769458293915 0.8380666971206665
0.0367724634706974 0.06444430351257324 1.328568696975708
-0.04739322513341904 -0.08318924903869629 0.7575950622558594
-0.07827255874872208 -0.13875506818294525 1.5485490560531616
-0.006995224393904209 0.014097562059760094 0.8673979043960571
-0.00593440979719162 -0.027903664857149124 0.8459050059318542
0.014373057521879673 -0.11918941140174866 0.8502523303031921
-0.07753829658031464 -0.16227608919143677 0.8516622185707092
-0.008636211976408958 -0.22321899235248566 0.8442285656929016
0.031880512833595276 -0.11135534197092056 0.8271282911300659
-0.010427191853523254 -0.15932786464691162 0.8554979562759399
-0.013502612709999084 0.0007123835384845734 1.4543049335479736
0.025544436648488045 -0.0381796732544899 0.8418359160423279
0.030017051845788956 -0.05064486712217331 0.8230153322219849
0.001151055097579956 0.005411170423030853 1.531348705291748
0.0055571310222148895 0.013716153800487518 1.5083320140838623
0.04112200438976288 -0.1248171254992485 0.8435486555099487
0.12856173515319824 0.05522194504737854 0.8538512587547302
0.09472015500068665 -0.06502331793308258 0.24508047103881836
0.0497574582695961 -0.03584494814276695 0.8118375539779663
0.10612361133098602 0.09575369954109192 1.2227119207382202
0.12373276054859161 -0.09140429645776749 0.3709689676761627
0.12128035724163055 -0.07645989209413528 0.30982351303100586
0.1372828185558319 -0.0974026471376419 0.32671254873275757
0.13380618393421173 -0.1368471086025238 0.2709372341632843
0.08726239204406738 0.042713407427072525 1.4758403301239014
0.07863388955593109 -0.01761135458946228 0.8462405800819397
0.10377916693687439 -0.03648875653743744 0.8250012397766113
0.06049429625272751 -0.09296996146440506 1.2266240119934082
0.15507133305072784 -0.10520271956920624 0.4204157590866089
0.0706082135438919 0.01638812944293022 1.5765550136566162
0.04841779172420502 -0.05384451150894165 1.2734366655349731
0.16829648613929749 -0.09715111553668976 0.32695305347442627
0.1353028416633606 0.15003007650375366 1.2268773317337036
0.07060831040143967 -0.07507175207138062 1.2013566493988037
0.15651290118694305 -0.036185797303915024 0.1980888694524765
0.17843380570411682 0.13711422681808472 1.1504104137420654
0.1529158502817154 -0.025656715035438538 0.23450495302677155
0.17756079137325287 -0.13827499747276306 0.2475888431072235
0.13685449957847595 0.04112332686781883 1.327417016029358
0.06681005656719208 -0.05830669403076172 1.4256435632705688
0.07354585826396942 -0.05834010988473892 1.3958203792572021
0.06571659445762634 -0.05560361593961716 1.427074909210205
0.08764025568962097 -0.053664665669202805 1.3757617473602295
0.06167883425951004 -0.19087645411491394 1.205674648284912
0.0467676967382431 -0.20144546031951904 1.200083613395691
0.16564132273197174 0.06003760173916817 1.2433229684829712
0.19545131921768188 0.08953283727169037 1.190299391746521
0.19006478786468506 0.08691918849945068 1.1579569578170776
0.07068455964326859 -0.07806956022977829 1.2287938594818115
0.05935592204332352 -0.10814476013183594 1.2446516752243042
0.1561695635318756 -0.18414835631847382 0.8805866241455078
0.06794828176498413 -0.11833100765943527 1.2563396692276
0.05943898856639862 -0.14899004995822906 1.1571882963180542
0.0810154378414154 -0.096211276948452 1.1322717666625977
0.06710070371627808 -0.13298752903938293 1.1238727569580078
0.11242946982383728 -0.1782292276620865 1.171541452407837
0.13500908017158508 -0.17814621329307556 1.0417962074279785
0.1059858649969101 -0.2139085978269577 1.0980280637741089
-0.17311450839042664 -0.20890069007873535 1.1380521059036255
-0.16413822770118713 -0.1470041275024414 1.1870332956314087
-0.17181023955345154 -0.1339235007762909 1.2074989080429077
-0.16212157905101776 -0.19749191403388977 1.1416056156158447
-0.10690689831972122 0.0851493775844574 1.4434939622879028
-0.11131655424833298 0.07330235093832016 1.4271862506866455
-0.10700030624866486 0.09004618972539902 1.3867285251617432
-0.15421883761882782 -0.00983843207359314 1.6473920345306396
-0.15918682515621185 -0.040791578590869904 1.563908338546753
-0.2291242480278015 -0.0620889887213707 0.32950904965400696
-0.1303238570690155 -0.06972381472587585 0.8474066257476807
-0.13231176137924194 -0.09452357888221741 0.8292152285575867
-0.041666049510240555 0.16719678044319153 1.0277332067489624
-0.11550596356391907 -0.12510395050048828 1.227172613143921
-0.11629129201173782 -0.03204750269651413 0.82517409324646
-0.10993339121341705 -0.030696317553520203 1.6906691789627075
-0.11068744212388992 -0.12462687492370605 1.112152338027954
-0.07964123040437698 -0.1847408413887024 1.1056255102157593
0.0013257674872875214 0.13972695171833038 1.1250579357147217
0.06849347054958344 0.12044239044189453 1.1248202323913574
-0.0711754858493805 -0.03441639617085457 1.1358535289764404
-0.05281004682183266 -0.1157427579164505 0.8445585370063782
-0.06621462851762772 -0.19013555347919464 1.0406811237335205
-0.051283568143844604 0.01209535077214241 1.0485248565673828
-0.06762409210205078 -0.12848195433616638 1.64429771900177
0.030521342530846596 -0.10203970968723297 0.7617477178573608
-0.007452867925167084 0.08470993489027023 1.2976503372192383
0.10865293443202972 -0.10201415419578552 0.03725006431341171
0.1686752885580063 0.15383471548557281 1.095128059387207
0.12747901678085327 0.11090051382780075 1.1449319124221802
0.12572608888149261 0.17896611988544464 1.10515296459198
0.09776021540164948 0.08461790531873703 0.8566166162490845
0.16736415028572083 -0.01082247868180275 0.05905535817146301
0.11978425085544586 -0.0389191210269928 0.8508626818656921
0.1581072062253952 -0.09702903032302856 0.3789712190628052
0.06718266010284424 -0.0824001356959343 1.3661210536956787
0.05562124773859978 -0.10820739716291428 1.293948769569397
0.19620926678180695 -0.0029080845415592194 0.8709012269973755
0.19453935325145721 -0.05416630953550339 0.9357014894485474
0.12247319519519806 -0.20324772596359253 1.0613282918930054
-0.255681574344635 -0.10953868925571442 1.1370158195495605
-0.19358259439468384 -0.08194206655025482 0.9277982711791992
-0.2097855508327484 -0.07333971560001373 0.8764264583587646
-0.10965675860643387 0.07688930630683899 1.3810709714889526
-0.08165115118026733 0.1066211462020874 1.2564685344696045
-0.13863149285316467 0.005025546997785568 1.4915640354156494
-0.14021721482276917 -0.05648786202073097 1.0267642736434937
-0.14697591960430145 -0.08754365146160126 1.0636824369430542
-0.13716234266757965 0.00733121857047081 1.4917930364608765
-0.1373371183872223 -0.005253806710243225 1.479095697402954
-0.13980290293693542 0.0020323581993579865 1.488061547279358
-0.14025726914405823 -0.0021938681602478027 1.4891743659973145
-0.14637747406959534 -0.013006441295146942 1.4786711931228638
-0.22004833817481995 -0.11963695287704468 0.1782429814338684
-0.16093260049819946 -0.07578632235527039 1.610487937927246
-0.04395964741706848 -0.027895279228687286 1.1894629001617432
-0.18248319625854492 -0.13538096845149994 0.05861673504114151
-0.062190886586904526 -0.033368803560733795 1.22883939743042
-0.018324902281165123 -0.04091111198067665 1.1476799249649048
-0.03541992977261543 0.09198060631752014 0.9201009273529053
-0.056315019726753235 -0.04691426455974579 1.7054245471954346
-0.06702638417482376 -0.06892594695091248 0.6958209276199341
0.01674383133649826 0.0859217420220375 1.2688679695129395
-0.005546689033508301 -0.19335129857063293 0.9927400350570679
-0.06199733912944794 -0.1875932812690735 1.2037519216537476
0.07072346657514572 0.10769559442996979 1.1637165546417236
0.11358250677585602 -0.06961367279291153 0.17524828016757965
0.050667233765125275 -0.1813255101442337 0.983914852142334
0.10438184440135956 -0.17561177909374237 0.9696325659751892
0.06097136437892914 0.01621674746274948 1.5048072338104248
0.034171175211668015 -0.17583397030830383 1.154223084449768
0.018574830144643784 -0.05070564150810242 1.1478203535079956
0.07899978011846542 -0.04080404341220856 1.0806037187576294
0.08025208115577698 0.054808732122182846 0.9540957808494568
0.15922829508781433 -0.13759419322013855 0.01047825999557972
0.1356593519449234 -0.13066531717777252 0.00693923607468605
0.18696783483028412 -0.11219576001167297 0.01691708341240883
0.19485998153686523 -0.11780689656734467 0.23126007616519928
0.06504426896572113 -0.05683322995901108 1.423203945159912
0.06631343066692352 -0.05784758925437927 1.426025629043579
0.04867757484316826 -0.07630021125078201 1.2950412034988403
0.054230351001024246 -0.10280928760766983 1.281386375427246
0.2097100019454956 0.10690893232822418 1.0984729528427124
0.20729921758174896 0.08761639147996902 1.0556468963623047
0.21652840077877045 0.09030382335186005 1.0527658462524414
0.14523163437843323 -0.17151781916618347 1.0460695028305054
0.1194038987159729 -0.22557449340820312 1.0434514284133911
0.12405916303396225 -0.25067102909088135 1.0375475883483887
-0.24671989679336548 -0.06955906003713608 1.0694741010665894
-0.1780049055814743 -0.172068253159523 1.1765727996826172
-0.1968315690755844 -0.06666940450668335 0.36046555638313293
-0.008251151069998741 0.14532235264778137 1.0053339004516602
-0.11741272360086441 -0.14272235333919525 1.060074806213379
-0.03471522778272629 -0.04499803110957146 0.837901771068573
-0.058183424174785614 -0.03288204222917557 0.8021100163459778
-0.053767021745443344 -0.08562201261520386 0.8048309683799744
-0.010462244972586632 -0.003277767449617386 1.0945641994476318
0.022005528211593628 -0.2065376490354538 0.8333995342254639
0.09531894326210022 0.012742789462208748 0.8621389865875244
0.14177998900413513 0.10746104270219803 1.1154491901397705
0.07401293516159058 -0.021756846457719803 1.5158276557922363
0.08680412173271179 -0.0019562318921089172 1.4981023073196411
0.18164971470832825 -0.12249168753623962 0.9351905584335327
-0.18191149830818176 -0.1841205656528473 1.1468394994735718
-0.1307334005832672 0.047471784055233 1.5267726182937622
0.01727999746799469 0.15172354876995087 1.0498993396759033
-0.10975371301174164 0.06801992654800415 1.5588874816894531
-0.09103699773550034 0.034545693546533585 1.5448499917984009
-0.06336461007595062 0.022656045854091644 1.5248221158981323
0.01232040487229824 -0.19911804795265198 1.0504275560379028
0.02061496302485466 -0.1521420180797577 1.239361047744751
0.1512892246246338 -0.12398114800453186 0.14978919923305511
0.059087298810482025 -0.1446847915649414 1.1995196342468262
0.07461756467819214 -0.13338355720043182 1.1492412090301514
0.11219008266925812 0.02801435813307762 1.4113647937774658
0.10308413952589035 0.057890698313713074 1.4268031120300293
0.0819133073091507 -0.09462127834558487 1.1571698188781738
0.12376715242862701 -0.07618309557437897 0.8352683782577515
0.03485191613435745 -0.18403196334838867 1.2269208431243896
0.13996043801307678 0.053885459899902344 1.3462461233139038
-0.0819559171795845 0.09964644908905029 1.33406400680542
-0.18919745087623596 0.00821375846862793 0.3673497140407562
0.04423246160149574 -0.10278613865375519 0.720445990562439
-0.019626926630735397 -0.13808554410934448 1.6276299953460693
-0.05585068091750145 0.16740772128105164 1.0887424945831299
-0.16521482169628143 -0.09074559807777405 1.2513231039047241
-0.1467280238866806 -0.0311006847769022 0.3988971710205078
0.02950292080640793 0.09932153671979904 1.4569860696792603
0.11718178540468216 -0.1370229572057724 0.01769818365573883
0.0629362016916275 -0.07270097732543945 1.4619057178497314
0.06036246567964554 -0.07123889029026031 1.4615830183029175
0.0610940083861351 -0.06384733319282532 1.3843882083892822
0.18836979568004608 -0.10415074974298477 0.19976180791854858
0.18758346140384674 -0.06946197152137756 0.1839679479598999
0.06911575794219971 -0.14390058815479279 1.2047734260559082
-0.1710345596075058 -0.15471431612968445 0.9250273108482361
-0.09158490598201752 0.08740055561065674 1.3593885898590088
-0.09210023283958435 0.08442956209182739 1.360970377922058
-0.09690534323453903 0.08419299125671387 1.360691785812378
-0.1647258847951889 -0.062487829476594925 0.1984528750181198
-0.03316967189311981 -0.09845658391714096 0.8403122425079346
0.12173954397439957 -0.10125835984945297 0.1393982619047165
0.07392725348472595 -0.1724858283996582 1.168147325515747
0.043640900403261185 -0.09986620396375656 1.5893614292144775
0.13930954039096832 -0.0973917692899704 0.7868880033493042
0.12952667474746704 0.02077023684978485 1.3828238248825073
0.13408422470092773 0.03736897185444832 1.3547828197479248
0.11492850631475449 -0.0462963841855526 0.04397615045309067
-0.08384747803211212 -0.47757628560066223 1.1153868436813354
-0.07449470460414886 -0.4559248089790344 1.084891676902771
-0.07897857576608658 -0.4635277986526489 1.0900417566299438
-0.08433343470096588 -0.45339927077293396 1.097110629081726
-0.08832742273807526 -0.4748907685279846 1.1023995876312256
-0.07996689528226852 -0.47073450684547424 1.114027500152588
0.0024505602195858955 -0.36741703748703003 1.0700528621673584
-0.009169834665954113 -0.368049293756485 1.0683728456497192
-0.011002371087670326 -0.3875848054885864 1.0777549743652344
-0.01938188448548317 -0.39332717657089233 1.082208275794983
0.06866288185119629 -0.2622266411781311 0.9847131371498108
0.06376315653324127 -0.2665344476699829 1.0038691759109497
0.06678304821252823 -0.27299705147743225 0.9801432490348816
-0.022719567641615868 -0.382036030292511 1.0369970798492432
-0.027691589668393135 -0.3938121795654297 1.053556203842163
-0.020548326894640923 -0.41015833616256714 1.104844570159912
-0.01912742480635643 -0.40288472175598145 1.0939648151397705
0.04456177353858948 -0.2961585819721222 0.9693723320960999
0.03781412914395332 -0.30181440711021423 0.9900610446929932
0.0427103266119957 -0.3235442042350769 1.0588093996047974
0.041543398052453995 -0.3178866505622864 1.0514476299285889
-0.05919615924358368 -0.45973360538482666 1.1228468418121338
-0.06374301761388779 -0.44854241609573364 1.0787302255630493
0.06784280389547348 -0.2745450735092163 0.9693899750709534
0.06027475744485855 -0.278448224067688 0.965023934841156
0.1930086314678192 -0.14924170076847076 1.024085521697998
0.18780936300754547 -0.15597549080848694 1.0238369703292847
0.19087457656860352 -0.14911293983459473 1.0034046173095703
-0.04173402488231659 -0.42902183532714844 1.103476881980896
-0.05193439871072769 -0.44471442699432373 1.1091697216033936
0.06666065007448196 -0.276809960603714 0.9640918970108032
0.0636390820145607 -0.2793312668800354 0.9546604156494141
-0.10086379200220108 -0.49822086095809937 1.0670013427734375
-0.1023884117603302 -0.5060399770736694 1.0798360109329224
0.2070768177509308 -0.13869547843933105 1.0164215564727783
0.20102307200431824 -0.14578770101070404 1.0292719602584839
0.20162604749202728 -0.1390605866909027 1.0094274282455444
0.19442951679229736 -0.14615949988365173 1.0015387535095215
-0.11198553442955017 -0.5264919996261597 1.1347850561141968
-0.11831580847501755 -0.5415560603141785 1.1490466594696045
-0.12081500887870789 -0.541099488735199 1.1306544542312622
0.007922666147351265 -0.34783411026000977 1.006437063217163
0.0037572048604488373 -0.3613438010215759 1.010723352432251
-0.012119627557694912 -0.37511318922042847 1.00313138961792
-0.0025502676144242287 -0.3721635341644287 1.004913568496704
0.20013251900672913 -0.15440207719802856 1.033015489578247
0.2050015926361084 -0.1417762041091919 1.0033797025680542
-0.026517407968640327 -0.4260857403278351 1.1185424327850342
-0.019208936020731926 -0.42733392119407654 1.1214920282363892
-0.03686656802892685 -0.435718297958374 1.121991753578186
-0.04479672759771347 -0.4517894983291626 1.1287730932235718
0.03206908330321312 -0.3235422372817993 0.9888466596603394
0.023533381521701813 -0.33504682779312134 0.9868218898773193
0.01985255815088749 -0.3335080146789551 0.9938377141952515
0.20793256163597107 -0.14409497380256653 1.0088319778442383
0.20040643215179443 -0.15368694067001343 1.0314021110534668
0.19748318195343018 -0.15411272644996643 1.0045607089996338
0.0725611075758934 -0.262572705745697 0.9220907092094421
0.06920159608125687 -0.2657887935638428 0.9162850379943848
0.07033290714025497 -0.2701539099216461 0.9408230781555176
0.07044272869825363 -0.2733297049999237 0.9306645393371582
0.06852150708436966 -0.26756176352500916 0.9255433082580566
-0.013603828847408295 -0.3944361209869385 1.0008612871170044
-0.015033205039799213 -0.3836904764175415 0.994762659072876
-0.016615107655525208 -0.3881290555000305 0.9841575622558594
-0.022578461095690727 -0.3884603679180145 0.9872305989265442
0.1976650059223175 -0.1539326310157776 1.014855146408081
-0.11371934413909912 -0.5479661226272583 1.1548389196395874
-0.12008504569530487 -0.5456601977348328 1.1384093761444092
-0.11833963543176651 -0.5581884384155273 1.153568983078003
-0.12727965414524078 -0.5559232234954834 1.1585357189178467
-0.12274539470672607 -0.5399712920188904 1.1226468086242676
0.09034590423107147 -0.27562904357910156 0.9809092283248901
0.07330627739429474 -0.28113338351249695 0.9695886969566345
-0.08555294573307037 -0.49065372347831726 1.060465693473816
-0.10412713885307312 -0.5084869861602783 1.0725785493850708
-0.1075998842716217 -0.5206751823425293 1.0893895626068115
0.058486152440309525 -0.3263794183731079 1.0551625490188599
0.04816029593348503 -0.33748769760131836 1.05992591381073
0.04387759417295456 -0.34849849343299866 1.0569920539855957
-0.018334873020648956 -0.4273119568824768 1.1210365295410156
-0.02207750268280506 -0.43349772691726685 1.1137006282806396
-0.048338595777750015 -0.46710968017578125 1.1292158365249634
-0.010615276172757149 -0.406272828578949 1.1014792919158936
-0.06057589501142502 -0.4717247784137726 1.0722373723983765
-0.08377440273761749 -0.49408987164497375 1.076358675956726
0.06104887276887894 -0.3253357410430908 1.051444411277771
-0.012102952226996422 -0.4212976098060608 1.0859953165054321
0.0012401100248098373 -0.4072091281414032 1.0782508850097656
-0.01775643602013588 -0.43046537041664124 1.0942960977554321
-0.10252397507429123 -0.5288593769073486 1.1236357688903809
-0.09684041142463684 -0.520149290561676 1.1108931303024292
-0.020153339952230453 -0.4082724452018738 1.0365878343582153
-0.01686989702284336 -0.41291099786758423 1.0489815473556519
-0.0279269739985466 -0.42447546124458313 1.0568206310272217
-0.02122604101896286 -0.4287647008895874 1.0653704404830933
0.023700330406427383 -0.37205803394317627 1.0620232820510864
-0.003392506390810013 -0.39509862661361694 1.0760265588760376
-0.05067790672183037 -0.46651947498321533 1.111850619316101
-0.06042703241109848 -0.4855480492115021 1.1094353199005127
-0.07032059133052826 -0.48370644450187683 1.1160553693771362
-0.05034034326672554 -0.46393829584121704 1.085317850112915
-0.05501170828938484 -0.47072088718414307 1.0815889835357666
0.008830484002828598 -0.3889138996601105 1.0317806005477905
-0.0043271128088235855 -0.40053629875183105 1.0376334190368652
0.003900599665939808 -0.37865689396858215 1.0157697200775146
-0.0038673654198646545 -0.3977753221988678 1.0272496938705444
-0.014904702082276344 -0.4032527208328247 1.0383939743041992
0.01898619532585144 -0.3739314377307892 1.0394413471221924
0.029115894809365273 -0.3669171929359436 1.0401428937911987
0.026192450895905495 -0.35462790727615356 1.0118014812469482
0.026815373450517654 -0.36356914043426514 1.0276504755020142
-0.06171654164791107 -0.47777533531188965 1.0875667333602905
-0.06780152022838593 -0.490871787071228 1.0976389646530151
-0.06781648844480515 -0.4830140471458435 1.0901578664779663
-0.057621315121650696 -0.4896935820579529 1.093853235244751
0.09134958684444427 -0.28805914521217346 0.9958062767982483
-0.06323755532503128 -0.43754562735557556 1.1007581949234009
-0.07486435770988464 -0.4470541477203369 1.0949448347091675
-0.030038971453905106 -0.3955168128013611 1.0770416259765625
-0.031291063874959946 -0.39477241039276123 1.0725979804992676
-0.04113584756851196 -0.40397530794143677 1.0827478170394897
-0.03661470115184784 -0.39938613772392273 1.0725877285003662
-0.03829028457403183 -0.40676814317703247 1.0822733640670776
-0.008484449237585068 -0.37558233737945557 1.0505187511444092
-0.019729742780327797 -0.3796851336956024 1.053776741027832
-0.0017382251098752022 -0.36253800988197327 1.043573021888733
-0.037362076342105865 -0.40819472074508667 1.087238073348999
-0.0789748951792717 -0.4676552414894104 1.0694050788879395
-0.08676482737064362 -0.4767121970653534 1.0941637754440308
-0.034167446196079254 -0.39998525381088257 1.0504541397094727
-0.09981244057416916 -0.4884769022464752 1.112207055091858
-0.1080963984131813 -0.5080331563949585 1.1130129098892212
-0.09639673680067062 -0.4967976212501526 1.1014490127563477
-0.1136445552110672 -0.5189222097396851 1.126710057258606
0.08524332195520401 -0.26021677255630493 1.0007590055465698
0.07915250957012177 -0.29207104444503784 1.0729438066482544
0.06918643414974213 -0.293285071849823 1.067990779876709
0.07520166039466858 -0.2961498498916626 1.0751761198043823
0.034068234264850616 -0.3156066834926605 0.9931081533432007
0.18314829468727112 -0.15308241546154022 0.9948145747184753
0.18748623132705688 -0.16126027703285217 1.0379905700683594
0.17868107557296753 -0.17065362632274628 1.0329557657241821
0.1763397753238678 -0.16695410013198853 1.0240598917007446
0.009024688974022865 -0.37647783756256104 1.080162763595581
-0.06607994437217712 -0.47156286239624023 1.1374664306640625
-0.11582046747207642 -0.521933913230896 1.1059412956237793
0.1444631665945053 -0.1937713921070099 0.9963861703872681
0.13445830345153809 -0.2162405252456665 0.9930381774902344
0.020402226597070694 -0.3611963391304016 1.0815101861953735
0.010451389476656914 -0.3660128116607666 1.076405644416809
-0.010981518775224686 -0.3924422264099121 1.0866557359695435
-0.11836934834718704 -0.5305410623550415 1.1071666479110718
-0.12096673995256424 -0.5485052466392517 1.1603429317474365
-0.12168879806995392 -0.5545891523361206 1.1642524003982544
-0.12796375155448914 -0.5515319108963013 1.1459946632385254
0.10307395458221436 -0.2470412254333496 0.9976287484169006
0.09515834599733353 -0.26101362705230713 1.0018765926361084
-0.0011089956387877464 -0.3960668742656708 1.085323452949524
0.08130111545324326 -0.2624831795692444 0.9836431741714478
-0.10588350147008896 -0.5130929350852966 1.081906795501709
0.11190339177846909 -0.2641293704509735 1.0837359428405762
0.11257094144821167 -0.2664112150669098 1.079392910003662
0.1030799075961113 -0.273185670375824 1.0716791152954102
0.10193364322185516 -0.27760300040245056 1.0833067893981934
0.09640690684318542 -0.2877618670463562 1.0858323574066162
0.08957599848508835 -0.27427271008491516 1.0481088161468506
0.09921484440565109 -0.27485108375549316 1.053257942199707
-0.12554989755153656 -0.5553493499755859 1.1658498048782349
-0.03559866547584534 -0.4147776961326599 1.0407335758209229
-0.03844238072633743 -0.4253421425819397 1.0481728315353394
-0.04229618236422539 -0.4255942404270172 1.051185131072998
-0.02427426353096962 -0.4026547074317932 1.0226459503173828
0.10756249725818634 -0.27856218814849854 1.0802651643753052
0.09741576761007309 -0.2915632128715515 1.0838528871536255
0.06744677573442459 -0.28429731726646423 0.9571420550346375
0.10758596658706665 -0.27460554242134094 1.079768180847168
0.10271736234426498 -0.2772237956523895 1.072145938873291
-0.018535379320383072 -0.4167467951774597 1.1087580919265747
0.06193986535072327 -0.28981685638427734 0.9311585426330566
0.06063563749194145 -0.2873653173446655 0.9240607619285583
0.04827499762177467 -0.2947072982788086 0.9183870553970337
0.045258987694978714 -0.3019859790802002 0.9246515035629272
0.1022660881280899 -0.2739032506942749 1.001530647277832
0.08844827860593796 -0.29850083589553833 1.071030616760254
-0.029102226719260216 -0.4359290599822998 1.1005990505218506
-0.0422632098197937 -0.45253944396972656 1.1102402210235596
0.06215575337409973 -0.2972511053085327 0.9580198526382446
0.0623604990541935 -0.30264461040496826 0.958611011505127
0.05585223436355591 -0.2971045672893524 0.9440186023712158
-0.03714711219072342 -0.45185160636901855 1.1031899452209473
-0.02865954302251339 -0.438803493976593 1.0911445617675781
-0.034878216683864594 -0.44525372982025146 1.0761010646820068
-0.02406863309442997 -0.4347991347312927 1.0706167221069336
-0.09280076622962952 -0.5053752660751343 1.0929248332977295
-0.08804993331432343 -0.5085462927818298 1.0964770317077637
0.07384991645812988 -0.29701706767082214 0.9743790626525879
0.0822601392865181 -0.3026041090488434 1.0211278200149536
0.07258845865726471 -0.31754833459854126 1.0197548866271973
0.0745118111371994 -0.31143537163734436 1.009989857673645
0.06013300642371178 -0.32641780376434326 1.0254675149917603
0.05040612071752548 -0.3305676579475403 1.0192434787750244
-0.039892878383398056 -0.4602481722831726 1.0875476598739624
-0.029766174033284187 -0.4513445794582367 1.0845268964767456
-0.049906209111213684 -0.481891930103302 1.1029340028762817
0.006593578029423952 -0.41090333461761475 1.0676745176315308
-0.011720720678567886 -0.43046772480010986 1.0802446603775024
-0.0011476892977952957 -0.41273146867752075 1.068738579750061
-0.014168955385684967 -0.42151203751564026 1.0668927431106567
-0.01313166692852974 -0.4290851950645447 1.0735338926315308
-0.012853655032813549 -0.4177790582180023 1.0737543106079102
-0.015469726175069809 -0.4323078393936157 1.0745688676834106
-0.052805252373218536 -0.4926621913909912 1.1029119491577148
-0.05537734925746918 -0.486286997795105 1.0923911333084106
-0.07147499918937683 -0.45040303468704224 1.1061017513275146
-0.08664796501398087 -0.46513062715530396 1.1100472211837769
-0.0771956741809845 -0.45003968477249146 1.0901808738708496
-0.08351104706525803 -0.46303534507751465 1.1012130975723267
0.06798352301120758 -0.2826582193374634 1.055079698562622
0.058180198073387146 -0.2767886519432068 0.9916199445724487
0.049672771245241165 -0.2843357026576996 0.9900140166282654
0.08084551990032196 -0.2647254168987274 1.0279587507247925
-0.05873214825987816 -0.44636523723602295 1.1077966690063477
-0.0556938573718071 -0.435994416475296 1.080629587173462
0.03791113197803497 -0.31023335456848145 1.0182989835739136
0.032050956040620804 -0.31488096714019775 1.0073667764663696
0.05720954388380051 -0.2962518334388733 1.0504015684127808
0.051238179206848145 -0.3082631230354309 1.0543349981307983
-0.048945389688014984 -0.42946821451187134 1.0782184600830078
-0.06376387923955917 -0.45606735348701477 1.113002896308899
0.02363189496099949 -0.33339646458625793 1.0212072134017944
0.0027730257716029882 -0.35334843397140503 1.0359100103378296
0.005604777485132217 -0.3511156439781189 1.0157663822174072
-0.04291733354330063 -0.41229692101478577 1.065049171447754
-0.10255075246095657 -0.5104548931121826 1.1264833211898804
-0.11705391854047775 -0.5316232442855835 1.135736346244812
-0.11565202474594116 -0.5339028835296631 1.119706630706787
0.0873919427394867 -0.2821009159088135 1.0829025506973267
0.06623956561088562 -0.30636900663375854 1.0801085233688354
0.03370080888271332 -0.3367811143398285 1.0651960372924805
0.02088005654513836 -0.3534553050994873 1.073895812034607
0.001448463648557663 -0.3623632788658142 1.013913631439209
0.06166186183691025 -0.31774330139160156 1.090687870979309
0.05895981937646866 -0.30340576171875 1.057000756263733
0.05587657541036606 -0.3180806636810303 1.0568889379501343
-0.0763375461101532 -0.48578351736068726 1.1396150588989258
-0.08936779946088791 -0.5038291811943054 1.1343834400177002
-0.045613229274749756 -0.42449602484703064 1.0527327060699463
0.12737871706485748 -0.2231232225894928 1.0201506614685059
0.1335274577140808 -0.2121630609035492 1.0183602571487427
-0.019140657037496567 -0.3797250986099243 0.9977858066558838
0.031137464568018913 -0.3539680242538452 1.0685700178146362
0.027252253144979477 -0.3639976382255554 1.0835034847259521
-0.0696827620267868 -0.4814990758895874 1.1388345956802368
-0.06892204284667969 -0.4891270697116852 1.1360539197921753
-0.08220820128917694 -0.49641531705856323 1.1378087997436523
0.04895326495170593 -0.304640531539917 0.9563971161842346
0.04246318340301514 -0.3142891526222229 0.9553495645523071
0.037600137293338776 -0.31328085064888 0.9556971788406372
0.044953055679798126 -0.29703080654144287 0.9490681290626526
0.04930730164051056 -0.29913580417633057 0.9434171319007874
0.04517955705523491 -0.300129234790802 0.9304619431495667
0.03159821406006813 -0.316820353269577 0.9778878688812256
0.04337502270936966 -0.29670727252960205 0.9239867925643921
0.03513997420668602 -0.303229957818985 0.9179378747940063
0.10092415660619736 -0.267453670501709 1.026739478111267
0.0981164276599884 -0.27131032943725586 1.0279343128204346
0.08837375044822693 -0.26556840538978577 0.9970313310623169
0.08534085005521774 -0.2915351688861847 1.0771485567092896
0.0821881964802742 -0.2986654043197632 1.0736682415008545
-0.018478909507393837 -0.42678195238113403 1.1325360536575317
-0.018504630774259567 -0.4219924807548523 1.1326020956039429
-0.01681995950639248 -0.41598159074783325 1.1178107261657715
0.04585214704275131 -0.3065980076789856 0.9161815643310547
0.04363705590367317 -0.2927459180355072 0.9154351949691772
0.03652089834213257 -0.31777042150497437 0.9754458069801331
-0.06334467232227325 -0.4604073464870453 1.06305992603302
-0.07678751647472382 -0.47225579619407654 1.0636526346206665
0.10331752896308899 -0.28112003207206726 1.0555589199066162
0.10968631505966187 -0.2572261393070221 1.0241663455963135
-0.060601457953453064 -0.4823109209537506 1.120309591293335
-0.010487761348485947 -0.38186293840408325 1.000213623046875
0.17651203274726868 -0.17942965030670166 0.9977166652679443
0.16994281113147736 -0.18988387286663055 0.9985088109970093
-0.0045398203656077385 -0.38778156042099 1.009206771850586
0.11515769362449646 -0.25522303581237793 1.0112568140029907
0.10603269934654236 -0.26785215735435486 1.0158015489578247
0.10242362320423126 -0.2657139301300049 1.004491925239563
-0.041393257677555084 -0.4544559717178345 1.0838510990142822
0.08452184498310089 -0.282243013381958 0.9774594306945801
0.011464414186775684 -0.3753068149089813 1.0202144384384155
0.10080075263977051 -0.28149697184562683 1.0186386108398438
0.09193704277276993 -0.2920927107334137 1.0223569869995117
0.09420434385538101 -0.29000651836395264 1.0462329387664795
0.08233983814716339 -0.3010976314544678 1.0340789556503296
0.10340458154678345 -0.2756193280220032 1.0059586763381958
0.09406328201293945 -0.2761126458644867 0.9941441416740417
-0.03660058230161667 -0.4576109051704407 1.0920615196228027
-0.015742462128400803 -0.378990113735199 1.0706945657730103
-0.023686902597546577 -0.3758012056350708 1.0664108991622925
-0.02414938621222973 -0.3866194486618042 1.0785601139068604
-0.02014574036002159 -0.3742365837097168 1.0594021081924438
-0.03353520855307579 -0.38585516810417175 1.0706888437271118
-0.05265526846051216 -0.4261130690574646 1.0974736213684082
-0.058281250298023224 -0.43438780307769775 1.104636549949646
-0.02865413762629032 -0.39537814259529114 1.0686653852462769
-0.03788513317704201 -0.403148889541626 1.0608925819396973
-0.046496372669935226 -0.41955849528312683 1.081555724143982
-0.044866643846035004 -0.4184853434562683 1.0918937921524048
0.04453777149319649 -0.2974677085876465 1.0142831802368164
0.07525858283042908 -0.2830454111099243 1.0684583187103271
0.0884697437286377 -0.27120712399482727 1.0543490648269653
0.10011138021945953 -0.24183116853237152 1.0180436372756958
0.10148730874061584 -0.24094586074352264 1.0084336996078491
-0.025879723951220512 -0.40007221698760986 1.0313242673873901
-0.008836181834340096 -0.3696604371070862 1.020317792892456
-0.025754284113645554 -0.388453871011734 0.9975490570068359
-0.017436854541301727 -0.3782709836959839 1.0232689380645752
