-0.521720290184021 -0.07319571822881699 0.8390538692474365
-0.4932454824447632 -0.0023535043001174927 1.15574049949646
-0.45893770456314087 -0.013086594641208649 0.9925057888031006
-0.4143035411834717 -0.032275181263685226 1.0139994621276855
-0.4154033660888672 -0.0120774507522583 1.0158851146697998
-0.4339789152145386 -0.046993955969810486 1.157670259475708
-0.39986974000930786 -0.030686650425195694 1.0969737768173218
-0.4076192378997803 -0.011122681200504303 1.0455942153930664
-0.4068641662597656 -0.02826780639588833 1.0326277017593384
-0.32226505875587463 -0.04887084290385246 1.3740386962890625
-0.3543676435947418 -0.013879066333174706 1.1229058504104614
-0.3240876793861389 -0.04452717676758766 1.1527189016342163
-0.32325828075408936 -0.00812617503106594 1.1206363439559937
-0.25482305884361267 -0.02871844545006752 1.1511039733886719
-0.28085842728614807 -0.011204268783330917 1.1300278902053833
-0.20038264989852905 -0.023749476298689842 1.2067430019378662
0.37556010484695435 -0.048952020704746246 0.9511560797691345
0.5218740701675415 -0.12972480058670044 1.3931324481964111
0.44848886132240295 -0.0533314123749733 0.9006242156028748
0.38654056191444397 -0.035044386982917786 0.8960951566696167
0.41514870524406433 -0.0653686672449112 0.8805369734764099
0.4178429841995239 -0.04947042837738991 0.8762134313583374
0.44979000091552734 -0.07532015442848206 1.0669481754302979
0.44017910957336426 -0.09659088402986526 0.8899246454238892
0.4450419247150421 -0.09407489001750946 0.835594892501831
0.44144365191459656 -0.12223514914512634 0.8509324193000793
0.43869540095329285 -0.11364718526601791 0.8245400190353394
0.4380268454551697 -0.08943244814872742 0.7791588306427002
0.4239019453525543 -0.056469742208719254 0.5952503085136414
0.4240002930164337 -0.04795702174305916 0.5499054789543152
0.44798097014427185 -0.03703713044524193 0.5370806455612183
0.4798911213874817 -0.06714099645614624 0.8721212148666382
0.4819111227989197 -0.05834492668509483 0.8384626507759094
0.4737466275691986 -0.10565024614334106 0.8016733527183533
0.4546832740306854 -0.10473646968603134 0.7660859823226929
0.44494011998176575 -0.12708498537540436 0.7298027873039246
0.5257543325424194 -0.1160237044095993 1.1548924446105957
0.5267152190208435 -0.06416234374046326 0.7984836101531982
0.5423147678375244 -0.061188649386167526 0.7520283460617065
0.5522755980491638 -0.08436836302280426 0.9135239124298096
0.5402243733406067 -0.07734714448451996 0.5792750120162964
0.5231590867042542 -0.04029648378491402 0.5586727261543274
0.5508937835693359 -0.08077747374773026 0.773813009262085
0.5468536615371704 -0.08134322613477707 0.7239916920661926
0.659136950969696 -0.05856412649154663 0.8908603191375732
0.6122574210166931 -0.08916917443275452 0.8500871062278748
0.6228945255279541 -0.06705538928508759 0.8491065502166748
0.6109626293182373 -0.06894594430923462 0.7214326858520508
0.6086739301681519 -0.06072833389043808 0.737382173538208
-0.5945528149604797 0.04271624982357025 1.1910514831542969
-0.57891845703125 -0.022316807880997658 0.6596590876579285
-0.54599529504776 -0.051670342683792114 0.9569888114929199
-0.5372596979141235 -0.06948399543762207 0.9233595132827759
-0.5495617985725403 -0.029341164976358414 1.009032130241394
-0.4819672405719757 -0.020135343074798584 1.4412422180175781
-0.5225355625152588 0.0003144964575767517 1.0440889596939087
-0.5198473930358887 -0.011438317596912384 1.0090034008026123
-0.5124332904815674 -0.045262303203344345 0.6692562103271484
-0.50016850233078 -0.016902728006243706 0.6706829071044922
-0.49486592411994934 -0.06829207390546799 0.955594539642334
-0.5011920928955078 -0.07765553146600723 0.9037412405014038
-0.4945462942123413 -0.08606082946062088 0.9402186870574951
-0.4769505560398102 -0.03427807241678238 1.3917160034179688
-0.4733677804470062 -0.005248259752988815 1.2906572818756104
-0.2547752559185028 -0.007977522909641266 1.228628158569336
0.1195027083158493 -0.06429128348827362 1.2205374240875244
0.11070325970649719 -0.07959315925836563 1.225818157196045
0.19062687456607819 -0.0790756568312645 1.128947138786316
0.16656887531280518 -0.04628116637468338 1.0734316110610962
0.2785961627960205 -0.06147627905011177 1.1520131826400757
0.3061456084251404 -0.050875648856163025 1.024040699005127
0.2956857681274414 -0.060872435569763184 1.0083969831466675
0.4184296131134033 -0.10094547271728516 1.1149206161499023
0.4715234339237213 -0.12085320055484772 1.1777679920196533
0.43921640515327454 -0.09471925348043442 1.0081846714019775
0.43633919954299927 -0.12116529047489166 0.7372816801071167
0.45371976494789124 -0.0973924919962883 0.6937887668609619
0.44308653473854065 -0.11313362419605255 0.6475740671157837
0.4434008002281189 -0.08591807633638382 0.6054894924163818
0.5062357187271118 -0.09019657969474792 0.9234166145324707
0.46889805793762207 -0.10398566722869873 0.5280964970588684
-0.6000005006790161 0.0008503124117851257 1.0275073051452637
-0.48064273595809937 -0.04206865653395653 0.8148614764213562
-0.4801948666572571 -0.0437292605638504 0.762200117111206
-0.45639005303382874 -0.033269163221120834 1.5362424850463867
-0.35340169072151184 -0.01708018034696579 1.1093007326126099
-0.3492700159549713 -0.013428326696157455 1.0802820920944214
-0.3222339153289795 -0.022105354815721512 1.1005984544754028
-0.2610567808151245 -0.009580280631780624 1.1337611675262451
-0.14600421488285065 -0.03489234670996666 1.272939682006836
-0.1488768756389618 -0.054491039365530014 1.2712525129318237
0.39866238832473755 -0.1169453114271164 1.2512634992599487
0.44732946157455444 -0.12614920735359192 1.2857452630996704
0.4824683964252472 -0.06399168819189072 0.9010483622550964
0.4556450843811035 -0.0467328280210495 0.8376770615577698
0.4731626510620117 -0.10306915640830994 0.997725784778595
0.43216827511787415 -0.08078639209270477 0.7269273996353149
0.5335136651992798 -0.09024754911661148 0.9598971605300903
0.5433829426765442 -0.09257017821073532 1.0442684888839722
0.58978670835495 -0.07858866453170776 0.8818526864051819
0.5754040479660034 -0.07960358262062073 0.8216859698295593
0.5512837171554565 -0.08424846827983856 0.6628302335739136
0.48573195934295654 -0.0880388468503952 0.5869120955467224
0.5574072003364563 -0.062228016555309296 0.6574118733406067
-0.562991201877594 -0.04982038959860802 0.6715838313102722
-0.5275125503540039 -0.023673776537179947 0.6665459871292114
-0.5233163833618164 -0.0727948397397995 0.8638862371444702
-0.5320046544075012 -0.06540069729089737 0.7200167179107666
-0.5006550550460815 -0.059436313807964325 0.705087423324585
-0.4634118676185608 -0.041266508400440216 1.0091440677642822
-0.26642364263534546 -0.03876505047082901 1.2329736948013306
-0.27398034930229187 -0.029797878116369247 1.1806285381317139
-0.28652697801589966 -0.01811944507062435 1.1577435731887817
-0.2302684783935547 -0.0420590415596962 1.2200860977172852
-0.228059321641922 -0.04043198749423027 1.1523689031600952
-0.23131710290908813 -0.022919412702322006 1.1443508863449097
0.1703854501247406 -0.03204231709241867 1.082686424255371
0.430436372756958 -0.08856603503227234 0.9391949772834778
0.4723156690597534 -0.10662900656461716 0.9244029521942139
0.47371697425842285 -0.10911552608013153 0.8792632222175598
0.5340894460678101 -0.09566556662321091 0.7100520730018616
-0.5928760170936584 -0.022464631125330925 0.7619269490242004
-0.5943052172660828 -0.04056716337800026 0.7240699529647827
-0.5924453139305115 -0.028335943818092346 0.7207077145576477
-0.5372984409332275 -0.0031610094010829926 0.9331243634223938
-0.49951982498168945 -0.06010963022708893 0.877729058265686
-0.49134743213653564 -0.07297057658433914 0.9207705855369568
-0.18755139410495758 -0.042127303779125214 1.2345077991485596
-0.11354551464319229 -0.05599995702505112 1.3497438430786133
-0.10546841472387314 -0.045818958431482315 1.3407586812973022
0.1183827817440033 -0.09072843194007874 1.2330210208892822
0.3281312584877014 -0.14566537737846375 1.5225876569747925
0.46531158685684204 -0.11595002561807632 1.4342411756515503
0.49790745973587036 -0.13528892397880554 1.4366666078567505
0.523078441619873 -0.12125593423843384 1.3616982698440552
0.5943934917449951 -0.07899779826402664 1.1125543117523193
0.6305554509162903 -0.07774416357278824 1.1401675939559937
0.6062414646148682 -0.050652991980314255 1.0929205417633057
0.6129934191703796 -0.07025282829999924 1.0705749988555908
0.6396501064300537 -0.05660371109843254 1.086220622062683
-0.6142979264259338 0.03923796862363815 1.1279572248458862
-0.6069249510765076 0.05230093002319336 1.1141650676727295
-0.5648818612098694 0.03675230219960213 1.3554714918136597
-0.5511936545372009 0.03774000704288483 1.3364205360412598
-0.5582476854324341 0.004016369581222534 0.7061986923217773
-0.5579882860183716 -0.0024967528879642487 0.6640612483024597
-0.5470116138458252 -0.07272373139858246 0.7606622576713562
-0.5386746525764465 -0.00868985429406166 0.8850187063217163
-0.5118200182914734 0.0029169954359531403 1.0899726152420044
-0.43560126423835754 -0.03490310534834862 1.5769298076629639
0.19233064353466034 -0.053174301981925964 1.138594627380371
0.3061138093471527 -0.08490341901779175 1.328046441078186
0.33399003744125366 -0.05710706114768982 1.0282138586044312
0.35616427659988403 -0.06562624871730804 1.1519328355789185
0.3656219244003296 -0.05633695423603058 0.9509862661361694
0.3771982789039612 -0.055801309645175934 0.8999790549278259
0.3938526213169098 -0.08984419703483582 0.9680792689323425
0.42800965905189514 -0.05157196521759033 0.6945728659629822
0.4363677501678467 -0.05889754369854927 0.6811897158622742
0.4748073220252991 -0.10720032453536987 0.7245194315910339
0.5673147439956665 -0.06587181985378265 0.8877207636833191
0.5387598276138306 -0.03803484886884689 0.6860178709030151
-0.5786035060882568 -0.03804426267743111 0.6876319050788879
-0.5553327202796936 -0.027752935886383057 0.645684540271759
-0.3378336429595947 2.7243047952651978e-05 1.0833206176757812
-0.2655830383300781 -0.0024919994175434113 1.155503749847412
-0.21200475096702576 -0.033874720335006714 1.1931962966918945
0.5202327966690063 -0.043563008308410645 0.7206422686576843
0.49574151635169983 -0.03709110617637634 0.5038731694221497
0.5093991160392761 -0.043171584606170654 0.5150916576385498
-0.5326189994812012 -0.07291854172945023 0.9012472629547119
-0.495761901140213 -0.047976311296224594 0.8292853832244873
-0.4986158013343811 -0.06251098960638046 0.7841856479644775
0.5297103524208069 -0.11008626222610474 1.2838679552078247
0.5083394646644592 -0.01889866217970848 0.5133764147758484
0.599294126033783 -0.07612494379281998 0.7836923003196716
-0.24523761868476868 -0.0147016029804945 1.304316520690918
0.5983137488365173 -0.0718657374382019 0.8733190298080444
-0.4747016429901123 -0.0370754636824131 0.9008122682571411
0.4405216872692108 -0.09765677899122238 0.5491435527801514
0.5858144760131836 -0.06819989532232285 0.8630737066268921
-0.5373624563217163 -0.09096784889698029 0.8652199506759644
-0.33184564113616943 -0.029598567634820938 0.8938304781913757
-0.3384343385696411 -0.02836572751402855 0.9053349494934082
-0.3290104568004608 -0.05948862433433533 0.897367537021637
-0.33961886167526245 -0.05853746086359024 0.9050258994102478
-0.3056161105632782 -0.039855845272541046 0.9719800353050232
-0.31355273723602295 -0.04345810413360596 0.9468634724617004
-0.2950202226638794 -0.018727485090494156 0.9257383942604065
-0.28595590591430664 -0.008138560689985752 0.9676027297973633
-0.30993539094924927 -0.06742981821298599 0.9464449286460876
-0.3219921290874481 -0.09182179719209671 0.925331175327301
-0.28142327070236206 -0.038557711988687515 1.0428043603897095
-0.30141374468803406 -0.09630963206291199 0.9313121438026428
-0.3031183183193207 -0.054198965430259705 0.942299485206604
-0.3029188811779022 -0.09647718071937561 0.9714993834495544
-0.2917563319206238 -0.06580501049757004 0.9749962687492371
-0.2607004940509796 -0.01462506502866745 1.0250812768936157
-0.2820533812046051 -0.05563630163669586 0.9783353805541992
-0.28833863139152527 -0.07831703126430511 0.9975756406784058
-0.28782910108566284 -0.06523473560810089 1.0322054624557495
-0.2917938232421875 -0.03496525436639786 1.0772299766540527
-0.3053628206253052 -0.09022882580757141 1.0526379346847534
-0.23818142712116241 -0.0006368351168930531 1.125756859779358
-0.24311165511608124 0.00961141474545002 1.0828146934509277
-0.28684002161026 -0.05551784485578537 1.1079213619232178
-0.2082710862159729 0.010159894824028015 1.079914927482605
-0.2403963804244995 -0.07217200100421906 1.1695492267608643
-0.2777709364891052 -0.11674479395151138 1.1046223640441895
-0.2053232491016388 0.011445163749158382 1.1255357265472412
-0.17593596875667572 -0.008915071375668049 1.140775442123413
-0.18505051732063293 -0.02851485088467598 1.1943415403366089
-0.15862056612968445 -0.030744897201657295 1.2015118598937988
-0.1819925308227539 -0.12461553514003754 1.246795892715454
-0.23389017581939697 -0.12340027093887329 1.1639686822891235
-0.15787433087825775 -0.050693199038505554 1.2443225383758545
-0.19472964107990265 -0.07794500887393951 1.2320566177368164
-0.15577879548072815 -0.0693129301071167 1.280242681503296
-0.14732037484645844 -0.08760662376880646 1.3171230554580688
-0.1483543962240219 -0.1371888518333435 1.3087973594665527
-0.18268753588199615 -0.153078094124794 1.195446491241455
-0.11192329227924347 -0.10452136397361755 1.7032277584075928
-0.08912820369005203 -0.004989581182599068 1.4285941123962402
-0.133215993642807 0.06402844190597534 0.8449857234954834
-0.17711958289146423 0.012858460657298565 0.8357446193695068
-0.14868539571762085 -0.08258122205734253 0.8450717926025391
-0.19061113893985748 -0.11112040281295776 0.830368161201477
-0.10307078063488007 -0.07919612526893616 1.6207071542739868
-0.11630155891180038 -0.12062722444534302 1.7218049764633179
-0.08945118635892868 -0.10567262023687363 1.6758214235305786
-0.0746922418475151 -0.06844300776720047 1.6381170749664307
-0.08981610089540482 -0.08071020245552063 1.5869508981704712
-0.1196591705083847 -0.015253596007823944 1.0412225723266602
-0.1624499261379242 -0.05611312389373779 0.9918012619018555
-0.16942822933197021 -0.12187336385250092 0.9720162749290466
-0.09488648176193237 -0.09156393259763718 1.5221867561340332
-0.15575535595417023 -0.09262785315513611 -0.009444648399949074
-0.16111315786838531 -0.17496170103549957 -0.009941862896084785
-0.16442739963531494 -0.1898607313632965 0.020330842584371567
-0.11329300701618195 -0.13722018897533417 1.3638249635696411
-0.1046946719288826 -0.08373266458511353 1.3314719200134277
-0.10133623331785202 -0.10239969938993454 1.3055704832077026
-0.12461752444505692 -0.1472068578004837 1.347235083580017
-0.11223103851079941 -0.17425286769866943 1.2945724725723267
-0.13266010582447052 -0.06956707686185837 0.4283141791820526
-0.12536583840847015 -0.09535522758960724 0.34191131591796875
-0.13404488563537598 -0.043210845440626144 0.28143981099128723
-0.14080475270748138 -0.07095365226268768 0.30814796686172485
-0.08636795729398727 -0.09323003888130188 1.648378610610962
-0.10733335465192795 -0.13422881066799164 1.2647581100463867
-0.11724098026752472 -0.12932352721691132 1.2273072004318237
-0.11594947427511215 -0.1637745201587677 1.243661880493164
-0.14075519144535065 -0.17911271750926971 1.2340329885482788
-0.12169373035430908 -0.03166666999459267 0.21054193377494812
-0.09452684223651886 -0.15324309468269348 1.504122257232666
-0.08249368518590927 -0.08549530059099197 1.5229524374008179
-0.0902031660079956 -0.11521632969379425 1.5102843046188354
-0.111594058573246 -0.1068342849612236 0.5291885137557983
-0.03276164457201958 -0.11797216534614563 1.728534460067749
-0.11197923123836517 -0.16334885358810425 1.1850967407226562
-0.10975861549377441 -0.07917140424251556 1.1628161668777466
-0.09165310114622116 -0.14825138449668884 0.7183886766433716
-0.03777497261762619 -0.0661369264125824 1.6944302320480347
-0.09056924283504486 -0.16786012053489685 1.365725040435791
-0.08984144032001495 -0.125898540019989 0.8342069387435913
-0.13433915376663208 -0.1348385065793991 0.8525627255439758
-0.1243678480386734 -0.19940730929374695 0.903415322303772
-0.10232381522655487 -0.21652790904045105 0.8448357582092285
-0.13680991530418396 -0.2133500725030899 0.05859743058681488
-0.002560338005423546 -0.047766681760549545 1.6960448026657104
-0.027772272005677223 -0.106551393866539 1.7158594131469727
-0.1023944690823555 -0.12500007450580597 1.4241632223129272
-0.08067584782838821 -0.15184977650642395 1.4632980823516846
-0.0991680845618248 -0.021035287529230118 0.2804495096206665
-0.11336717009544373 -0.03297815099358559 0.16878178715705872
-0.13309606909751892 -0.19267508387565613 0.0912390649318695
-0.1084425300359726 0.0028541916981339455 -0.010638860985636711
-0.07716295123100281 -0.09922248125076294 1.3121862411499023
-0.08932968974113464 -0.13263481855392456 0.5042508244514465
-0.08929295092821121 -0.19820769131183624 -0.014252343215048313
-0.12970168888568878 -0.20684564113616943 -0.02016020566225052
-0.04668712615966797 -0.0928310677409172 1.5338444709777832
-0.05511289834976196 -0.11806799471378326 1.487927794456482
-0.031170396134257317 -0.21717774868011475 0.9074082970619202
-0.08385173976421356 0.08733153343200684 0.8559324741363525
-0.11707482486963272 -0.14757691323757172 0.21467989683151245
-0.08844748139381409 -0.12875621020793915 0.13444682955741882
-0.08960855007171631 -0.00030688196420669556 0.045950256288051605
-0.06841310858726501 -0.08770719915628433 1.284916639328003
-0.08193202316761017 -0.0962916910648346 1.2433940172195435
-0.052521876990795135 -0.20918619632720947 1.2682585716247559
-0.08440747857093811 -0.056189000606536865 0.6295647621154785
-0.0717812329530716 -0.1505584865808487 0.714613676071167
-0.05016108602285385 -0.12913614511489868 0.802081823348999
-0.07570642232894897 -0.12620607018470764 0.10144252330064774
-0.08224897086620331 -0.1946229189634323 0.0603322833776474
-0.074965700507164 -0.1979958415031433 1.4495588541030884
-0.05793101340532303 -0.09720952808856964 1.3459488153457642
-0.03819762170314789 -0.08482109755277634 1.2916862964630127
-0.05981363356113434 -0.13415910303592682 0.5294742584228516
-0.040053289383649826 -0.11445892602205276 0.5320131778717041
-0.07476595044136047 -0.01769149675965309 0.47103533148765564
-0.05472937971353531 -0.18285657465457916 1.4217803478240967
-0.031108271330595016 -0.14267444610595703 1.4079148769378662
-0.06107068806886673 -0.09358999133110046 1.390122652053833
-0.04759674146771431 -0.054428376257419586 0.4794747233390808
0.014122877269983292 -0.0930967926979065 1.7218483686447144
-0.060787126421928406 -0.24879246950149536 1.5661218166351318
-0.03660619631409645 -0.19184651970863342 0.9727432727813721
-0.03251684457063675 -0.15386758744716644 1.4213831424713135
-0.017594439908862114 -0.18035650253295898 1.4013100862503052
-0.03652021661400795 -0.16408289968967438 1.3941746950149536
-0.015003921464085579 -0.23808641731739044 1.502799153327942
-0.054830022156238556 -0.22719146311283112 1.456329107284546
-0.006766719743609428 -0.12708617746829987 1.4381420612335205
-0.03707661107182503 -0.07344009727239609 0.6096777319908142
0.05516486242413521 -0.13489483296871185 1.7285822629928589
0.03691479563713074 -0.030735332518815994 1.6726741790771484
-0.01003938540816307 -0.24910828471183777 1.452313780784607
-0.02700529247522354 -0.2244342565536499 1.4125946760177612
0.0035467948764562607 -0.1313384473323822 1.4107575416564941
-0.003040419891476631 -0.22871911525726318 1.412689208984375
0.03187112882733345 -0.1098024994134903 1.3928784132003784
-0.003361513838171959 -0.09320206940174103 1.2806928157806396
0.057950522750616074 -0.08270158618688583 1.718224048614502
0.027820654213428497 -0.1369447410106659 1.4379020929336548
0.016565464437007904 -0.18072277307510376 1.4167929887771606
0.08461049199104309 -0.06304793059825897 1.6856478452682495
0.06609313189983368 -0.122748002409935 1.713509440422058
0.013069055043160915 -0.175975039601326 1.4045417308807373
0.05664162337779999 -0.19945944845676422 1.4357506036758423
0.025228392332792282 -0.15552617609500885 1.4134974479675293
0.0285551268607378 -0.09301269799470901 0.5555756092071533
0.06192538142204285 -0.1112198755145073 1.4721566438674927
0.057479992508888245 -0.12202069908380508 0.4702778458595276
0.002859199419617653 -0.24347394704818726 1.2219363451004028
0.06158774346113205 -0.1229545921087265 1.2454122304916382
0.051317308098077774 -0.10681095719337463 1.141223669052124
0.07368084788322449 -0.2665049731731415 0.054515764117240906
0.10203467309474945 -0.28008657693862915 0.026496976613998413
0.07218674570322037 -0.0736241415143013 -0.007171266712248325
0.01632137969136238 -0.22390049695968628 1.2144640684127808
0.005747579038143158 -0.22992581129074097 1.134225845336914
0.03403336554765701 -0.1424177885055542 0.6969776749610901
0.06450064480304718 -0.16440819203853607 -0.03655330836772919
0.10831451416015625 -0.12228899449110031 1.672656536102295
0.056056320667266846 -0.252244234085083 1.565184473991394
0.04639771953225136 -0.22892117500305176 1.491677165031433
0.042108092457056046 -0.22793108224868774 1.4491711854934692
0.08272606879472733 -0.15917956829071045 0.8458955883979797
0.15739022195339203 -0.13258329033851624 1.6945176124572754
0.07220025360584259 -0.11672474443912506 1.5168873071670532
0.06705210357904434 -0.1333659291267395 1.4872838258743286
0.07703561335802078 -0.057273976504802704 0.27444222569465637
0.07038621604442596 -0.050461478531360626 0.21140576899051666
0.08922698348760605 -0.07506367564201355 -0.035246118903160095
0.10870342701673508 -0.1472097486257553 1.747300148010254
0.08849045634269714 -0.13834364712238312 1.380515694618225
0.08798759430646896 -0.21838250756263733 0.8391613960266113
0.0656687468290329 -0.13150586187839508 0.8285278081893921
0.11366108804941177 -0.1936158686876297 0.827186107635498
0.06590971350669861 -0.04121580347418785 0.7174510359764099
0.12291412800550461 -0.278033584356308 0.044270291924476624
0.11982330679893494 -0.1327860951423645 1.6811774969100952
0.03651347756385803 -0.1938532590866089 1.1127667427062988
0.0393056645989418 -0.2338007092475891 1.2313541173934937
0.0375746451318264 -0.2531285881996155 1.2256969213485718
0.13075661659240723 -0.19167402386665344 0.8967677354812622
0.09217240661382675 -0.18596670031547546 1.5157818794250488
0.10067287087440491 -0.11347191780805588 1.5279760360717773
0.09669889509677887 -0.13685715198516846 1.509867787361145
0.10101328790187836 -0.1503421664237976 1.5035812854766846
0.10510502755641937 -0.16211599111557007 1.4787564277648926
0.09507294744253159 -0.06851880252361298 0.6107838153839111
0.09168833494186401 -0.13511019945144653 0.6295223236083984
0.09074879437685013 -0.20423507690429688 1.3542481660842896
0.09963786602020264 -0.1614212542772293 1.3044565916061401
0.06780856847763062 -0.15362456440925598 1.328169345855713
0.06939660012722015 -0.16267643868923187 1.3003568649291992
0.09629209339618683 -0.11989720910787582 0.7925546169281006
0.1331160068511963 -0.11896006762981415 -0.03120942786335945
0.14603905379772186 -0.16028620302677155 -0.030581749975681305
0.12300464510917664 -0.13542748987674713 1.6377824544906616
0.10862883180379868 -0.1479838788509369 1.351089596748352
0.1371503621339798 -0.10985197126865387 0.259375661611557
0.14600905776023865 -0.11497771739959717 1.6174023151397705
0.12404778599739075 -0.09170584380626678 1.627610683441162
0.13039688766002655 -0.11377778649330139 1.5886003971099854
0.14700181782245636 -0.1424321085214615 0.062155574560165405
0.15185782313346863 -0.2437886893749237 0.021290097385644913
0.12421711534261703 -0.25633031129837036 0.07232081145048141
0.16763311624526978 -0.019490238279104233 0.9309437274932861
0.13547155261039734 -0.017097461968660355 0.824397623538971
0.15519608557224274 -0.14817117154598236 1.6876935958862305
0.15905095636844635 0.035804469138383865 0.8313843011856079
0.1855199635028839 -0.0027684520464390516 0.8881734013557434
0.12195732444524765 -0.1797189712524414 1.2909140586853027
0.12342889606952667 -0.21096013486385345 1.270835041999817
0.09559021145105362 -0.2132701277732849 1.325261116027832
0.11934725195169449 -0.19687879085540771 1.232414722442627
0.10352684557437897 -0.19647258520126343 1.2147170305252075
0.10408250987529755 -0.2832956910133362 1.193387746810913
0.12644582986831665 -0.23884880542755127 1.225975751876831
0.12523669004440308 -0.2133045792579651 1.1558364629745483
0.11528003960847855 -0.21585753560066223 1.0748350620269775
0.1428127884864807 -0.22158929705619812 1.0817012786865234
0.15055477619171143 -0.2383802831172943 1.1343071460723877
0.13696390390396118 -0.27616074681282043 1.15990149974823
0.13718172907829285 -0.2398565262556076 1.029815435409546
0.1801798939704895 -0.29174908995628357 1.0735243558883667
0.177490696310997 -0.27029603719711304 1.0538233518600464
0.15952827036380768 -0.24962669610977173 1.0312817096710205
0.14786280691623688 -0.3343106806278229 1.0663506984710693
0.15448608994483948 -0.3003363311290741 1.0349838733673096
0.14928582310676575 -0.28121450543403625 1.0216642618179321
0.1907108575105667 -0.33245572447776794 0.924968957901001
0.14003948867321014 -0.31873616576194763 1.0348291397094727
0.1422225534915924 -0.33380189538002014 1.0087851285934448
0.17013612389564514 -0.2984880805015564 0.9552716612815857
0.1411469727754593 -0.31894218921661377 0.9856924414634705
0.14283299446105957 -0.3441750705242157 0.9861966371536255
0.16048593819141388 -0.3316071629524231 0.9583089351654053
0.17603754997253418 -0.3306160867214203 0.9533505439758301
0.14525720477104187 -0.36041972041130066 0.9616824984550476
0.16111715137958527 -0.3468901515007019 0.9532567262649536
0.15370191633701324 -0.35220664739608765 0.9610967636108398
0.18689937889575958 -0.3364117741584778 0.906981885433197
0.15942887961864471 -0.3642847537994385 0.948478102684021
0.1695757359266281 -0.3281807601451874 0.9229960441589355
0.17899039387702942 -0.3565624952316284 0.9185808300971985
0.19098353385925293 -0.3484271168708801 0.9218897223472595
-0.26163816452026367 -0.016279075294733047 1.0487505197525024
-0.27309709787368774 -0.07492994517087936 1.01835036277771
-0.2510718107223511 -0.05718400329351425 1.0235668420791626
-0.29065561294555664 -0.10934004187583923 1.0415184497833252
-0.2018062025308609 -0.022968839854002 1.0569689273834229
-0.2618905305862427 -0.11008381098508835 1.0333551168441772
-0.14588385820388794 -0.06933620572090149 1.2205076217651367
-0.16470392048358917 -0.12139832973480225 1.1764564514160156
-0.1848030388355255 -0.09745781123638153 0.9391285181045532
-0.18953436613082886 -0.015088390558958054 0.9081152677536011
-0.13752196729183197 0.051266830414533615 0.9104583263397217
-0.07251571118831635 0.055793408304452896 1.3220115900039673
-0.07432037591934204 0.0644347220659256 1.2705278396606445
-0.07301905006170273 0.09153828769922256 1.2528955936431885
-0.16603171825408936 -0.010812876746058464 0.9428139925003052
-0.12495018541812897 -0.12063553929328918 1.6920922994613647
-0.1120949536561966 -0.09960518032312393 1.3456987142562866
-0.1290879249572754 -0.07694429904222488 1.2796657085418701
-0.01891566440463066 0.10999619215726852 1.166077733039856
-0.047770190984010696 0.12422603368759155 1.0992993116378784
-0.1630556583404541 -0.08069442957639694 0.0563787966966629
-0.17027424275875092 -0.15972258150577545 0.036074861884117126
-0.10246916860342026 -0.1280578374862671 1.6738640069961548
-0.09317168593406677 -0.1105903834104538 1.62518310546875
-0.13000674545764923 -0.19256247580051422 1.2075296640396118
-0.13018640875816345 -0.20090776681900024 1.1785722970962524
-0.13741205632686615 -0.2197825014591217 1.1673812866210938
-0.06666243076324463 0.0035023726522922516 1.410090446472168
-0.057208675891160965 -0.0008812118321657181 1.405444860458374
-0.11226534098386765 -0.19863606989383698 1.2245864868164062
-0.12897536158561707 -0.11380449682474136 1.2009423971176147
-0.1404942125082016 -0.11498202383518219 0.12274079769849777
-0.14700675010681152 -0.07086754590272903 0.14009641110897064
-0.026429874822497368 0.04400548338890076 1.3110129833221436
-0.10720857232809067 -0.13890625536441803 1.432680606842041
-0.108265720307827 -0.13088661432266235 1.4129180908203125
-0.09858383983373642 -0.12944717705249786 1.3926979303359985
-0.11189465969800949 -0.12501466274261475 1.3926125764846802
-0.11553700268268585 -0.13878574967384338 1.3756003379821777
-0.11961780488491058 -0.12752124667167664 0.7605025768280029
-0.13352958858013153 -0.09010925143957138 0.7483268976211548
-0.008042964152991772 0.1573452353477478 1.1865012645721436
-0.00698704132810235 0.14617124199867249 1.2292810678482056
-0.10409315675497055 -0.19055578112602234 1.2245674133300781
-0.11791402846574783 -0.11630963534116745 0.8407007455825806
-0.13753198087215424 -0.010163404047489166 0.046961069107055664
-0.1407710611820221 -0.018710017204284668 -0.0006277784705162048
-0.13345341384410858 -0.1894208788871765 0.8390005230903625
-0.027910487726330757 0.09982094168663025 1.3097703456878662
-0.09592238813638687 -0.2215200662612915 1.570665717124939
-0.072519451379776 -0.1073128804564476 1.5145282745361328
-0.04116697981953621 -0.02208961546421051 1.5151591300964355
-0.038124892860651016 -0.06284692138433456 1.5517356395721436
-0.05995159596204758 -0.06263715028762817 1.5293593406677246
-0.054361168295145035 -0.028384769335389137 1.466749906539917
0.004194566980004311 -0.003103792667388916 1.5585343837738037
-0.0687180608510971 -0.13669222593307495 1.4623342752456665
-0.0961998701095581 0.04457659646868706 0.9706518650054932
-0.05863255262374878 -0.13251370191574097 1.7631603479385376
-0.06774212419986725 -0.13802549242973328 1.75624680519104
-0.07437893748283386 -0.145961731672287 1.7424503564834595
0.02355395257472992 -0.03392050042748451 1.459329605102539
-0.03058774769306183 0.011739211156964302 1.4507263898849487
-0.07196725904941559 -0.1084732860326767 -0.014840642921626568
0.01249735802412033 0.05868753045797348 1.409501075744629
-0.06960945576429367 -0.21208514273166656 1.4876786470413208
-0.07691370695829391 -0.09576631337404251 0.3497012257575989
-0.010211918503046036 -0.05263921245932579 1.5041759014129639
-0.03396384045481682 -0.09614195674657822 1.471085786819458
0.016425898298621178 0.017189063131809235 1.4915549755096436
-0.03489864617586136 0.05080878734588623 0.8555327653884888
-0.08184462040662766 -0.03214232996106148 0.30106866359710693
0.0292131919413805 0.14637500047683716 1.1020032167434692
-0.030910378322005272 0.023350760340690613 1.0473963022232056
-0.0883205309510231 -0.2153397798538208 1.2145860195159912
-0.09794449806213379 -0.19010955095291138 1.126785159111023
-0.06682200729846954 -0.060562558472156525 0.27915966510772705
-0.0466872975230217 -0.0739712342619896 0.218165785074234
-0.07818032801151276 -0.026402125135064125 0.21397674083709717
-0.012801280245184898 -0.07374761253595352 1.5107625722885132
-0.031222961843013763 -0.1299060583114624 0.6681360602378845
-0.056909650564193726 -0.057885222136974335 0.6270961165428162
0.04333797097206116 0.15742450952529907 1.2205933332443237
0.04153117537498474 0.1674773395061493 1.1483689546585083
-0.051026035100221634 -0.2267300933599472 1.1394492387771606
-0.06040363386273384 -0.06709112972021103 0.07458093017339706
0.03009728714823723 0.12412197142839432 1.1299364566802979
0.023182345554232597 0.09629026055335999 1.1569544076919556
0.049671899527311325 -0.06774662435054779 1.5064618587493896
-0.05422278493642807 -0.1904200315475464 1.3551008701324463
0.06253794580698013 0.07000869512557983 1.393579125404358
0.06602217257022858 -0.034726936370134354 1.447068691253662
0.04138820990920067 -0.07958951592445374 1.498733639717102
0.07833545655012131 0.12113749235868454 1.1346194744110107
0.09086461365222931 0.11939705908298492 1.0926854610443115
-0.0016660075634717941 -0.2086338996887207 1.3478734493255615
0.020016953349113464 0.022018136456608772 1.04441499710083
-0.030096113681793213 -0.2254173904657364 1.0785372257232666
0.12433995306491852 0.04844801127910614 1.404008388519287
0.0333339124917984 -0.09662909805774689 1.2920267581939697
0.10314305126667023 0.0007900577038526535 1.4880889654159546
0.06935583055019379 -0.04233445227146149 1.4813964366912842
0.03663353994488716 -0.08711875975131989 1.2092225551605225
0.04697399213910103 0.09330230206251144 0.9196885824203491
0.059335559606552124 -0.1623457968235016 1.6895138025283813
0.04838278889656067 -0.21142178773880005 0.040135081857442856
0.054127711802721024 -0.24503172934055328 0.009435521438717842
0.045136090368032455 -0.12233300507068634 0.027267202734947205
0.013576000928878784 -0.2578344941139221 1.561690092086792
0.03235974907875061 -0.06319998949766159 0.6824027299880981
0.12118129432201385 -0.043939463794231415 1.4493240118026733
0.0674007385969162 -0.16618815064430237 1.4502663612365723
0.09662190824747086 -0.16617120802402496 1.389278531074524
0.05686565116047859 -0.1348276138305664 1.3851999044418335
0.058157578110694885 -0.06254509091377258 0.34513241052627563
0.061620671302080154 -0.16607169806957245 0.19765183329582214
0.0808953270316124 -0.07258693873882294 0.1447453796863556
0.13762223720550537 0.11540242284536362 1.1348648071289062
0.13212598860263824 0.14279408752918243 1.114449381828308
0.06915172189474106 -0.14810502529144287 0.7065389156341553
0.07023867964744568 -0.05363958328962326 0.6213845014572144
0.055792152881622314 -0.20597732067108154 1.6675755977630615
0.09174147248268127 -0.20840555429458618 1.6246962547302246
0.07459299266338348 -0.13752178847789764 0.5159369707107544
0.08039993792772293 -0.15672188997268677 1.701379656791687
0.10090839862823486 -0.16357137262821198 1.6526668071746826
0.06156444177031517 -0.1325140744447708 1.128771185874939
0.06991901993751526 -0.11478722095489502 1.108215093612671
0.059402890503406525 -0.182503342628479 1.0778652429580688
0.07044881582260132 -0.2371499240398407 1.5590035915374756
0.08423346281051636 -0.16347381472587585 1.4783414602279663
0.07339300215244293 -0.20338723063468933 1.4694746732711792
0.17112982273101807 0.10819553583860397 1.0969867706298828
0.0605337917804718 -0.21924635767936707 1.2645983695983887
0.053891073912382126 -0.2721395492553711 1.2156620025634766
0.07154931128025055 -0.181368887424469 1.2102724313735962
0.12423822283744812 -0.08665823191404343 0.08345802128314972
0.10628300160169601 -0.1844601333141327 0.12234777957201004
0.12343987822532654 -0.18237486481666565 0.10278474539518356
0.1176091879606247 -0.14695432782173157 1.6775598526000977
0.06475234031677246 -0.2416914701461792 1.2655407190322876
0.13494740426540375 -0.06589917838573456 0.38206979632377625
0.11326931416988373 -0.11104868352413177 0.44351986050605774
0.1384250372648239 -0.08893665671348572 0.32561996579170227
0.10554960370063782 -0.18510344624519348 1.3758357763290405
0.09209932386875153 -0.181209534406662 1.3769922256469727
0.1068454384803772 -0.16016803681850433 1.340132713317871
0.12485582381486893 0.06188613548874855 0.9000650644302368
0.10780580341815948 -0.11754807829856873 0.8218551278114319
0.14947660267353058 -0.08932876586914062 0.19177569448947906
0.15665245056152344 -0.12063953280448914 0.20413577556610107
0.11553962528705597 -0.16255387663841248 1.336466908454895
0.17931416630744934 0.014254450798034668 1.3153321743011475
0.18663668632507324 0.043873127549886703 1.3014469146728516
0.03827222064137459 -0.31921929121017456 1.1032596826553345
0.165022075176239 -0.07228593528270721 0.9667836427688599
0.16719502210617065 -0.12872962653636932 0.9505630731582642
0.09514670073986053 -0.19795842468738556 1.1571100950241089
0.09131200611591339 -0.30068734288215637 1.0452672243118286
0.09667861461639404 -0.2635493874549866 1.021848440170288
0.11958380788564682 -0.3287678360939026 1.106675624847412
-0.24695806205272675 -0.023128433153033257 1.0233874320983887
-0.2777438163757324 -0.07511626183986664 0.9851132035255432
-0.21444064378738403 -0.11899624764919281 1.0913728475570679
-0.23501178622245789 -0.13821998238563538 1.1300184726715088
-0.17407231032848358 -0.09185642004013062 1.1197214126586914
-0.15511082112789154 -0.05410965532064438 1.1540025472640991
-0.18772375583648682 -0.15597352385520935 0.8495410680770874
-0.0729680061340332 0.12093090265989304 1.1357049942016602
-0.07704564929008484 0.09204685688018799 1.2193289995193481
-0.15061013400554657 -0.253924697637558 1.0641405582427979
-0.1465994417667389 -0.16045218706130981 0.9399803876876831
-0.16326723992824554 -0.08012685179710388 0.22698497772216797
-0.1414329558610916 -0.12917038798332214 0.24200163781642914
-0.11245401203632355 -0.026363413780927658 0.4536745548248291
-0.14506864547729492 -0.19534501433372498 0.8436850309371948
-0.11044856905937195 -0.08371780812740326 0.5947973728179932
-0.11129376292228699 -0.12179960310459137 0.6548086404800415
-0.10073593258857727 -0.06101728975772858 0.6619781255722046
-0.10085894167423248 -0.04466263949871063 1.1067242622375488
-0.11173540353775024 -0.11018221080303192 1.120078206062317
0.009713023900985718 0.12496468424797058 1.2849171161651611
-0.10890108346939087 -0.023821059614419937 0.834955632686615
-0.09786541759967804 -0.13943800330162048 0.25881361961364746
-0.10135956108570099 -0.0809287279844284 1.2105207443237305
-0.08853136003017426 -0.07546913623809814 1.1395821571350098
-0.09523718804121017 -0.11905257403850555 0.4014865756034851
-0.06837847828865051 -0.14088274538516998 1.6863863468170166
-0.07667762786149979 -0.17191946506500244 1.6670795679092407
-0.041364748030900955 -0.2059982568025589 1.6682865619659424
-0.06276436895132065 -0.23457744717597961 1.624954104423523
-0.08351929485797882 -0.21924155950546265 1.5355372428894043
-0.07909343391656876 -0.09706317633390427 0.2943839430809021
-0.038393307477235794 -0.13568107783794403 0.7241905927658081
-0.04998955503106117 -0.10446561872959137 0.22350597381591797
-0.06799346208572388 -0.13457252085208893 0.227491557598114
-0.07998612523078918 -0.04144784063100815 0.16544973850250244
-0.05294521152973175 0.06514624506235123 0.9701222777366638
-0.021311815828084946 -0.1354561746120453 1.7256065607070923
-0.03808042034506798 -0.14467957615852356 1.7118349075317383
0.07214020192623138 0.06941620260477066 1.2529830932617188
-0.006052000448107719 0.07234587520360947 1.2573426961898804
0.05522352084517479 0.04881247878074646 1.2981805801391602
0.010801786556839943 -0.09981179237365723 1.2444368600845337
0.07551887631416321 0.11649281531572342 1.3080112934112549
0.06482671946287155 0.1005273312330246 1.1600382328033447
0.1279599368572235 0.14186815917491913 1.2415212392807007
0.07622531056404114 -0.033564645797014236 1.6453211307525635
0.09508752077817917 0.09009299427270889 1.162297010421753
0.04046802967786789 -0.2183912992477417 0.8991693258285522
0.03255269303917885 -0.12257665395736694 0.2145313322544098
0.05097772181034088 -0.14244481921195984 0.15505066514015198
0.026379967108368874 -0.13107460737228394 0.6653280854225159
0.04167291522026062 -0.014102844521403313 1.0791735649108887
0.045370690524578094 -0.04947832226753235 0.5274313688278198
0.12361648678779602 0.0164799764752388 1.343802571296692
0.06454873085021973 -0.2101755440235138 1.3763898611068726
0.10295189917087555 -0.042721472680568695 1.6071319580078125
0.08785529434680939 -0.10183198750019073 1.559356927871704
0.09131456911563873 -0.08173535764217377 1.5434765815734863
0.07961723208427429 -0.15722347795963287 1.745615005493164
0.04888080805540085 -0.23060482740402222 1.3168946504592896
0.10837184637784958 -0.031921785324811935 0.4485572576522827
0.07670794427394867 -0.018936414271593094 0.44425666332244873
0.09820922464132309 -0.04470140486955643 0.2910468280315399
0.119654081761837 -0.0528300404548645 0.26104557514190674
0.10530745983123779 -0.15980692207813263 1.4700837135314941
0.09520140290260315 -0.16847950220108032 1.4762438535690308
0.10548610985279083 -0.16096441447734833 1.4616906642913818
0.100729800760746 -0.05541471019387245 0.7286717891693115
0.10618171840906143 -0.09918641299009323 0.5956100225448608
0.13273465633392334 0.020621195435523987 0.940345287322998
0.1059754341840744 -0.10199960321187973 1.0878666639328003
0.0966644138097763 -0.15218916535377502 1.0687661170959473
0.11108189821243286 -0.16690292954444885 1.009699821472168
0.12006095051765442 -0.1368463635444641 1.5855724811553955
0.12421412765979767 -0.1298297941684723 1.5096131563186646
0.04780369997024536 -0.258384644985199 1.2001855373382568
0.14567889273166656 -0.061877116560935974 1.5133763551712036
0.13499484956264496 -0.09484954923391342 1.5429929494857788
0.14674203097820282 -0.12024654448032379 0.0009279381483793259
0.15475784242153168 -0.1897350400686264 0.00604851171374321
0.14933308959007263 -0.07239057123661041 1.4785783290863037
0.15230382978916168 -0.05465966835618019 1.457118272781372
0.15744608640670776 -0.05151820927858353 1.4279658794403076
0.15919992327690125 -0.036304254084825516 1.4201934337615967
0.03715825825929642 -0.32443541288375854 1.1213419437408447
0.16249695420265198 -0.15822464227676392 0.8269325494766235
0.05489552393555641 -0.30653953552246094 1.1354035139083862
0.04728061333298683 -0.32712286710739136 1.1205954551696777
0.19323952496051788 -0.1153363585472107 0.8381999135017395
0.1909009963274002 -0.09245002269744873 0.8183529376983643
0.20312559604644775 -0.057820335030555725 0.8266092538833618
-0.19857099652290344 -0.14046019315719604 1.1486799716949463
-0.15095427632331848 -0.16779938340187073 1.2254983186721802
-0.15832984447479248 -0.16198909282684326 1.2087492942810059
-0.1486096829175949 -0.1560089886188507 1.219686508178711
-0.1442485749721527 -0.16055798530578613 1.237668752670288
-0.1983216106891632 -0.0018254220485687256 0.8410074710845947
-0.11569495499134064 -0.13310739398002625 1.2711377143859863
-0.14723411202430725 -0.08466381579637527 1.0702576637268066
-0.07622144371271133 -0.03731577470898628 1.5409036874771118
-0.13327592611312866 -0.13606494665145874 1.182560920715332
-0.14143173396587372 -0.11650307476520538 1.136350154876709
-0.05701093375682831 -0.0127668222412467 1.4551905393600464
-0.0476875901222229 -0.009727166965603828 1.4239084720611572
-0.13863325119018555 -0.15140941739082336 1.019336462020874
-0.10420423001050949 -0.170908123254776 0.9802525043487549
-0.11321857571601868 -0.044570013880729675 0.7523717284202576
0.009199824184179306 0.09299807250499725 1.3398964405059814
-0.012638982385396957 -0.02269764244556427 1.6309748888015747
-0.064268097281456 -0.030318688601255417 0.005403582006692886
-0.07845553755760193 -0.015880608931183815 -0.009742327965795994
-0.08209589868783951 0.02375323884189129 0.8543440699577332
-0.004719581454992294 0.09483195841312408 0.856550931930542
-0.0568825900554657 -0.025839269161224365 0.8303481340408325
0.05823301151394844 0.00510149821639061 1.3691905736923218
-0.017223356291651726 -0.0951242744922638 0.7553410530090332
-0.020316334441304207 -0.2448025494813919 1.5414113998413086
-0.009772889316082 0.01569419354200363 0.8728063106536865
-0.0060404036194086075 -0.0259687677025795 0.8484513163566589
0.0029824802186340094 -0.11659539490938187 0.8496319651603699
-0.07822363823652267 -0.16539470851421356 0.8560861349105835
-0.006077468395233154 -0.2256169617176056 0.8489893674850464
0.009481005370616913 -0.10920445621013641 0.8129338622093201
-0.008929030038416386 -0.16059894859790802 0.8605629205703735
0.02918444573879242 -0.0956328958272934 1.4652985334396362
0.010352923534810543 -0.03600464016199112 0.8364599943161011
0.009939199313521385 -0.04876897484064102 0.8089402914047241
0.05035334452986717 -0.0950755774974823 1.538801908493042
0.05194360762834549 -0.0850081741809845 1.5180236101150513
0.021104510873556137 -0.12344925105571747 0.8311605453491211
0.11889944970607758 0.056395743042230606 0.8288173675537109
0.037384867668151855 -0.09292349219322205 0.20916227996349335
0.027950216084718704 -0.03472553938627243 0.7904831171035767
0.1120101734995842 0.061960846185684204 1.2741155624389648
0.07141952216625214 -0.11640150099992752 0.33651837706565857
0.06694871187210083 -0.10399705171585083 0.2727597951889038
0.08265271782875061 -0.12440080940723419 0.2897401452064514
0.07314503192901611 -0.16928228735923767 0.2392270565032959
0.12962546944618225 -0.04411833733320236 1.491724967956543
0.0636555403470993 -0.016622522845864296 0.8263177275657654
0.08434458076953888 -0.03641984611749649 0.7967872619628906
0.0753955990076065 -0.15240126848220825 1.2212536334991455
0.10256052017211914 -0.12555555999279022 0.3865768611431122
0.12458756566047668 -0.0825715959072113 1.579172134399414
0.07136426866054535 -0.13787153363227844 1.2752339839935303
0.11343421041965485 -0.12721246480941772 0.2893102169036865
0.13934096693992615 0.11400510370731354 1.2851639986038208
0.08324199914932251 -0.11968521773815155 1.2035222053527832
0.12046322226524353 -0.07276883721351624 0.14779390394687653
0.17393019795417786 0.12261365354061127 1.213262915611267
0.10637383162975311 -0.05677725747227669 0.18953454494476318
0.11409517377614975 -0.1779954433441162 0.21081823110580444
0.16197648644447327 0.0005859218072146177 1.3560426235198975
0.11242251843214035 -0.16996172070503235 1.4114468097686768
0.11529523134231567 -0.16595372557640076 1.3831865787506104
0.11304710805416107 -0.16738779842853546 1.4124021530151367
0.1262783259153366 -0.1392439305782318 1.3601958751678467
0.06004725396633148 -0.2812262177467346 1.1800168752670288
0.04279816150665283 -0.2903221845626831 1.175211787223816
0.17777156829833984 0.03671696409583092 1.281997799873352
0.197798952460289 0.0744653195142746 1.238478183746338
0.18972176313400269 0.07654055953025818 1.2093793153762817
0.08569797873497009 -0.2095600962638855 1.2174835205078125
0.06975173205137253 -0.24222181737422943 1.2337183952331543
0.14914998412132263 -0.18260210752487183 0.8426200747489929
0.07927051931619644 -0.25889432430267334 1.2415175437927246
0.06965361535549164 -0.2928866744041443 1.140445590019226
0.07299003005027771 -0.23536443710327148 1.1158411502838135
0.06612725555896759 -0.27583202719688416 1.108128547668457
0.1353507786989212 -0.3040930926799774 1.136240005493164
0.12916943430900574 -0.2879846692085266 1.0039830207824707
0.12023358047008514 -0.3330754041671753 1.0603106021881104
-0.15252971649169922 -0.25142696499824524 1.1023236513137817
-0.14015866816043854 -0.20098376274108887 1.1665395498275757
-0.14738893508911133 -0.19453972578048706 1.1876100301742554
-0.14007022976875305 -0.24019810557365417 1.10992431640625
-0.07106927037239075 -0.01594642363488674 1.4820494651794434
-0.07783252000808716 -0.024652257561683655 1.465101957321167
-0.07936382293701172 8.138269186019897e-05 1.4332902431488037
-0.09227379411458969 -0.1363069862127304 1.6531862020492554
-0.10354537516832352 -0.15888077020645142 1.5694290399551392
-0.13709017634391785 -0.09559972584247589 0.28620433807373047
-0.12321881949901581 -0.07624263316392899 0.8277004957199097
-0.11983472108840942 -0.10353712737560272 0.8090892434120178
-0.05840713530778885 0.13727113604545593 1.1180670261383057
-0.09487378597259521 -0.18346987664699554 1.2192537784576416
-0.10671661049127579 -0.03989328444004059 0.803575873374939
-0.045644424855709076 -0.15667828917503357 1.6910924911499023
-0.10589265078306198 -0.1529569923877716 1.1132571697235107
-0.07461068779230118 -0.20990432798862457 1.0933899879455566
-0.0065422337502241135 0.09952130913734436 1.2007324695587158
0.060865357518196106 0.09339430928230286 1.192947506904602
-0.06460373103618622 -0.06581075489521027 1.1583912372589111
-0.04505050927400589 -0.11754773557186127 0.8456600308418274
-0.06468700617551804 -0.20437303185462952 1.0345728397369385
-0.05100170895457268 -0.0019326526671648026 1.0669128894805908
-0.0048902444541454315 -0.24353757500648499 1.6315518617630005
0.0009183585643768311 -0.10168678313493729 0.7416921854019165
0.007529022172093391 0.021464064717292786 1.3479260206222534
0.053403276950120926 -0.19067330658435822 -0.027163125574588776
0.1580996811389923 0.14718101918697357 1.166191577911377
0.1227903813123703 0.09094034135341644 1.2059048414230347
0.11323549598455429 0.16024713218212128 1.183213710784912
0.0907086655497551 0.0859978124499321 0.8457514643669128
0.12157910317182541 -0.07726506143808365 -0.018097257241606712
