0.3977881371974945 -0.01050546020269394 1.6206302642822266
0.39717018604278564 0.022478261962532997 1.5575311183929443
0.37824440002441406 0.018366098403930664 1.78087317943573
0.4920737147331238 -0.002839520573616028 1.719847559928894
0.3917519450187683 0.008332300931215286 1.7853314876556396
0.44274425506591797 0.0016222521662712097 1.775469422340393
0.4171628952026367 0.020378589630126953 1.73542320728302
0.4468874931335449 0.017854217439889908 1.7733943462371826
0.4854140877723694 0.01737459935247898 1.7288066148757935
0.48508578538894653 0.019097506999969482 1.7011419534683228
0.4411712884902954 -0.001975078135728836 1.708508014678955
0.4522680342197418 0.006442707031965256 1.750967025756836
0.48854967951774597 0.007181957364082336 1.6979327201843262
0.5245562195777893 0.033822931349277496 1.6567509174346924
0.5264047384262085 0.019330697134137154 1.656508445739746
0.5411868095397949 0.026226330548524857 1.6133531332015991
0.5636516213417053 0.009216457605361938 1.6142218112945557
0.5827546715736389 0.030169712379574776 1.641074538230896
0.5792255401611328 0.02009594440460205 1.6422393321990967
0.5935957431793213 0.025337498635053635 1.5924197435379028
0.5689854025840759 0.023509925231337547 1.6150816679000854
0.5998629331588745 0.027447624132037163 1.5510883331298828
0.608208417892456 0.010772129520773888 1.5471532344818115
0.645835280418396 0.0298514012247324 1.5167055130004883
0.6455802917480469 0.027253150939941406 1.4740233421325684
0.6254198551177979 0.009274058043956757 1.479396939277649
0.6478809714317322 0.02422674000263214 1.4373698234558105
0.59352707862854 0.01158260926604271 1.5889230966567993
0.6379773020744324 0.023143619298934937 1.570663571357727
0.6404933929443359 0.011809460818767548 1.5274255275726318
0.6286866664886475 0.007507838308811188 1.5703924894332886
0.7250877618789673 0.02112208493053913 1.436989426612854
0.6759885549545288 0.005008909851312637 1.473139762878418
0.6893775463104248 0.01482895016670227 1.4404655694961548
0.6836786866188049 0.011869433335959911 1.5034208297729492
0.6783189177513123 0.005090939812362194 1.4410431385040283
0.6955015063285828 0.016681617125868797 1.4144859313964844
0.6912637948989868 -0.0030455314554274082 1.4144697189331055
0.7354844808578491 0.022192470729351044 1.4546395540237427
0.7251774668693542 0.004089390859007835 1.4423824548721313
0.7246798872947693 0.003334540408104658 1.4605536460876465
0.7320937514305115 0.013617919757962227 1.3858345746994019
0.785214900970459 0.02004062570631504 1.3563002347946167
0.7396501302719116 0.027833471074700356 1.3671830892562866
0.785340428352356 0.029091758653521538 1.3362030982971191
0.7770230770111084 0.0063563804142177105 1.334151029586792
0.8427141904830933 0.018762901425361633 1.1429919004440308
0.8273912072181702 -0.01049676351249218 1.1668040752410889
0.8502228260040283 -0.012197013944387436 1.118246078491211
0.8554973602294922 0.006962132640182972 1.1466059684753418
0.8168308138847351 -0.03844286873936653 1.1273380517959595
0.8781821131706238 -0.03727118298411369 1.0836050510406494
0.8686428666114807 -0.0494607649743557 1.09181809425354
-0.6748033761978149 0.11533357203006744 0.9174759984016418
-0.6534934043884277 0.1106337383389473 0.8855822086334229
-0.6632283926010132 0.09568097442388535 0.8535093665122986
-0.6461772918701172 0.09291481971740723 0.8905743360519409
-0.6338889598846436 0.11184205114841461 0.8203551173210144
-0.6189398169517517 0.09142029285430908 0.8130613565444946
-0.6777671575546265 0.16973267495632172 0.9781798124313354
-0.6495848298072815 0.11106660962104797 1.0117850303649902
-0.6469584703445435 0.11766548454761505 0.9573349952697754
-0.6381295919418335 0.11616141349077225 0.9530719518661499
-0.6219594478607178 0.1098158061504364 0.8869914412498474
-0.6120065450668335 0.07499292492866516 0.8586098551750183
-0.6252264380455017 0.0737890750169754 0.8255804181098938
-0.6007556915283203 0.08849598467350006 0.7296079397201538
-0.6059070825576782 0.06824639439582825 0.7503886222839355
-0.5749270915985107 0.0452350415289402 0.7151702046394348
-0.6003221869468689 0.07466979324817657 0.9133000373840332
-0.6062520146369934 0.09481687843799591 0.8502460718154907
-0.5837336778640747 0.10146862268447876 0.7229931354522705
-0.5994473695755005 0.0859546810388565 0.840164303779602
-0.5993641018867493 0.0961301177740097 0.8685303330421448
-0.601798415184021 0.06970630586147308 0.8216280341148376
-0.5845323801040649 0.043900806456804276 0.8198976516723633
-0.5943425297737122 0.12033844739198685 1.1316851377487183
-0.5447372198104858 -0.0105239637196064 0.6860934495925903
-0.5266656875610352 -0.008631639182567596 0.6072494387626648
-0.5885828137397766 0.0855012834072113 1.239060401916504
-0.6164466738700867 0.10060995072126389 1.1626540422439575
-0.5846461057662964 0.10946571826934814 1.1055527925491333
-0.6136152148246765 0.09371234476566315 1.259948492050171
-0.6181228160858154 0.14913660287857056 1.2081987857818604
-0.5564846992492676 0.0064722150564193726 0.8875742554664612
-0.6003144979476929 0.138657346367836 1.4006069898605347
-0.5563242435455322 0.1216307133436203 1.3374803066253662
-0.4875001907348633 0.09120037406682968 0.7339345216751099
-0.48812225461006165 0.10046723484992981 0.6519908905029297
-0.5203274488449097 0.09802146255970001 0.8726123571395874
-0.46301740407943726 0.08292903006076813 0.6403535008430481
-0.510977566242218 0.06875461339950562 1.0348907709121704
-0.5326818227767944 0.053756777197122574 0.977865993976593
-0.5054793357849121 0.08755660057067871 0.9342382550239563
-0.47757822275161743 0.08575518429279327 0.9803158044815063
-0.47852349281311035 0.10688341408967972 0.9793331623077393
-0.48871833086013794 0.07300465553998947 1.0553550720214844
-0.5222113728523254 0.07355260103940964 1.4592125415802002
-0.55230313539505 0.11934863030910492 1.4885954856872559
-0.44877558946609497 0.1044619083404541 1.0701820850372314
-0.4931187331676483 0.10573604702949524 1.2374050617218018
-0.5129279494285583 0.08172097057104111 1.2226060628890991
-0.47314220666885376 0.06462296843528748 1.5649285316467285
-0.4871107041835785 0.07516951858997345 1.4385448694229126
-0.5055352449417114 0.10264350473880768 1.5461666584014893
-0.4413526952266693 0.08290179818868637 1.1559010744094849
-0.4403994679450989 0.11596313118934631 1.177405595779419
-0.43927115201950073 0.0925484150648117 1.1242852210998535
-0.4267459213733673 0.09981442987918854 1.1129860877990723
-0.4412666857242584 0.10497859865427017 1.3714860677719116
-0.41510090231895447 0.10762868821620941 1.3028955459594727
-0.3550422787666321 0.0584823302924633 1.4849010705947876
-0.3324882984161377 0.10209474712610245 1.1012656688690186
-0.41769447922706604 0.08776795864105225 1.576420783996582
-0.270185261964798 0.040491487830877304 1.464282751083374
-0.315796434879303 0.08422063291072845 1.4567418098449707
-0.2563258409500122 0.04814140871167183 1.386999249458313
-0.24688498675823212 0.08183407783508301 1.3821556568145752
-0.23153924942016602 0.08215675503015518 1.2874255180358887
-0.20426806807518005 0.07262183725833893 1.2438511848449707
0.2358001172542572 0.0361933559179306 1.2253220081329346
0.2138744592666626 0.009717294946312904 1.236539363861084
0.25780177116394043 0.02136453613638878 1.1881098747253418
0.26541078090667725 0.02825956791639328 1.3730934858322144
0.23136237263679504 -0.002682803198695183 1.2917357683181763
0.23968559503555298 0.03134072571992874 1.3041198253631592
0.30880165100097656 0.026837753131985664 1.252380132675171
0.32520949840545654 -0.0004840455949306488 1.2499849796295166
0.32941922545433044 0.03509742394089699 1.157469630241394
0.34912118315696716 0.03072536736726761 1.1315785646438599
0.32861456274986267 0.021663112565875053 1.16037118434906
0.348988801240921 0.019127702340483665 1.140280842781067
0.38318106532096863 0.034353699535131454 1.1480157375335693
0.3166406452655792 0.021187860518693924 1.5442866086959839
0.32402366399765015 -0.01114831492304802 1.5022169351577759
0.42723795771598816 0.032894816249608994 1.1297541856765747
0.41417378187179565 0.007179316133260727 1.1399550437927246
0.37785500288009644 0.022459762170910835 1.1503427028656006
0.4235566258430481 0.025745650753378868 1.1283217668533325
0.4643154442310333 0.02424529381096363 1.0932092666625977
0.35959357023239136 -0.005431842058897018 1.406153678894043
0.48664426803588867 0.02399221435189247 1.2335528135299683
0.43719345331192017 -0.0075857918709516525 1.1636276245117188
0.43452391028404236 0.015578536316752434 1.1807399988174438
0.454098105430603 0.028693249449133873 1.3733468055725098
0.47557541728019714 -0.0031482651829719543 1.2210900783538818
0.5269409418106079 0.024062318727374077 1.1514208316802979
0.5033574104309082 0.03079361841082573 1.1975162029266357
0.5132144093513489 0.010247425176203251 1.1716262102127075
0.5167950391769409 -0.020019013434648514 1.1950688362121582
0.4713546633720398 0.015467645600438118 1.4282851219177246
0.5043424367904663 0.018787141889333725 1.3081536293029785
0.48902416229248047 -0.013904578983783722 1.3271714448928833
0.4624294638633728 -0.020386360585689545 1.5664026737213135
0.5501645803451538 0.006215761415660381 1.1934735774993896
0.48613548278808594 0.015775952488183975 1.5423855781555176
0.5097472667694092 0.01379390899091959 1.4840625524520874
0.5151686668395996 -0.018723569810390472 1.5350240468978882
0.6606982946395874 -0.017023731023073196 1.0094964504241943
0.556206464767456 -0.02604880928993225 1.4628205299377441
0.593805193901062 -0.02030525915324688 1.4267911911010742
0.5792257189750671 0.012516056187450886 1.3673861026763916
0.602662980556488 -0.029441125690937042 1.2792320251464844
0.6052106618881226 0.009637792594730854 1.2729825973510742
0.5991497039794922 0.015176473185420036 1.3891819715499878
0.6229612827301025 0.009986720979213715 1.32758629322052
0.6574885845184326 -0.005448369774967432 1.2639222145080566
0.6304745078086853 0.01737917959690094 1.4180054664611816
0.6481659412384033 -0.005127419717609882 1.3904536962509155
0.7461756467819214 -0.12111933529376984 0.8704549670219421
0.7855515480041504 -0.11832153052091599 0.7339451909065247
0.8189406394958496 -0.05359454080462456 0.7214529514312744
0.780709981918335 -0.07525485008955002 0.7571208477020264
0.7344868183135986 -0.04841209203004837 1.077692985534668
0.7403101921081543 -0.048592161387205124 1.034677267074585
0.7021533250808716 0.009077263996005058 1.2664486169815063
0.8312784433364868 0.00018515251576900482 0.7654962539672852
0.8036407828330994 -0.006759999319911003 0.837914764881134
0.8229901194572449 -0.03115043044090271 1.035911202430725
0.8576692938804626 -0.03455844521522522 0.943529486656189
0.8094824552536011 -0.0470813624560833 0.9427951574325562
0.8497210741043091 -0.07221011817455292 0.9554843902587891
-0.6612241268157959 0.09139713644981384 0.799335241317749
-0.6582462191581726 0.07355187088251114 0.8083646297454834
-0.6787527799606323 0.15015284717082977 1.1639562845230103
-0.6728962659835815 0.16941824555397034 1.1668496131896973
-0.6627057194709778 0.15230140089988708 1.1173827648162842
-0.6320472359657288 0.12655697762966156 1.00994074344635
-0.6052893400192261 0.11884757876396179 1.0575129985809326
-0.6355656981468201 0.08882425725460052 0.9691290855407715
-0.5944855213165283 0.1075054258108139 0.9785633683204651
-0.6103896498680115 0.0873131975531578 1.1064962148666382
-0.6287697553634644 0.10977253317832947 1.270993709564209
-0.6199637651443481 0.11952334642410278 1.2364681959152222
-0.5049489736557007 0.09421771764755249 0.7784802317619324
-0.5660988092422485 0.11227955669164658 0.7411290407180786
-0.5215185284614563 0.1003066897392273 0.6684169769287109
-0.5905215740203857 0.13115602731704712 1.2664819955825806
-0.6248682737350464 0.11222091317176819 1.314021110534668
-0.5535380244255066 0.04276425391435623 0.8576664924621582
-0.5405474305152893 0.02713092416524887 0.8329120874404907
-0.5271776914596558 0.028767425566911697 0.682347297668457
-0.5148572325706482 0.015309028327465057 0.6273123621940613
-0.5411037802696228 0.10578526556491852 0.9680278301239014
-0.6294329762458801 0.11764398217201233 1.4189367294311523
-0.5501862168312073 0.10338245332241058 1.0114355087280273
-0.5238770842552185 0.10813392698764801 0.9451817870140076
-0.5630536079406738 0.06702166795730591 1.0417917966842651
-0.5641653537750244 0.0595383495092392 1.0213438272476196
-0.5189550518989563 0.10472866147756577 1.0207901000976562
-0.5591796040534973 0.07763002812862396 1.1280360221862793
-0.5101325511932373 0.08768326044082642 0.8949346542358398
-0.49222463369369507 0.08386059105396271 0.8359872102737427
-0.564916729927063 0.12109710276126862 1.1996686458587646
-0.5240929126739502 0.10688470304012299 1.137458324432373
-0.529995322227478 0.07843631505966187 1.1057071685791016
-0.5670393705368042 0.09363071620464325 1.4740545749664307
-0.570405125617981 0.0798153355717659 1.2811784744262695
-0.4996948838233948 0.07693672180175781 1.1786155700683594
-0.5378579497337341 0.07303248345851898 1.5368609428405762
-0.4882218837738037 0.10717039555311203 1.4270732402801514
-0.5149388313293457 0.07780683040618896 1.3125263452529907
-0.4475131928920746 0.10337039828300476 1.1098301410675049
-0.4661977291107178 0.07391984760761261 1.1236684322357178
-0.49132856726646423 0.11486053466796875 1.3153151273727417
-0.4657963812351227 0.10878947377204895 1.2447681427001953
-0.4056439995765686 0.09697532653808594 1.4880317449569702
-0.42522403597831726 0.07700813561677933 1.3011161088943481
-0.3858111500740051 0.07053804397583008 1.212294340133667
-0.3652709126472473 0.09783453494310379 1.2092164754867554
-0.3700481057167053 0.09580931067466736 1.145026683807373
-0.33065706491470337 0.06704026460647583 1.2482669353485107
-0.3359001874923706 0.10532203316688538 1.1489942073822021
-0.39147698879241943 0.10190364718437195 1.3985307216644287
-0.3434005677700043 0.068363256752491 1.3590686321258545
-0.2826076149940491 0.09087233990430832 1.1390122175216675
-0.2554187476634979 0.08584979176521301 1.1651304960250854
-0.22835233807563782 0.06700651347637177 1.4602431058883667
-0.24331191182136536 0.051779862493276596 1.2907086610794067
0.29659557342529297 0.007712103426456451 1.1692556142807007
0.21109184622764587 0.018663112074136734 1.4608205556869507
0.3545946478843689 0.03837723284959793 1.2161834239959717
0.3566163182258606 0.008524902164936066 1.2069534063339233
0.3527267277240753 0.04026397317647934 1.1450159549713135
0.3952363133430481 0.02558387815952301 1.3335750102996826
0.41402214765548706 -0.007833978161215782 1.2547489404678345
0.4720909595489502 0.03018072247505188 1.1014240980148315
0.4316108524799347 0.020348776131868362 1.4979236125946045
0.5116012096405029 -0.015489833429455757 1.2240965366363525
0.5418761372566223 0.006859319284558296 1.4464863538742065
0.6855157017707825 -0.01826995424926281 0.9216449856758118
0.7058111429214478 -0.013555595651268959 0.9073639512062073
0.7256341576576233 -0.012409251183271408 0.7957558035850525
0.7385950088500977 -0.010120490565896034 0.7158412933349609
0.7342284321784973 -0.028431808575987816 0.7304774522781372
0.6503738760948181 -0.0006346674636006355 1.1989079713821411
0.7378233075141907 0.004287739749997854 0.7963392734527588
0.7543776035308838 0.00379836093634367 0.7247762084007263
0.6908667087554932 -0.07474640011787415 0.985383152961731
0.686255931854248 -0.08960932493209839 1.02899169921875
0.6800490617752075 -0.10282091796398163 1.0017743110656738
0.7112792730331421 -0.07912299036979675 0.9337895512580872
0.7651599645614624 0.005642382428050041 0.8253762125968933
0.784419596195221 0.0004758555442094803 0.7414646148681641
0.7326019406318665 -0.021257439628243446 0.9940582513809204
0.7089023590087891 -0.07139306515455246 0.9776846170425415
0.7498028874397278 -0.08106909692287445 0.924186110496521
0.7120956778526306 -0.09277316927909851 0.9881362318992615
0.7417615056037903 -0.1144021674990654 0.9196768403053284
0.702559232711792 -0.0644434466958046 1.0517617464065552
0.7544748783111572 -0.06395779550075531 1.0010926723480225
0.7972238063812256 -0.07321345806121826 0.7716457843780518
0.7965764403343201 -0.1036406010389328 0.7079998254776001
0.8188074827194214 -0.029256457462906837 0.7162359952926636
0.7342909574508667 -0.019692786037921906 1.0755218267440796
0.7783184051513672 -0.02822624333202839 0.8634263277053833
0.7879979014396667 -0.10446831583976746 0.8358544111251831
0.8029311895370483 -0.08706207573413849 0.8251720666885376
0.8295444250106812 -0.06396989524364471 0.7452211380004883
0.8017473816871643 -0.02643425203859806 1.0118837356567383
0.8233926892280579 -0.020114276558160782 0.987669825553894
0.8517175316810608 -0.05119452252984047 0.8136729598045349
0.8435655236244202 -0.052858855575323105 0.8318518996238708
0.7220258712768555 -0.012444613501429558 1.1773078441619873
0.8146086931228638 0.012068923562765121 1.134609580039978
0.7823253273963928 -0.009915965609252453 1.1323925256729126
0.7461802959442139 0.01181921735405922 1.3209326267242432
0.7516130208969116 0.004219052381813526 1.2769771814346313
0.7487943172454834 0.009288189001381397 1.2699912786483765
0.7558053731918335 -0.010254871100187302 1.252953290939331
0.7932784557342529 0.0048395562916994095 1.1928541660308838
0.7849761247634888 -0.007944436743855476 1.2122758626937866
-0.6720421314239502 0.1364009827375412 0.9704347848892212
-0.6729669570922852 0.11372149735689163 0.9787641167640686
-0.666285514831543 0.09565579891204834 0.9475310444831848
-0.5331844091415405 0.05233209207653999 0.6546525955200195
-0.5430935025215149 0.012717228382825851 0.6130992770195007
-0.5437402725219727 0.036776769906282425 0.8356289863586426
-0.5622619390487671 0.028926264494657516 0.7867069244384766
-0.5596691966056824 -0.007603660225868225 0.8173770308494568
-0.568748414516449 0.008511282503604889 0.7178577184677124
-0.5325192213058472 0.032623790204524994 0.7267208099365234
-0.5283230543136597 -0.0021699070930480957 0.6867369413375854
-0.5610454678535461 0.04372333735227585 0.9683959484100342
-0.5490446090698242 0.021207988262176514 0.9212621450424194
-0.5658767819404602 0.04320719465613365 0.9270832538604736
-0.5371122360229492 -0.0015309080481529236 0.7570889592170715
-0.5300742983818054 0.02699313685297966 0.7597216367721558
-0.5451010465621948 0.003924176096916199 0.8502894639968872
-0.5376572608947754 0.028610173612833023 0.8063048124313354
-0.5549275279045105 0.11447113752365112 1.1111080646514893
-0.4984703063964844 0.10522398352622986 0.9568831324577332
-0.4611388146877289 0.08584333956241608 0.9817025661468506
-0.4532492160797119 0.10666275024414062 0.9849773645401001
-0.498793363571167 0.06929738819599152 1.1280906200408936
-0.45148608088493347 0.09094560146331787 1.0643796920776367
-0.44928181171417236 0.10736209154129028 1.0156688690185547
-0.4484882950782776 0.09038436412811279 1.0034502744674683
-0.39732566475868225 0.0682651475071907 1.3636683225631714
-0.4021124541759491 0.1086292713880539 1.0907613039016724
-0.37215161323547363 0.07001857459545135 1.1277092695236206
-0.36263713240623474 0.10748550295829773 1.0872478485107422
-0.2875658869743347 0.07974210381507874 1.1282100677490234
-0.3142051696777344 0.09781927615404129 1.099788784980774
-0.23558855056762695 0.07429859787225723 1.193005084991455
0.5626260638237 0.015240045264363289 1.1075738668441772
0.5101629495620728 -0.00656532496213913 1.6178220510482788
0.6475984454154968 0.0029532411135733128 1.0838743448257446
0.5921616554260254 0.022596025839447975 1.0568692684173584
0.620842456817627 -0.013409743085503578 1.0575358867645264
0.6308934092521667 0.007162989117205143 1.0471997261047363
0.5872562527656555 0.0065784938633441925 1.2552464008331299
0.6427149772644043 -0.046187687665224075 1.0887644290924072
0.6693328022956848 -0.05395141988992691 1.0347254276275635
0.658829927444458 -0.07977071404457092 1.0541331768035889
0.663988471031189 -0.08032093942165375 1.0245643854141235
0.6832497119903564 -0.0619959756731987 0.9720389246940613
0.7398618459701538 -0.05138153210282326 0.7727110385894775
0.7586122155189514 -0.045987971127033234 0.7246068120002747
0.7821129560470581 -0.034172654151916504 0.7163205146789551
0.686966598033905 -0.023106001317501068 1.0684248208999634
0.7053431868553162 -0.02091294527053833 1.0284837484359741
0.7058373689651489 -0.08183696866035461 1.0090663433074951
0.7041001915931702 -0.07964220643043518 0.9670236706733704
0.7049752473831177 -0.11554449051618576 0.9377126097679138
0.6168376803398132 -0.023980533704161644 1.3731107711791992
0.7614992260932922 -0.039880577474832535 1.0070066452026367
0.795306921005249 -0.03597619757056236 0.9634139537811279
0.7389281988143921 -0.04467732459306717 1.1341793537139893
0.8611094951629639 -0.07998865842819214 0.7987934350967407
0.8490641713142395 -0.03615829721093178 0.7601698040962219
0.795587956905365 -0.05295480042695999 0.9935684204101562
0.8065033555030823 -0.06402503699064255 0.9436426758766174
0.8509257435798645 -0.016151051968336105 1.1324495077133179
0.8195973634719849 -0.05184175819158554 1.091567039489746
0.837304949760437 -0.027578182518482208 1.084007978439331
0.874647855758667 -0.05633797496557236 0.9550014734268188
0.8595539927482605 -0.03301694244146347 0.9588329792022705
-0.6677573919296265 0.1398448646068573 1.1229866743087769
-0.5702173709869385 0.07300448417663574 0.6078798174858093
-0.5873172283172607 0.05361011251807213 0.9161264300346375
-0.5759220719337463 0.035121530294418335 0.8858782052993774
-0.6003799438476562 0.07742445170879364 0.9626732468605042
-0.5897813439369202 0.10269951075315475 1.4057207107543945
-0.5736093521118164 0.10993515700101852 0.9927161931991577
-0.561323881149292 0.09515400230884552 0.957309365272522
-0.5038594007492065 0.056955061852931976 0.6276988983154297
-0.4811326265335083 0.08718325942754745 0.6310162544250488
-0.5346813797950745 0.04630737751722336 0.92115318775177
-0.5359508395195007 0.03275739774107933 0.8751160502433777
-0.5325078964233398 0.02832561731338501 0.9144889712333679
-0.5754783153533936 0.08806680142879486 1.357550859451294
-0.5570244789123535 0.11804734915494919 1.243843674659729
-0.29546716809272766 0.1009739488363266 1.2082664966583252
0.17937496304512024 0.025416752323508263 1.2624350786209106
0.1698020100593567 0.003929885104298592 1.2706196308135986
0.30084219574928284 0.0011347625404596329 1.2139537334442139
0.30005893111228943 0.027182038873434067 1.1394881010055542
0.37877157330513 0.022175930440425873 1.2641754150390625
0.46198487281799316 0.017633376643061638 1.1485008001327515
0.46084436774253845 0.003596549853682518 1.1319289207458496
0.5353382229804993 -0.012625976465642452 1.2992998361587524
0.5572538375854492 -0.031670209020376205 1.3823412656784058
0.5970603227615356 -0.02021513320505619 1.2007442712783813
0.698756992816925 -0.10204388201236725 0.937967836856842
0.7268036007881165 -0.07686863094568253 0.8907345533370972
0.7361844778060913 -0.11288493871688843 0.8517124652862549
0.7483423948287964 -0.08037763833999634 0.7968872785568237
0.6957436203956604 -0.04408859461545944 1.1327720880508423
0.8075290322303772 -0.11212584376335144 0.7329732179641724
-0.6550672054290771 0.10197199136018753 0.9671916961669922
-0.49127739667892456 0.07179643213748932 0.7778496742248535
-0.4838099479675293 0.07067971676588058 0.7192085981369019
-0.5807933807373047 0.09883733093738556 1.5108745098114014
-0.3930617868900299 0.09975599497556686 1.076250433921814
-0.3832041323184967 0.1016910970211029 1.0451403856277466
-0.3597613275051117 0.08749625086784363 1.0776458978652954
-0.28926777839660645 0.09281156957149506 1.1088553667068481
-0.1762232482433319 0.05466161668300629 1.268319845199585
-0.1836843192577362 0.03763064742088318 1.2718932628631592
0.4574936628341675 -0.013750546611845493 1.42535400390625
0.4841209948062897 -0.020014211535453796 1.483564019203186
0.6829878091812134 -0.013240821659564972 1.0966235399246216
0.6793306469917297 -0.0034339523408561945 1.0204541683197021
0.6321884989738464 -0.038014791905879974 1.2026090621948242
0.7017171382904053 -0.05938669666647911 0.9118481874465942
0.7059144377708435 -0.036909136921167374 1.1808713674545288
0.683327317237854 -0.024158567190170288 1.264569878578186
0.788364827632904 -0.03632352501153946 1.1103315353393555
0.7932626008987427 -0.04781700670719147 1.0454919338226318
0.8336248993873596 -0.07071732729673386 0.885724663734436
0.8009660243988037 -0.08773612231016159 0.7888842821121216
0.8483876585960388 -0.05184178799390793 0.8761557340621948
-0.558438241481781 0.04556894674897194 0.6313127279281616
-0.5133690237998962 0.0772930383682251 0.6211872100830078
-0.5532951951026917 0.028441503643989563 0.8307695388793945
-0.5338230133056641 0.03454900532960892 0.6824655532836914
-0.4939628839492798 0.039121948182582855 0.6668329834938049
-0.5122991800308228 0.07828430831432343 0.9764389395713806
-0.3158838152885437 0.07017341256141663 1.2178317308425903
-0.31787145137786865 0.07490172982215881 1.160346269607544
-0.3266761302947998 0.09143707156181335 1.1351351737976074
-0.27059826254844666 0.06230643391609192 1.2077901363372803
-0.2637624442577362 0.061684831976890564 1.139520287513733
-0.26247352361679077 0.07548840343952179 1.1267015933990479
0.30276113748550415 0.03917790949344635 1.148809790611267
0.6166566014289856 -0.03407350927591324 1.1233834028244019
0.6593102216720581 -0.055644094944000244 1.1313987970352173
0.6769259572029114 -0.06357479840517044 1.085782527923584
0.8012028336524963 -0.07676827162504196 0.9264007806777954
-0.6020013093948364 0.07562819123268127 0.7056313157081604
-0.6015154123306274 0.049682676792144775 0.6730880737304688
-0.5976167321205139 0.06361311674118042 0.6709977388381958
-0.5700212121009827 0.09985785186290741 0.8869986534118652
-0.5263308882713318 0.043663498014211655 0.8436543941497803
-0.5238154530525208 0.0367005281150341 0.8903080821037292
-0.2204725742340088 0.05596661567687988 1.2288399934768677
-0.14975506067276 0.030638501048088074 1.3524080514907837
-0.13679702579975128 0.040913768112659454 1.3425636291503906
0.1719399243593216 -0.006250826641917229 1.2841516733169556
0.25733888149261475 -0.007632192224264145 1.6807307004928589
0.4381527900695801 0.01753774657845497 1.6331977844238281
0.4684004783630371 0.0003103874623775482 1.6534243822097778
0.526160717010498 -0.00016208738088607788 1.587221384048462
0.7009046077728271 0.0059444475919008255 1.3437964916229248
0.7266395688056946 0.002116783056408167 1.3816300630569458
0.7273664474487305 0.02663397043943405 1.3168673515319824
0.7387782335281372 0.003976309671998024 1.3032927513122559
0.7558355331420898 0.02199529856443405 1.316270351409912
-0.6766564846038818 0.13735735416412354 1.0630046129226685
-0.6743023991584778 0.15146303176879883 1.0385119915008545
-0.6626287698745728 0.15165454149246216 1.2879371643066406
-0.6414541602134705 0.15029123425483704 1.278364658355713
-0.5514718890190125 0.10109508037567139 0.6528033018112183
-0.5458812117576599 0.09283363819122314 0.6072171330451965
-0.5573714971542358 0.030898258090019226 0.7211912274360657
-0.5563019514083862 0.09591403603553772 0.8360223770141602
-0.5646916031837463 0.11580924689769745 1.0421355962753296
-0.5598870515823364 0.09462714195251465 1.5594884157180786
0.29999101161956787 0.03288761526346207 1.2104605436325073
0.3321278691291809 0.025342091917991638 1.4457539319992065
0.4934001564979553 0.011996589601039886 1.1670187711715698
0.4619722366333008 0.02673129364848137 1.2925915718078613
0.5524304509162903 0.00600748136639595 1.1071209907531738
0.5807926654815674 0.002707300242036581 1.0620850324630737
0.5669680237770081 -0.026846379041671753 1.1435136795043945
0.7041290998458862 -0.027594389393925667 0.871152400970459
0.7189201712608337 -0.045694075524806976 0.8595061302185059
0.7368080615997314 -0.09063366800546646 0.9337778091430664
0.7663167119026184 -0.01951581984758377 1.1066091060638428
0.8198679089546204 -0.020340925082564354 0.8905396461486816
-0.5754109025001526 0.0607079416513443 0.6416813135147095
-0.5422974228858948 0.06832554936408997 0.5965160727500916
-0.37451809644699097 0.10925249755382538 1.0470890998840332
-0.30112913250923157 0.10429291427135468 1.1299222707748413
-0.24800096452236176 0.06666545569896698 1.178890585899353
0.7857810258865356 -0.028146272525191307 0.9185768365859985
0.8390311598777771 -0.047395702451467514 0.691482663154602
0.852408230304718 -0.051420412957668304 0.7093071341514587
-0.563140869140625 0.03020264208316803 0.8654540181159973
-0.5086965560913086 0.05962270498275757 0.7973533868789673
-0.5087031126022339 0.04313690587878227 0.7519176006317139
0.5705994367599487 -0.005883600562810898 1.5056098699569702
0.8524655699729919 -0.02833395078778267 0.7009375691413879
0.8404251933097839 -0.04696634039282799 1.013061285018921
-0.29831308126449585 0.09247878938913345 1.2863646745681763
0.7983489036560059 -0.025080889463424683 1.1024713516235352
-0.5066280961036682 0.07078363001346588 0.8674566745758057
0.7675099968910217 -0.10273284465074539 0.7449629306793213
0.7946780323982239 -0.035310808569192886 1.0858546495437622
-0.568692684173584 0.015258021652698517 0.8272879123687744
-0.3584635853767395 -0.1130603551864624 0.9116575717926025
-0.36349889636039734 -0.10837320238351822 0.9254996180534363
-0.35044166445732117 -0.13595622777938843 0.9229671955108643
-0.3535791337490082 -0.1354363113641739 0.9338605403900146
-0.3350463807582855 -0.0924898236989975 0.9895389676094055
-0.3376823663711548 -0.10453637689352036 0.9678655862808228
-0.3268513083457947 -0.08030655235052109 0.9410495162010193
-0.32154327630996704 -0.06300609558820724 0.9791594743728638
-0.3272511065006256 -0.12147155404090881 0.9774441123008728
-0.33335334062576294 -0.1549692004919052 0.9642419815063477
-0.3136698305606842 -0.06105196848511696 1.0646791458129883
-0.30941128730773926 -0.15103685855865479 0.968225359916687
-0.32337045669555664 -0.110486701130867 0.9649549126625061
-0.30933550000190735 -0.13751950860023499 1.0122380256652832
-0.307588130235672 -0.10836349427700043 1.0002703666687012
-0.2968718111515045 -0.040946632623672485 1.0365874767303467
-0.2978544235229492 -0.09665966033935547 1.0040433406829834
-0.3060099482536316 -0.11325634270906448 1.0264087915420532
-0.3136160671710968 -0.09222152829170227 1.057325005531311
-0.3291874825954437 -0.0445481538772583 1.0956764221191406
-0.32281771302223206 -0.10293474048376083 1.0883170366287231
-0.28848427534103394 0.00018512317910790443 1.133234977722168
-0.2949565052986145 0.0046759843826293945 1.0845881700515747
-0.3228529691696167 -0.054797254502773285 1.1302341222763062
-0.25534290075302124 0.0034482786431908607 1.0803104639053345
-0.2716992497444153 -0.05140520632266998 1.1972661018371582
-0.2889745235443115 -0.10981399565935135 1.144190788269043
-0.2579500079154968 0.017176121473312378 1.125022292137146
-0.2203771471977234 0.005836976692080498 1.1454625129699707
-0.23354671895503998 0.0034897439181804657 1.203356146812439
-0.2061518132686615 0.003400251269340515 1.2105141878128052
-0.20949296653270721 -0.07001279294490814 1.2815091609954834
-0.24904924631118774 -0.08896490931510925 1.2038898468017578
-0.20285768806934357 0.0019259825348854065 1.258047103881836
-0.2305113524198532 -0.030290551483631134 1.259012222290039
-0.19374600052833557 -0.004147879779338837 1.299140214920044
-0.18230204284191132 -0.014074016362428665 1.3382560014724731
-0.173440083861351 -0.06492894887924194 1.346226453781128
-0.1944970041513443 -0.10554876178503036 1.2366571426391602
-0.1879609376192093 0.03838857263326645 1.760214924812317
-0.1496339589357376 0.09768538177013397 1.4178470373153687
-0.13670676946640015 0.06503745168447495 0.8632162809371948
-0.18179851770401 0.01597657799720764 0.8635308146476746
-0.15605103969573975 -0.0751265436410904 0.8737658262252808
-0.19854214787483215 -0.10604284703731537 0.8626903295516968
-0.17321734130382538 0.04648131504654884 1.661934494972229
-0.1909608095884323 0.016916293650865555 1.7830337285995483
-0.16146023571491241 0.02975624054670334 1.728446125984192
-0.14309050142765045 0.062400802969932556 1.6752777099609375
-0.15534009039402008 0.04565954580903053 1.627860426902771
-0.11884632706642151 0.0009297579526901245 1.047321081161499
-0.15689629316329956 -0.05324914678931236 1.007973551750183
-0.15992911159992218 -0.12299317121505737 0.997726559638977
-0.14611440896987915 0.022686921060085297 1.5552704334259033
-0.22244271636009216 -0.13029079139232635 0.04425303637981415
-0.2321329563856125 -0.19925011694431305 0.021281316876411438
-0.22985394299030304 -0.2240300476551056 0.04120682179927826
-0.14068031311035156 -0.05164380744099617 1.3995797634124756
-0.13442279398441315 -0.004213772714138031 1.349381685256958
-0.12458976358175278 -0.02839043363928795 1.329592227935791
-0.14943301677703857 -0.063926562666893 1.3850525617599487
-0.12933476269245148 -0.10331310331821442 1.3422117233276367
-0.18565450608730316 -0.08437594026327133 0.4710302948951721
-0.18196618556976318 -0.11631443351507187 0.3907538950443268
-0.19009599089622498 -0.07216999679803848 0.3213045597076416
-0.19348375499248505 -0.0931432843208313 0.3557204306125641
-0.1569238156080246 0.03867970034480095 1.697688102722168
-0.12565580010414124 -0.06869196146726608 1.2966545820236206
-0.1279057413339615 -0.07413233071565628 1.2527263164520264
-0.12772129476070404 -0.10880407691001892 1.2802791595458984
-0.1525464653968811 -0.12614578008651733 1.2782413959503174
-0.18216605484485626 -0.06291688233613968 0.2550859749317169
-0.140127494931221 -0.04924225062131882 1.5534683465957642
-0.13858714699745178 0.027146946638822556 1.5553650856018066
-0.14109563827514648 -0.0028287842869758606 1.550766110420227
-0.15703421831130981 -0.11140835285186768 0.5712502002716064
-0.10154981911182404 0.02599932998418808 1.7954955101013184
-0.11352109909057617 -0.12193579971790314 1.2201988697052002
-0.11179552972316742 -0.039099544286727905 1.1719598770141602
-0.11981718242168427 -0.1384674310684204 0.7526159286499023
-0.11374036222696304 0.07912025600671768 1.7368710041046143
-0.11621583998203278 -0.08668895065784454 1.4139325618743896
-0.10184387862682343 -0.11785034835338593 0.8516552448272705
-0.14207881689071655 -0.13163834810256958 0.8742234706878662
-0.1244976669549942 -0.20449835062026978 0.9179065227508545
-0.10728253424167633 -0.21929538249969482 0.854022741317749
-0.20355439186096191 -0.2541685402393341 0.07240044325590134
-0.07154012471437454 0.10720670223236084 1.7355742454528809
-0.09578877687454224 0.03725588321685791 1.7815966606140137
-0.144070565700531 -0.02689119055867195 1.458829641342163
-0.12054894864559174 -0.05358988791704178 1.512296438217163
-0.14923731982707977 -0.04560675472021103 0.32181960344314575
-0.17420421540737152 -0.0691782534122467 0.2101319432258606
-0.19676558673381805 -0.24457049369812012 0.11102963984012604
-0.17731061577796936 -0.05336586758494377 0.050482988357543945
-0.10038121044635773 -0.02495419792830944 1.331671953201294
-0.13600409030914307 -0.14037689566612244 0.5466617941856384
-0.15892428159713745 -0.2192109227180481 0.011288615874946117
-0.20092937350273132 -0.22669604420661926 0.0017127110622823238
-0.09831900149583817 0.02597249671816826 1.5723505020141602
-0.09549252688884735 -0.009660597890615463 1.5283987522125244
-0.02834642492234707 -0.22025278210639954 0.9126173257827759
-0.08669205754995346 0.08820880949497223 0.8624513149261475
-0.17509740591049194 -0.17507508397102356 0.2661202549934387
-0.14819633960723877 -0.16952235996723175 0.18765439093112946
-0.15781795978546143 -0.062325507402420044 0.10161011666059494
-0.08584731817245483 -0.017817994579672813 1.2999681234359741
-0.09442184120416641 -0.03502734377980232 1.257035255432129
-0.05838564783334732 -0.14347712695598602 1.3246417045593262
-0.11834017932415009 -0.05906089395284653 0.6609405279159546
-0.1001591682434082 -0.14186519384384155 0.7427185773849487
-0.06784405559301376 -0.11859802901744843 0.815449059009552
-0.13955393433570862 -0.17272339761257172 0.15555235743522644
-0.15068724751472473 -0.240970641374588 0.08387003093957901
-0.11053277552127838 -0.10491281747817993 1.507304310798645
-0.08298463374376297 -0.01226288266479969 1.368565320968628
-0.05547410994768143 -0.012246217578649521 1.3019942045211792
-0.10575397312641144 -0.14290551841259003 0.5706907510757446
-0.08029567450284958 -0.1220843568444252 0.5728902220726013
-0.12237397581338882 -0.0320921428501606 0.5049605369567871
-0.08004196733236313 -0.0940302386879921 1.4757415056228638
-0.05978848412632942 -0.04530078172683716 1.451192021369934
-0.09214427322149277 -0.0027454234659671783 1.411677360534668
-0.09010814130306244 -0.06625746935606003 0.5141245722770691
-0.05353974178433418 0.0582437664270401 1.7819805145263672
-0.09975282847881317 -0.14197933673858643 1.6498613357543945
-0.027212511748075485 -0.19010168313980103 1.0000473260879517
-0.05987309291958809 -0.057752836495637894 1.4675884246826172
-0.03851272910833359 -0.08693339675664902 1.4516568183898926
-0.058704923838377 -0.07124334573745728 1.443786859512329
-0.04357394576072693 -0.13552874326705933 1.5778077840805054
-0.08695092797279358 -0.1386425793170929 1.5214884281158447
-0.03724134713411331 -0.025543712079524994 1.4784208536148071
-0.07404958456754684 -0.07979822158813477 0.6381982564926147
-0.0017211176455020905 0.013668455183506012 1.8075205087661743
-0.03070158138871193 0.11957699805498123 1.7038817405700684
-0.029662903398275375 -0.15476813912391663 1.529808521270752
-0.04575834795832634 -0.13796548545360565 1.4781203269958496
-0.021644530817866325 -0.03092709183692932 1.4523813724517822
-0.018545642495155334 -0.1344873458147049 1.476393699645996
0.009758910164237022 -0.006713513284921646 1.426694631576538
-0.017017552629113197 -0.019474484026432037 1.2968206405639648
-0.0013254806399345398 0.06990569084882736 1.778315544128418
0.005037304013967514 -0.036506135016679764 1.4850624799728394
0.0005790777504444122 -0.08403199166059494 1.468701720237732
0.02602430060505867 0.09245587885379791 1.7329438924789429
0.013946497812867165 0.026034682989120483 1.786380410194397
0.0034259064123034477 -0.07716315984725952 1.4484479427337646
0.03768337517976761 -0.10105085372924805 1.4968814849853516
0.009052768349647522 -0.05278034135699272 1.4591281414031982
0.060347191989421844 -0.0789821669459343 0.5912319421768188
0.03428669646382332 0.0017148032784461975 1.5112718343734741
0.09166112542152405 -0.09004464745521545 0.5093264579772949
0.023594755679368973 -0.17949609458446503 1.2753734588623047
0.06636258959770203 -0.040977854281663895 1.2752571105957031
0.06650476157665253 -0.06058792769908905 1.1562457084655762
0.12148866802453995 -0.04630662500858307 0.09867926687002182
0.1462453156709671 -0.03940965235233307 0.0850021243095398
0.11480558663606644 0.07388805598020554 0.10066379606723785
0.03952407464385033 -0.15743908286094666 1.2624038457870483
0.027652345597743988 -0.19129109382629395 1.1865131855010986
0.0631793737411499 -0.13709284365177155 0.7322378754615784
0.10754451900720596 0.023564785718917847 0.067959263920784
0.06723999232053757 0.022370807826519012 1.7438385486602783
0.034931428730487823 -0.13963347673416138 1.6569690704345703
0.022157587110996246 -0.1270407885313034 1.5679467916488647
0.0283561572432518 -0.13275377452373505 1.5202093124389648
0.09568093717098236 -0.15810975432395935 0.8721221685409546
0.11616379022598267 0.01838347315788269 1.7692217826843262
0.04223942011594772 -0.0007996223866939545 1.5687668323516846
0.041291385889053345 -0.017159759998321533 1.5393108129501343
0.11451811343431473 0.018429026007652283 0.3433762788772583
0.10779896378517151 0.03934035450220108 0.2864452004432678
0.1272399127483368 0.08434758335351944 0.08251592516899109
0.06243223696947098 0.004748005419969559 1.8324134349822998
0.08011871576309204 -0.02413874864578247 1.433944582939148
0.09948942065238953 -0.21668830513954163 0.8629289865493774
0.08424062281847 -0.13013499975204468 0.8594796657562256
0.1271667778491974 -0.19205409288406372 0.8582032918930054
0.08997876942157745 -0.040756162256002426 0.7524949312210083
0.17118149995803833 -0.03832590579986572 0.09600397199392319
0.07164977490901947 0.008840307593345642 1.754327416419983
0.057967595756053925 -0.15539273619651794 1.1551990509033203
0.06738226860761642 -0.1490975320339203 1.2817294597625732
0.0712423175573349 -0.1671442687511444 1.2758207321166992
0.13250282406806946 -0.1853158175945282 0.9292653799057007
0.0676179826259613 -0.07457084953784943 1.5871193408966064
0.07043548673391342 0.002860322594642639 1.5753626823425293
0.06857197731733322 -0.02377096191048622 1.5682376623153687
0.07651164382696152 -0.03920045495033264 1.5624213218688965
0.09151723235845566 -0.05209812521934509 1.5380754470825195
0.125874325633049 -0.059561051428318024 0.6502290368080139
0.12374402582645416 -0.12535645067691803 0.6670353412628174
0.10083702206611633 -0.07537949830293655 1.4041097164154053
0.10293667763471603 -0.014440488070249557 1.3511974811553955
0.06374885141849518 -0.017111927270889282 1.3635919094085693
0.07440926879644394 -0.03765898942947388 1.3396611213684082
0.11864292621612549 -0.1178714781999588 0.828073263168335
0.17156079411506653 0.06259790807962418 0.08458100259304047
0.18928878009319305 0.034279122948646545 0.07569101452827454
0.08897754549980164 -0.00132066011428833 1.7080248594284058
0.10872311145067215 -0.037919510155916214 1.4056059122085571
0.17689430713653564 -0.02314561977982521 0.3240402936935425
0.10936103761196136 0.02093636617064476 1.6794339418411255
0.0831131860613823 0.04689096286892891 1.6809897422790527
0.09435994923114777 0.017253916710615158 1.6478354930877686
0.18909427523612976 0.017900265753269196 0.1497592031955719
0.19745035469532013 -0.01702093333005905 0.09159588813781738
0.17401166260242462 -0.04489729553461075 0.1173849031329155
0.1609741896390915 -0.010766078718006611 0.9670144319534302
0.14914512634277344 -0.013917030766606331 0.8672009706497192
0.11759674549102783 -0.006347786635160446 1.7702088356018066
0.1679111272096634 0.04074018448591232 0.8754544854164124
0.18580451607704163 0.004268469288945198 0.9357854723930359
0.13507035374641418 -0.022635702043771744 1.3414558172225952
0.15180924534797668 -0.04472551867365837 1.3213002681732178
0.11156931519508362 -0.07761920243501663 1.366956114768982
0.14880706369876862 -0.020543038845062256 1.284785270690918
0.13450002670288086 -0.024196188896894455 1.2651703357696533
0.17110934853553772 -0.10775639861822128 1.2269551753997803
0.17635458707809448 -0.05765480920672417 1.2765650749206543
0.1889062225818634 -0.011736150830984116 1.2152973413467407
0.20594213902950287 -0.001987248659133911 1.136797547340393
0.23424950242042542 -0.011187911033630371 1.1538734436035156
0.22416730225086212 -0.04094092920422554 1.195812463760376
0.21302121877670288 -0.0937919169664383 1.2104644775390625
0.24425792694091797 -0.010144852101802826 1.0988473892211914
0.2787216305732727 -0.09082403033971786 1.134063482284546
0.2842816412448883 -0.0569504015147686 1.1199321746826172
0.2717357277870178 -0.030399225652217865 1.096665620803833
0.2576373517513275 -0.13587486743927002 1.1093928813934326
0.2677876949310303 -0.09101603180170059 1.0810949802398682
0.2649490237236023 -0.06567494571208954 1.075330138206482
0.3231947720050812 -0.11157255619764328 0.9524424076080322
0.25550758838653564 -0.11469697952270508 1.0773507356643677
0.25468432903289795 -0.12363758683204651 1.049140453338623
0.2892608940601349 -0.08342671394348145 0.9987293481826782
0.25768232345581055 -0.10909279435873032 1.026031732559204
0.26229238510131836 -0.13641013205051422 1.0237627029418945
0.28443643450737 -0.11819751560688019 0.9901114702224731
0.30876001715660095 -0.1206880658864975 0.9805834293365479
0.2691057324409485 -0.16140586137771606 0.9867510199546814
0.2929447293281555 -0.13632230460643768 0.9775136709213257
0.2815611958503723 -0.1475440263748169 0.9874742031097412
0.3183034360408783 -0.1168900579214096 0.9330102801322937
0.29130011796951294 -0.15998099744319916 0.9727975130081177
0.2980508506298065 -0.11125388741493225 0.9506726264953613
0.30830085277557373 -0.14379122853279114 0.9420722126960754
0.32621991634368896 -0.13409563899040222 0.9466338753700256
-0.306719034910202 -0.034248895943164825 1.06121826171875
-0.2930670380592346 -0.10210742801427841 1.0477769374847412
-0.2817901074886322 -0.08234057575464249 1.0460395812988281
-0.3059689402580261 -0.128484845161438 1.081199288368225
-0.23929201066493988 -0.031908344477415085 1.0648270845413208
-0.27255064249038696 -0.123446524143219 1.0739893913269043
-0.1838884800672531 -0.022573016583919525 1.2361761331558228
-0.18194741010665894 -0.0828278511762619 1.208207130432129
-0.17823576927185059 -0.1009616106748581 0.9656457901000977
-0.18395236134529114 -0.018786940723657608 0.9357497692108154
-0.13346287608146667 0.04957820102572441 0.9281998872756958
-0.1401689499616623 0.1535341739654541 1.2599852085113525
-0.1353159099817276 0.1534736603498459 1.1979708671569824
-0.14176779985427856 0.1803818643093109 1.1605522632598877
-0.15985754132270813 -0.013509444892406464 0.966084361076355
-0.20401111245155334 0.011356517672538757 1.75267493724823
-0.14303812384605408 -0.014841265976428986 1.367655634880066
-0.16139446198940277 -0.009580779820680618 1.2958776950836182
-0.06828470528125763 0.18708258867263794 1.0564560890197754
-0.10357218235731125 0.19420817494392395 0.9716798067092896
-0.22815167903900146 -0.13739113509655 0.1064874678850174
-0.23372597992420197 -0.20113806426525116 0.07104676961898804
-0.1743002086877823 0.010996527969837189 1.731906533241272
-0.1594221591949463 0.015835721045732498 1.6770999431610107
-0.13524535298347473 -0.14582931995391846 1.2556259632110596
-0.13288091123104095 -0.16372868418693542 1.2257226705551147
-0.1368410885334015 -0.18354034423828125 1.221484899520874
-0.1271299123764038 0.10908114165067673 1.3897743225097656
-0.11882179975509644 0.10067740082740784 1.3815505504608154
-0.11499472707509995 -0.1441839039325714 1.2729817628860474
-0.1397736370563507 -0.06545547395944595 1.218124508857727
-0.20413333177566528 -0.15787316858768463 0.17759564518928528
-0.2057635337114334 -0.11490830779075623 0.18449252843856812
-0.0831245481967926 0.13528171181678772 1.2536115646362305
-0.1467152237892151 -0.037785205990076065 1.4712225198745728
-0.14681996405124664 -0.03141701966524124 1.448516607284546
-0.1340397745370865 -0.036130551248788834 1.4289846420288086
-0.14629139006137848 -0.02975626289844513 1.4248658418655396
-0.1453576534986496 -0.050982460379600525 1.4156389236450195
-0.13923557102680206 -0.11607526242733002 0.790372371673584
-0.15068857371807098 -0.08026665449142456 0.7810252904891968
-0.0709506943821907 0.24884289503097534 1.061591625213623
-0.07118607312440872 0.2455134242773056 1.1158850193023682
-0.1077076643705368 -0.1364351361989975 1.272727608680725
-0.1290319561958313 -0.10807812958955765 0.863178014755249
-0.20260150730609894 -0.06964070349931717 0.1053210198879242
-0.20779089629650116 -0.07204718142747879 0.06226784363389015
-0.1400391310453415 -0.19069746136665344 0.8554362058639526
-0.09013377130031586 0.19827431440353394 1.2321946620941162
-0.14342963695526123 -0.11275796592235565 1.646533727645874
-0.12193582952022552 0.006829485297203064 1.5545530319213867
-0.10208763927221298 0.1009196937084198 1.519359827041626
-0.09840375930070877 0.05929300934076309 1.5783805847167969
-0.11667230725288391 0.056720852851867676 1.55149507522583
-0.10741365700960159 0.07985012233257294 1.464768886566162
-0.05501941964030266 0.12957823276519775 1.5590732097625732
-0.10828250646591187 -0.035369038581848145 1.5043195486068726
-0.09273821115493774 0.0438058115541935 0.9777700304985046
-0.12998396158218384 0.015045367181301117 1.8352354764938354
-0.14567354321479797 0.0064987242221832275 1.831247091293335
-0.14055997133255005 -0.00485597550868988 1.8171173334121704
-0.020723475143313408 0.07276967167854309 1.4511706829071045
-0.09234306961297989 0.12334180623292923 1.432425856590271
-0.14303889870643616 -0.14234180748462677 0.03258006274700165
-0.0497075691819191 0.16825133562088013 1.369247317314148
-0.10274316370487213 -0.11290206760168076 1.5570505857467651
-0.13112978637218475 -0.1204516738653183 0.39555153250694275
