0.214126855134964 -0.04875226691365242 0.27397090196609497
0.10304909944534302 -0.014838099479675293 1.3890494108200073
0.1597711145877838 0.09610966593027115 1.2850714921951294
0.16766668856143951 0.12265805155038834 1.2582743167877197
0.09947659075260162 -0.23064568638801575 1.165690302848816
0.15278100967407227 -0.0635533258318901 1.0067623853683472
0.15572361648082733 -0.12153252959251404 1.0016273260116577
0.1332903653383255 -0.001637190580368042 1.2092136144638062
0.17046001553535461 -0.10188207030296326 1.0983961820602417
0.18537643551826477 -0.06304726004600525 1.0837492942810059
0.17704682052135468 -0.13967996835708618 1.159462809562683
-0.29644620418548584 -0.06430138647556305 1.0648826360702515
-0.30487433075904846 -0.12437659502029419 1.0440025329589844
-0.23303382098674774 -0.11058835685253143 1.146944522857666
-0.24703893065452576 -0.11305803060531616 1.1938889026641846
-0.2082660049200058 -0.07200577855110168 1.1560009717941284
-0.20804265141487122 -0.030305055901408195 1.1790212392807007
-0.1937737613916397 -0.15444424748420715 0.8828156590461731
-0.1127479076385498 0.18279846012592316 1.0237603187561035
-0.11670389771461487 0.1710214465856552 1.128506064414978
-0.15315981209278107 -0.23615679144859314 1.1345086097717285
-0.13911278545856476 -0.162539541721344 0.9681093692779541
-0.2590333819389343 -0.06264697760343552 0.2839970886707306
-0.23540624976158142 -0.11379317939281464 0.2993921637535095
-0.1881302446126938 -0.007763506844639778 0.5051971673965454
-0.15236803889274597 -0.1950148642063141 0.8645588755607605
-0.16759353876113892 -0.06357527524232864 0.6480040550231934
-0.15707522630691528 -0.10202760249376297 0.7024319171905518
-0.14337867498397827 -0.04098309203982353 0.7060391902923584
-0.10241635143756866 -0.01654081791639328 1.1073335409164429
-0.11099814623594284 -0.07837512344121933 1.1352136135101318
-0.03445103019475937 0.22155329585075378 1.2032554149627686
-0.11476947367191315 -0.017692286521196365 0.8643065690994263
-0.19241181015968323 -0.12768344581127167 0.3125077486038208
-0.11630627512931824 -0.02087532728910446 1.215338110923767
-0.09379732608795166 -0.039228543639183044 1.1412745714187622
-0.17836780846118927 -0.10321062803268433 0.4527190625667572
-0.13859397172927856 0.009065795689821243 1.7446383237838745
-0.14383883774280548 -0.028101064264774323 1.7369529008865356
-0.1027679443359375 -0.06576086580753326 1.7467546463012695
-0.11957745999097824 -0.10562913119792938 1.703977346420288
-0.13407255709171295 -0.09569893032312393 1.602090835571289
-0.16619685292243958 -0.08170396834611893 0.34746307134628296
-0.07883531600236893 -0.12100078910589218 0.7471921443939209
-0.14487789571285248 -0.09216111898422241 0.2777596414089203
-0.1622629463672638 -0.11992652714252472 0.28172680735588074
-0.17930537462234497 -0.04064542055130005 0.21322987973690033
-0.04941580817103386 0.06550329923629761 0.9731528162956238
-0.09107544273138046 0.02005259320139885 1.7923462390899658
-0.10685350000858307 0.006357278674840927 1.7782362699508667
0.04988277703523636 0.1435426026582718 1.1824308633804321
-0.041313473135232925 0.15409092605113983 1.1879138946533203
0.027767203748226166 0.12746155261993408 1.2439029216766357
0.00027049146592617035 -0.031609129160642624 1.261199951171875
0.03894812613725662 0.21321795880794525 1.2358949184417725
0.042810551822185516 0.16178672015666962 1.0676640272140503
0.10341641306877136 0.22392438352108002 1.1517953872680664
0.015527915209531784 0.1163959950208664 1.6700592041015625
0.076133131980896 0.15209077298641205 1.0744048357009888
0.04343530163168907 -0.21895599365234375 0.9155634045600891
0.09554711729288101 -0.0640471950173378 0.27160152792930603
0.12408993393182755 -0.06705430895090103 0.21415647864341736
0.06385350972414017 -0.12844353914260864 0.7083548903465271
0.034536123275756836 0.013041995465755463 1.0759892463684082
0.08754581212997437 -0.04660719260573387 0.5791889429092407
0.0920390784740448 0.10419287532567978 1.3161673545837402
0.06107791140675545 -0.06432092934846878 1.4261786937713623
0.047084372490644455 0.10287985950708389 1.6335203647613525
0.04093140363693237 0.03251331299543381 1.6061756610870361
0.04719226062297821 0.04922308772802353 1.5773005485534668
0.020150959491729736 2.7593225240707397e-05 1.8268142938613892
0.06583079695701599 -0.08241785317659378 1.3586421012878418
0.15148162841796875 -0.0134816225618124 0.5145198702812195
0.11704213917255402 -0.0020086579024791718 0.5111480355262756
0.1462947279214859 0.0010584816336631775 0.3634212613105774
0.16756704449653625 0.0007528252899646759 0.33604133129119873
0.07354659587144852 -0.04003599286079407 1.5229828357696533
0.05938919633626938 -0.049230337142944336 1.5329025983810425
0.07563351094722748 -0.04920497536659241 1.515069603919983
0.13194355368614197 -0.052746523171663284 0.7740997672080994
0.14599290490150452 -0.09444412589073181 0.6436517238616943
0.11937306821346283 0.0270521342754364 0.976128339767456
0.10450863838195801 -0.07401873171329498 1.1000148057937622
0.09853199124336243 -0.12821069359779358 1.0924041271209717
0.10679951310157776 -0.15319669246673584 1.0398051738739014
0.07885075360536575 -0.0020936056971549988 1.6461615562438965
0.08938270807266235 -0.009349305182695389 1.5601723194122314
0.08282613754272461 -0.1481359302997589 1.2529420852661133
0.106003537774086 0.06544759124517441 1.546624779701233
0.09555448591709137 0.039054661989212036 1.5878032445907593
0.1987375020980835 0.012639336287975311 0.10204097628593445
0.2119378000497818 -0.028055675327777863 0.09328754991292953
0.11541298776865005 0.04549446329474449 1.5125386714935303
0.12220481038093567 0.059569355100393295 1.4769946336746216
0.12882742285728455 0.04791693016886711 1.4393434524536133
0.13161446154117584 0.06411317735910416 1.424746036529541
0.09212999790906906 -0.23281756043434143 1.1856623888015747
0.17829371988773346 -0.1550704389810562 0.8878054022789001
0.11159664392471313 -0.2061990648508072 1.1976442337036133
0.1085825189948082 -0.23172259330749512 1.1835922002792358
0.20717093348503113 -0.11080354452133179 0.9075484275817871
0.20943152904510498 -0.08854914456605911 0.8880103826522827
0.21706491708755493 -0.05347171425819397 0.8976097106933594
-0.2154216170310974 -0.10304054617881775 1.2026383876800537
-0.17391717433929443 -0.10321135818958282 1.2753914594650269
-0.18043364584445953 -0.09993106871843338 1.2574023008346558
-0.17142008244991302 -0.09336599707603455 1.265133023262024
-0.16975781321525574 -0.08958140760660172 1.2819057703018188
-0.1998366415500641 0.0020930711179971695 0.8867268562316895
-0.14488086104393005 -0.05307323485612869 1.3026090860366821
-0.1450190246105194 -0.06522074341773987 1.0828484296798706
-0.1397436112165451 0.10041044652462006 1.5528885126113892
-0.14431291818618774 -0.08528941869735718 1.206701636314392
-0.14173567295074463 -0.08040842413902283 1.1543306112289429
-0.11060713976621628 0.10388282686471939 1.4458649158477783
-0.09923229366540909 0.10082969814538956 1.4049054384231567
-0.13200807571411133 -0.1412409543991089 1.0518009662628174
-0.0980331152677536 -0.16770240664482117 1.0105986595153809
-0.13512088358402252 -0.029863199219107628 0.7914631962776184
-0.03870834410190582 0.19630387425422668 1.2756133079528809
-0.08318479359149933 0.13018904626369476 1.6455143690109253
-0.17484444379806519 -0.04721684753894806 0.07627111673355103
-0.1870671659708023 -0.036920398473739624 0.06691226363182068
-0.08518193662166595 0.026557959616184235 0.8748012781143188
-0.0015907566994428635 0.09682965278625488 0.8597085475921631
-0.06694107502698898 -0.018152430653572083 0.8525028228759766
0.01999896578490734 0.09798717498779297 1.339996099472046
-0.04728229343891144 -0.08089593052864075 0.771978497505188
-0.06540283560752869 -0.1238461583852768 1.6202049255371094
-0.008971309289336205 0.015975426882505417 0.879525899887085
-0.0061905235052108765 -0.02422267384827137 0.8583431243896484
0.016532208770513535 -0.11751611530780792 0.8632470965385437
-0.08016864955425262 -0.16625423729419708 0.863497793674469
-0.00593092106282711 -0.22661131620407104 0.8566237688064575
0.034729838371276855 -0.10948558896780014 0.8427865505218506
-0.006021217908710241 -0.16217537224292755 0.8686363697052002
-0.009500131011009216 0.028182443231344223 1.498420000076294
0.028500089421868324 -0.035695988684892654 0.8547683358192444
0.03137027472257614 -0.04976959526538849 0.8389608263969421
0.0016609802842140198 0.03883291035890579 1.5770089626312256
0.006576064974069595 0.04117117077112198 1.5501893758773804
0.04329022392630577 -0.1236749142408371 0.8583415746688843
0.1315629631280899 0.05920768529176712 0.8672417402267456
0.09794209897518158 -0.03480301797389984 0.2729552984237671
0.05535547807812691 -0.03609215468168259 0.826270341873169
0.08995130658149719 0.1384434700012207 1.2172842025756836
0.12877920269966125 -0.07554353773593903 0.39625999331474304
0.1227559745311737 -0.04750983417034149 0.3344401717185974
0.1396728903055191 -0.07116628438234329 0.3475571274757385
0.13802741467952728 -0.10750909149646759 0.29267531633377075
0.08976825326681137 0.07757668197154999 1.5129945278167725
0.08113525807857513 -0.01626375876367092 0.8616794943809509
0.11049807071685791 -0.03644160181283951 0.8423982858657837
0.07942544668912888 -0.07192084938287735 1.2583715915679932
0.15664631128311157 -0.08949553966522217 0.4432622194290161
0.07843974232673645 0.051674630492925644 1.6230034828186035
0.0654212012887001 -0.027911096811294556 1.3115991353988647
0.16874440014362335 -0.07147963345050812 0.35078588128089905
0.11656276881694794 0.19761359691619873 1.2124089002609253
0.08348963409662247 -0.051437001675367355 1.2320997714996338
0.1630486249923706 -0.0024191774427890778 0.2275886833667755
0.15863792598247528 0.19625505805015564 1.1309423446655273
0.15724897384643555 0.008143257349729538 0.26659491658210754
0.18059945106506348 -0.10826477408409119 0.2645123600959778
0.13503393530845642 0.08664161711931229 1.3330398797988892
0.08675860613584518 -0.03591720014810562 1.4791529178619385
0.0963691845536232 -0.031125888228416443 1.4424364566802979
0.08494992554187775 -0.03601973503828049 1.475886583328247
0.1106855720281601 -0.026132043451070786 1.42140531539917
0.10174628347158432 -0.1745893955230713 1.2397236824035645
0.08892513066530228 -0.18350982666015625 1.2339606285095215
0.1626358926296234 0.11114268004894257 1.240295648574829
0.18377740681171417 0.14543090760707855 1.1761064529418945
0.18024283647537231 0.1371724009513855 1.1423941850662231
0.11106621474027634 -0.0328117236495018 1.2639163732528687
0.1054435446858406 -0.06690928339958191 1.2762693166732788
0.16149605810642242 -0.17943093180656433 0.8969358205795288
0.11119585484266281 -0.07947204262018204 1.2836048603057861
0.11898117512464523 -0.09798985719680786 1.1780152320861816
0.13372944295406342 -0.02671002596616745 1.1657943725585938
0.12404154241085052 -0.0766146257519722 1.1499422788619995
0.1866469830274582 -0.12246350944042206 1.193267822265625
0.20975162088871002 -0.09181079268455505 1.0687248706817627
0.1906653791666031 -0.14344318211078644 1.1145741939544678
-0.1578085571527481 -0.22397953271865845 1.174369215965271
-0.15973880887031555 -0.15258510410785675 1.2224171161651611
-0.16549701988697052 -0.1397947072982788 1.240946888923645
-0.14743195474147797 -0.20845875144004822 1.174267053604126
-0.12924981117248535 0.10711292922496796 1.4742493629455566
-0.13603830337524414 0.09723461419343948 1.4577734470367432
-0.13478201627731323 0.11401698738336563 1.4146602153778076
-0.16208209097385406 0.0064378827810287476 1.7063456773757935
-0.16593392193317413 -0.030406765639781952 1.621739387512207
-0.22328601777553558 -0.08115047961473465 0.344756543636322
-0.1337491273880005 -0.06683498620986938 0.8645273447036743
-0.13646584749221802 -0.09130410850048065 0.8439098000526428
-0.09703253209590912 0.19876675307750702 1.0017460584640503
-0.1098758727312088 -0.12358012050390244 1.2650809288024902
-0.12068091332912445 -0.02859123796224594 0.8372673988342285
-0.1151772290468216 -0.007470443844795227 1.759133219718933
-0.10179731249809265 -0.12174760550260544 1.1420459747314453
-0.06875298917293549 -0.18493351340293884 1.1399143934249878
-0.04048020392656326 0.17241041362285614 1.1108531951904297
0.03474768251180649 0.16112172603607178 1.1084856986999512
-0.07140439003705978 -0.021596860140562057 1.1575312614440918
-0.055455777794122696 -0.11330953240394592 0.8555781245231628
-0.05814019963145256 -0.1882472038269043 1.0720276832580566
-0.05197620391845703 0.017523586750030518 1.0625569820404053
-0.05834376811981201 -0.11271582543849945 1.718983769416809
0.03271045908331871 -0.10243262350559235 0.7791438102722168
-0.031117640435695648 0.1146092340350151 1.311347246170044
0.10914633423089981 -0.03757413476705551 0.06548614054918289
0.14694754779338837 0.2122764140367508 1.063772201538086
0.10469421744346619 0.1557440161705017 1.1308979988098145
0.08917246013879776 0.2337622046470642 1.0733482837677002
0.10063134133815765 0.0884103775024414 0.870947003364563
0.17157341539859772 0.04007939249277115 0.09494277834892273
0.12366527318954468 -0.037759192287921906 0.8684738874435425
0.1612328141927719 -0.07798951864242554 0.40008026361465454
0.09313862025737762 -0.057349033653736115 1.404273271560669
0.09343692660331726 -0.07500410825014114 1.3237558603286743
0.2017340362071991 0.0005187401548027992 0.888704240322113
0.2015438973903656 -0.049206823110580444 0.9530537128448486
0.2034865915775299 -0.12421182543039322 1.0818898677825928
-0.2558446526527405 -0.12568864226341248 1.1610031127929688
-0.19872261583805084 -0.08612784743309021 0.9456180334091187
-0.2173161804676056 -0.07317280769348145 0.8916707038879395
-0.13823245465755463 0.09538494050502777 1.4105406999588013
-0.12104995548725128 0.13123589754104614 1.2662205696105957
-0.14689838886260986 0.018068548291921616 1.5378782749176025
-0.13760820031166077 -0.05821595340967178 1.0503637790679932
-0.1442376971244812 -0.08569341897964478 1.0909535884857178
-0.1466517299413681 0.022838201373815536 1.5390454530715942
-0.14772070944309235 0.009632229804992676 1.5247688293457031
-0.1455938220024109 0.01436573639512062 1.532405972480774
-0.1474033147096634 0.014348149299621582 1.5374391078948975
-0.15199869871139526 0.0025816187262535095 1.5258220434188843
-0.21629613637924194 -0.13841117918491364 0.1929313838481903
-0.16233664751052856 -0.06752967834472656 1.675087809562683
-0.04377209395170212 -0.014992885291576385 1.2129428386688232
-0.1777224838733673 -0.15590211749076843 0.07049442827701569
-0.05894336476922035 -0.021285012364387512 1.2557729482650757
-0.015004023909568787 -0.025791149586439133 1.1691192388534546
-0.03760407119989395 0.09392400830984116 0.93589186668396
-0.05043591558933258 -0.017371520400047302 1.7772420644760132
-0.06630454212427139 -0.0757131576538086 0.7109616994857788
-0.004913893528282642 0.11781100928783417 1.273624300956726
0.0007953867316246033 -0.1920577585697174 1.020491361618042
-0.044878795742988586 -0.18424390256404877 1.2406883239746094
0.041799213737249374 0.1456286758184433 1.1528335809707642
0.11846611648797989 -0.032527342438697815 0.20429636538028717
0.06049071624875069 -0.17950741946697235 1.0035655498504639
0.11016823351383209 -0.17283344268798828 0.9887689352035522
0.06191796064376831 0.05057065933942795 1.5459365844726562
0.05445104464888573 -0.16413414478302002 1.189222812652588
0.027887405827641487 -0.03506336361169815 1.167541265487671
0.08486837148666382 -0.02745017595589161 1.0920398235321045
0.0780377984046936 0.059782370924949646 0.9670185446739197
0.16146698594093323 -0.0601067841053009 0.041588492691516876
0.13669957220554352 -0.05316436290740967 0.04073469713330269
0.19322039186954498 -0.03962288796901703 0.048964161425828934
0.20117464661598206 -0.08225992321968079 0.25162991881370544
0.08332215249538422 -0.03533623367547989 1.4750206470489502
0.08201964199542999 -0.03367379307746887 1.473212718963623
0.07745512574911118 -0.04723154753446579 1.3335989713668823
0.0928623378276825 -0.06857898086309433 1.313584804534912
0.19840803742408752 0.16157236695289612 1.0724244117736816
0.1948654055595398 0.14216074347496033 1.0244382619857788
0.20424926280975342 0.1470857411623001 1.021464467048645
0.22480833530426025 -0.08364968746900558 1.0681064128875732
0.2097814530134201 -0.1436799019575119 1.0596654415130615
0.21860209107398987 -0.16926805675029755 1.0530245304107666
-0.2497570514678955 -0.08243667334318161 1.0863279104232788
-0.1671779751777649 -0.18340758979320526 1.2105344533920288
-0.19508536159992218 -0.08670845627784729 0.37220117449760437
-0.059655942022800446 0.1816505491733551 0.9756525158882141
-0.10915250331163406 -0.14251962304115295 1.0901578664779663
-0.036885567009449005 -0.04083514213562012 0.8507218360900879
-0.06097184494137764 -0.02946132980287075 0.8169558048248291
-0.054892417043447495 -0.082066610455513 0.8186926245689392
-0.008101021870970726 0.011799793690443039 1.1078941822052002
0.02590172365307808 -0.20910559594631195 0.8469441533088684
0.09733018279075623 0.015353630296885967 0.8776319026947021
0.12402168661355972 0.15426072478294373 1.0943400859832764
0.08374196290969849 0.013935711234807968 1.563158392906189
0.09532076120376587 0.03636302798986435 1.539124608039856
0.18879695236682892 -0.11819174885749817 0.9536149501800537
-0.17098607122898102 -0.19577696919441223 1.17880380153656
-0.14667771756649017 0.06934619694948196 1.5700331926345825
-0.032663632184267044 0.18993698060512543 1.0225577354431152
-0.1263427734375 0.09725871682167053 1.601560115814209
-0.10188958048820496 0.05729082599282265 1.5913715362548828
-0.06906284391880035 0.04839470237493515 1.5702548027038574
0.02575894631445408 -0.19432282447814941 1.0777568817138672
0.043881990015506744 -0.1400710642337799 1.2765008211135864
0.15359002351760864 -0.08115050941705704 0.17466549575328827
0.08202129602432251 -0.12575355172157288 1.2338042259216309
0.09174741804599762 -0.11859352141618729 1.1803460121154785
0.11401419341564178 0.07017441093921661 1.43880033493042
0.10119514912366867 0.09770003706216812 1.4464750289916992
0.09571490436792374 -0.07242755591869354 1.1867072582244873
0.1281886100769043 -0.0751749724149704 0.8527431488037109
0.07171982526779175 -0.16396106779575348 1.256417989730835
0.1384522020816803 0.10214599221944809 1.3556545972824097
-0.1099008321762085 0.1249893382191658 1.3528261184692383
-0.18679846823215485 -0.009827584028244019 0.3791825473308563
0.04876449331641197 -0.10121561586856842 0.7379346489906311
-0.0009415633976459503 -0.11751865595579147 1.698071002960205
-0.11212386190891266 0.1925482451915741 1.072485327720642
-0.16328313946723938 -0.09184487164020538 1.284926414489746
-0.14588652551174164 -0.05016884207725525 0.41548019647598267
0.015296049416065216 0.13863207399845123 1.4779072999954224
0.11839067190885544 -0.06351654976606369 0.045279018580913544
0.07579772174358368 -0.046678826212882996 1.519240140914917
0.07675735652446747 -0.04812689498066902 1.5149824619293213
0.08125776052474976 -0.03690441697835922 1.4295154809951782
0.19271692633628845 -0.06482017785310745 0.22400930523872375
0.19092801213264465 -0.0303853377699852 0.2143898457288742
0.12600243091583252 -0.10054555535316467 1.226928472518921
-0.17585930228233337 -0.15928566455841064 0.9435141086578369
-0.12258931994438171 0.11015856266021729 1.3833727836608887
-0.12110161781311035 0.10770688205957413 1.383349895477295
-0.12598946690559387 0.10552710294723511 1.3838226795196533
-0.1600130796432495 -0.07707558572292328 0.21362487971782684
-0.03627559915184975 -0.09581008553504944 0.8517321348190308
0.12732243537902832 -0.05833643302321434 0.1635834276676178
0.1483088731765747 -0.12719076871871948 1.1839632987976074
0.05932607129216194 -0.06968262046575546 1.6555554866790771
0.1459270715713501 -0.0989157110452652 0.802214503288269
0.12909521162509918 0.0613018199801445 1.4051631689071655
0.13709990680217743 0.0812826007604599 1.3682684898376465
0.11691220849752426 0.009815849363803864 0.07515435665845871
0.04833514243364334 -0.4758453965187073 1.0878621339797974
0.05351255461573601 -0.44250595569610596 1.0659582614898682
0.051145389676094055 -0.45558542013168335 1.0686140060424805
0.044783663004636765 -0.45251163840293884 1.0726077556610107
0.04237247630953789 -0.47494006156921387 1.0774939060211182
0.054186586290597916 -0.4634673595428467 1.0922795534133911
0.11859463155269623 -0.3329690098762512 1.0664451122283936
0.10320211946964264 -0.3349418044090271 1.0570333003997803
0.10568539798259735 -0.35470980405807495 1.0667545795440674
0.0982893705368042 -0.362273633480072 1.0686458349227905
0.17020180821418762 -0.18996074795722961 0.9925004243850708
0.1635759174823761 -0.2059381902217865 1.009044885635376
0.16009458899497986 -0.20138239860534668 0.9833946824073792
0.0952131524682045 -0.34949466586112976 1.0247492790222168
0.09138645976781845 -0.36219823360443115 1.037513256072998
0.0960552841424942 -0.38775721192359924 1.092748999595642
0.09931178390979767 -0.37430232763290405 1.0773594379425049
0.14153450727462769 -0.23602131009101868 0.9661676287651062
0.1429843008518219 -0.24142250418663025 0.9924184083938599
0.15063230693340302 -0.2766522467136383 1.056972622871399
0.14537858963012695 -0.2670918107032776 1.0514248609542847
0.07015974074602127 -0.4494873881340027 1.1006591320037842
0.06276419013738632 -0.4365391433238983 1.0533522367477417
0.16744676232337952 -0.20541971921920776 0.975142776966095
0.15961086750030518 -0.2091733068227768 0.9741013646125793
0.2753439247608185 -0.03808395564556122 1.0526047945022583
0.2652204632759094 -0.05011580139398575 1.0509580373764038
0.2694914937019348 -0.038595110177993774 1.0323008298873901
0.08604320883750916 -0.40867871046066284 1.0854947566986084
0.07522722333669662 -0.4309467375278473 1.092157006263733
0.16350533068180084 -0.20860913395881653 0.9682472944259644
0.16431666910648346 -0.2044224590063095 0.958314061164856
0.03280572220683098 -0.49296319484710693 1.0406605005264282
0.027515212073922157 -0.5074411630630493 1.048043131828308
0.28017857670783997 -0.03166120499372482 1.0452816486358643
0.27835744619369507 -0.04063697159290314 1.0577073097229004
0.2751311659812927 -0.030349165201187134 1.0403060913085938
0.2748580873012543 -0.03977331519126892 1.0297908782958984
0.027658022940158844 -0.5345255136489868 1.0996179580688477
0.024949919432401657 -0.5530840754508972 1.110066294670105
0.015815172344446182 -0.5528998374938965 1.0928540229797363
0.12210885435342789 -0.29860883951187134 0.9991130232810974
0.1182594895362854 -0.31751689314842224 0.9968961477279663
0.10440298169851303 -0.3342418670654297 0.9975247383117676
0.10701996088027954 -0.33632320165634155 0.9879477024078369
0.2791554629802704 -0.045175522565841675 1.0643421411514282
0.2795652449131012 -0.029335878789424896 1.0375816822052002
0.09794944524765015 -0.40821099281311035 1.100411295890808
0.10203158855438232 -0.4100438952445984 1.0986307859420776
0.08905980736017227 -0.4204249083995819 1.10068941116333
0.08809610456228256 -0.4380241632461548 1.1075059175491333
0.14029908180236816 -0.263227641582489 0.9839954376220703
0.13205382227897644 -0.2792295813560486 0.9804978966712952
0.13032479584217072 -0.2813788950443268 0.9850724935531616
0.28284698724746704 -0.032396771013736725 1.0421746969223022
0.2820482552051544 -0.048545144498348236 1.0611050128936768
0.2751244902610779 -0.04211398959159851 1.0325531959533691
0.1707051396369934 -0.18150795996189117 0.9290937781333923
0.16687554121017456 -0.1892140656709671 0.9215844869613647
0.16569478809833527 -0.19976380467414856 0.945341944694519
0.16817572712898254 -0.19320601224899292 0.9356250762939453
0.16551777720451355 -0.1875983476638794 0.933254599571228
0.09813987463712692 -0.3554939031600952 0.9869047999382019
0.1016688346862793 -0.33899641036987305 0.983391284942627
0.09794531762599945 -0.34561848640441895 0.9727269411087036
0.09738915413618088 -0.35372310876846313 0.971195638179779
0.2791318893432617 -0.048993997275829315 1.0389186143875122
0.0249509084969759 -0.5623735189437866 1.117646336555481
0.02513541653752327 -0.558979332447052 1.0984275341033936
0.024358011782169342 -0.5683401226997375 1.1141289472579956
0.019019825384020805 -0.5727618932723999 1.1156539916992188
0.02081373706459999 -0.5531834959983826 1.0865201950073242
0.1906881332397461 -0.20191827416419983 0.9847687482833862
0.17457997798919678 -0.20872041583061218 0.9715019464492798
0.046285465359687805 -0.4783298671245575 1.0293395519256592
0.03721942752599716 -0.500230073928833 1.0388156175613403
0.03135720640420914 -0.5218476057052612 1.052895188331604
0.16769307851791382 -0.2688911557197571 1.0571690797805786
0.15531840920448303 -0.28342118859291077 1.0569955110549927
0.15828390419483185 -0.2973838448524475 1.0532002449035645
0.1101612076163292 -0.40465307235717773 1.1036338806152344
0.10235743224620819 -0.4127000868320465 1.0954105854034424
0.08032497763633728 -0.4572312831878662 1.1050864458084106
0.11475961655378342 -0.37736213207244873 1.0878324508666992
0.06491885334253311 -0.4583989977836609 1.0467530488967896
0.04981675744056702 -0.48810461163520813 1.0469509363174438
0.17072263360023499 -0.27088093757629395 1.0501102209091187
0.11607206612825394 -0.39139774441719055 1.071457862854004
0.11982806771993637 -0.3763503134250641 1.0603032112121582
0.1073174774646759 -0.4075256884098053 1.0740689039230347
0.040357641875743866 -0.5313595533370972 1.0858737230300903
0.045303720980882645 -0.5228952765464783 1.0750538110733032
0.09834650903940201 -0.3800514042377472 1.0167030096054077
0.10906640440225601 -0.38491523265838623 1.033869743347168
0.09688939899206161 -0.3952696919441223 1.0354870557785034
0.10213673114776611 -0.3978690505027771 1.0457628965377808
0.14070942997932434 -0.332736074924469 1.0575505495071411
0.12492899596691132 -0.3619268238544464 1.0607361793518066
0.08114282786846161 -0.45873138308525085 1.0811736583709717
0.07392684370279312 -0.47532156109809875 1.0809895992279053
0.06362053751945496 -0.48159098625183105 1.0864288806915283
0.08037136495113373 -0.4496246874332428 1.0558662414550781
0.07633073627948761 -0.45728546380996704 1.0529265403747559
0.12339906394481659 -0.34626108407974243 1.0193270444869995
0.11815661936998367 -0.36010032892227173 1.0201306343078613
0.12094342708587646 -0.33725273609161377 1.004342794418335
0.11678110063076019 -0.35380470752716064 1.0119832754135132
0.1116013452410698 -0.3693355321884155 1.0235531330108643
0.1360933482646942 -0.33329635858535767 1.026904582977295
0.14622150361537933 -0.3189690113067627 1.0327092409133911
0.13725343346595764 -0.3061092495918274 1.0055229663848877
0.13949228823184967 -0.3190252184867859 1.0226815938949585
0.0765417218208313 -0.465578556060791 1.0604417324066162
0.07038991898298264 -0.48336124420166016 1.0668723583221436
0.06693071871995926 -0.47447749972343445 1.0601857900619507
0.07915931940078735 -0.4791831374168396 1.0629730224609375
0.1918751448392868 -0.21707460284233093 0.999456524848938
0.056880973279476166 -0.425148606300354 1.0806201696395874
0.04585926979780197 -0.43578529357910156 1.0721724033355713
0.0856194794178009 -0.37105634808540344 1.0640740394592285
0.08748278021812439 -0.3681136667728424 1.0589240789413452
0.07749465107917786 -0.381865918636322 1.0719741582870483
0.08269885182380676 -0.37353718280792236 1.056352138519287
0.07552997022867203 -0.3858858346939087 1.065226674079895
0.0991176962852478 -0.34137678146362305 1.0420639514923096
0.09485343098640442 -0.354730486869812 1.0413672924041748
0.11046920716762543 -0.3245689868927002 1.0384269952774048
0.0879228487610817 -0.38205236196517944 1.07528555393219
0.05216330289840698 -0.4568150043487549 1.0428709983825684
0.044015608727931976 -0.4676334261894226 1.0726757049560547
0.08531947433948517 -0.37139302492141724 1.0360848903656006
0.0363202840089798 -0.491629958152771 1.079789400100708
0.026081765070557594 -0.5102875828742981 1.0795443058013916
0.034298352897167206 -0.4967212677001953 1.072297215461731
0.026940306648612022 -0.5262990593910217 1.0909996032714844
0.18034112453460693 -0.18672417104244232 1.011085867881775
0.1832902878522873 -0.23125267028808594 1.0814037322998047
0.17070628702640533 -0.23734846711158752 1.0716809034347534
0.17779824137687683 -0.24183233082294464 1.076631784439087
0.13714762032032013 -0.2639414072036743 0.9952448606491089
0.2621190547943115 -0.04261244833469391 1.0212349891662598
0.26720207929611206 -0.061760686337947845 1.0632076263427734
0.2606869339942932 -0.07178683578968048 1.0587682723999023
0.2588399052619934 -0.06724724173545837 1.0518320798873901
0.12536409497261047 -0.3423001170158386 1.0708355903625488
0.06785053014755249 -0.46625787019729614 1.1169350147247314
0.023477036505937576 -0.5302689075469971 1.0691816806793213
0.2323767989873886 -0.10041799396276474 1.0185275077819824
0.22256897389888763 -0.1258946657180786 1.0067514181137085
0.13872967660427094 -0.32215046882629395 1.075954556465149
0.1305806040763855 -0.32642894983291626 1.069297194480896
0.1108471155166626 -0.36463266611099243 1.073681354522705
0.02178402990102768 -0.539405882358551 1.0739941596984863
0.023621834814548492 -0.5652201771736145 1.1223726272583008
0.019248537719249725 -0.5686983466148376 1.1253323554992676
0.019476953893899918 -0.5676689147949219 1.1068224906921387
0.19756253063678741 -0.16454580426216125 1.0083128213882446
0.19399642944335938 -0.18919208645820618 1.0091724395751953
0.12001412361860275 -0.36762404441833496 1.0738662481307983
0.17577674984931946 -0.19139447808265686 0.9878042936325073
0.028304502367973328 -0.5125961303710938 1.0497841835021973
0.2096657007932663 -0.19890332221984863 1.0935993194580078
0.21048256754875183 -0.2015552520751953 1.0935258865356445
0.2024005651473999 -0.20803959667682648 1.0791388750076294
0.2054910659790039 -0.2159152328968048 1.0883413553237915
0.20177613198757172 -0.2275318056344986 1.0949980020523071
0.19049568474292755 -0.20098352432250977 1.0611176490783691
0.19889520108699799 -0.20875583589076996 1.063398838043213
0.023360254243016243 -0.5709302425384521 1.1276793479919434
0.09201377630233765 -0.39043116569519043 1.0204130411148071
0.0885697603225708 -0.3980557918548584 1.029003381729126
0.08195117115974426 -0.40077561140060425 1.0294945240020752
0.09378256648778915 -0.37053823471069336 1.0081887245178223
0.2061127871274948 -0.21636167168617249 1.089005708694458
0.202673077583313 -0.22596099972724915 1.0903878211975098
0.17272119224071503 -0.214162677526474 0.9607945084571838
0.2119472175836563 -0.20856232941150665 1.086854100227356
0.20609457790851593 -0.215814471244812 1.0791723728179932
0.11437127739191055 -0.39795833826065063 1.0954207181930542
0.16219352185726166 -0.21341116726398468 0.9330573081970215
0.15940459072589874 -0.21221747994422913 0.9302214980125427
0.15389780700206757 -0.22261205315589905 0.9165946245193481
0.1498841941356659 -0.2315702587366104 0.92237389087677
0.19809764623641968 -0.1957274079322815 1.0063490867614746
0.1971593201160431 -0.23381131887435913 1.074375867843628
0.10081843286752701 -0.4142870306968689 1.0826177597045898
0.09259967505931854 -0.4319886565208435 1.0869038105010986
0.16764655709266663 -0.2243778556585312 0.9581434726715088
0.16206680238246918 -0.2341092824935913 0.9569258689880371
0.15840141475200653 -0.22734685242176056 0.9444205164909363
0.09475327283143997 -0.43314260244369507 1.0763795375823975
0.10410004109144211 -0.41838306188583374 1.0692726373672485
0.09059958904981613 -0.42564019560813904 1.0579952001571655
0.10312124341726303 -0.40693140029907227 1.0558860301971436
0.04932510852813721 -0.49952712655067444 1.0562050342559814
0.05044928938150406 -0.5067684650421143 1.0659915208816528
0.17730148136615753 -0.22887256741523743 0.9770874977111816
0.19228175282478333 -0.2310921549797058 1.0243388414382935
0.17613469064235687 -0.2518572211265564 1.021958827972412
0.18200676143169403 -0.24611429870128632 1.009774923324585
0.17426399886608124 -0.2664158344268799 1.0196893215179443
0.1632358580827713 -0.27422869205474854 1.0108511447906494
0.09540256857872009 -0.4418434202671051 1.0613148212432861
0.0983612909913063 -0.4341315031051636 1.0564405918121338
0.08873669803142548 -0.46704262495040894 1.0755661725997925
0.12833894789218903 -0.37674933671951294 1.0512478351593018
0.11307959258556366 -0.40039747953414917 1.0587514638900757
0.12003202736377716 -0.3828310966491699 1.051638126373291
0.11948034912347794 -0.39309388399124146 1.0479111671447754
0.11832179129123688 -0.3987037241458893 1.0561221837997437
0.11998195201158524 -0.38708269596099854 1.0537937879562378
0.11317022144794464 -0.40343087911605835 1.051108717918396
0.08101903647184372 -0.4777723252773285 1.0704951286315918
0.08399887382984161 -0.46939921379089355 1.0615355968475342
0.04794603958725929 -0.4434484839439392 1.0879487991333008
0.04566878825426102 -0.4567376375198364 1.0834848880767822
0.04842153191566467 -0.4421766996383667 1.0685298442840576
0.036950647830963135 -0.46099233627319336 1.078082799911499
0.16800221800804138 -0.22248588502407074 1.0626130104064941
0.15982873737812042 -0.2119985967874527 0.9955412149429321
0.15212000906467438 -0.22335901856422424 0.9904970526695251
0.17672722041606903 -0.19437065720558167 1.0360748767852783
0.06438668072223663 -0.4359413981437683 1.0883877277374268
0.07161709666252136 -0.41371825337409973 1.0596516132354736
0.14003083109855652 -0.25438255071640015 1.017802119255066
0.1375548541545868 -0.2650791108608246 1.0065815448760986
0.15929406881332397 -0.23693998157978058 1.0544569492340088
0.1523524969816208 -0.2569238543510437 1.0527842044830322
0.07356426864862442 -0.407049298286438 1.0602269172668457
0.06264690309762955 -0.4502589702606201 1.0938456058502197
0.12638436257839203 -0.28595200181007385 1.0152537822723389
0.11502967029809952 -0.3172972798347473 1.030008316040039
0.11779935657978058 -0.30268394947052 1.0119152069091797
0.08134640753269196 -0.3907970190048218 1.0511163473129272
0.033155959099531174 -0.5130913257598877 1.0984573364257812
0.019116809591650963 -0.5458757281303406 1.0999467372894287
0.016732187941670418 -0.5387439727783203 1.079195499420166
0.1889931559562683 -0.22381755709648132 1.0875792503356934
0.17285463213920593 -0.2530234456062317 1.0826541185379028
0.14537543058395386 -0.2925375699996948 1.0603010654449463
0.13403348624706268 -0.31387007236480713 1.0679558515548706
0.113954097032547 -0.31674924492836 1.0045146942138672
0.1714535802602768 -0.266805499792099 1.0904122591018677
0.16893061995506287 -0.2510414123535156 1.0588467121124268
0.1634468138217926 -0.264254093170166 1.058305025100708
0.058941327035427094 -0.4857475161552429 1.1107310056686401
0.04843046888709068 -0.5028041005134583 1.1048130989074707
0.08004084974527359 -0.3995933532714844 1.0376003980636597
0.21832311153411865 -0.14048388600349426 1.034850835800171
0.22366127371788025 -0.12874779105186462 1.0370714664459229
0.10103622078895569 -0.34122294187545776 0.985011100769043
0.14667077362537384 -0.3076707124710083 1.0618709325790405
0.14406752586364746 -0.3218328654766083 1.0793592929840088
0.06616000831127167 -0.47943931818008423 1.1139590740203857
0.06642946600914001 -0.48159873485565186 1.1092804670333862
0.056872423738241196 -0.49356019496917725 1.1060512065887451
0.15559479594230652 -0.23505862057209015 0.9543980360031128
0.14546695351600647 -0.24852724373340607 0.9545292854309082
0.14175759255886078 -0.24667349457740784 0.9562089443206787
0.15069888532161713 -0.2289179563522339 0.9477002024650574
0.15433457493782043 -0.23126040399074554 0.9464032649993896
0.14626933634281158 -0.23102445900440216 0.9301385879516602
0.1419190764427185 -0.2564276456832886 0.9775581955909729
0.14017298817634583 -0.22898420691490173 0.9277291297912598
0.13663434982299805 -0.24150735139846802 0.9186233282089233
0.19879448413848877 -0.19662033021450043 1.0349302291870117
0.19506467878818512 -0.20289552211761475 1.0396121740341187
0.18999722599983215 -0.19028258323669434 1.0065499544143677
0.19362443685531616 -0.2320377230644226 1.085890531539917
0.18564365804195404 -0.24115726351737976 1.074431300163269
0.10963470488786697 -0.40565353631973267 1.1139088869094849
0.11055020242929459 -0.40040504932403564 1.1142849922180176
0.1047193855047226 -0.3968437910079956 1.1013288497924805
0.1421557515859604 -0.23433370888233185 0.914521336555481
0.1491374671459198 -0.2203555405139923 0.9171276092529297
0.1447356939315796 -0.2589915990829468 0.973757803440094
0.06851477921009064 -0.445678174495697 1.041902780532837
0.05409346520900726 -0.4620736539363861 1.0372945070266724
0.19979937374591827 -0.2176271378993988 1.0647028684616089
0.20968179404735565 -0.18286949396133423 1.034186601638794
0.07160818576812744 -0.47080835700035095 1.0923631191253662
0.11007091403007507 -0.3418765068054199 0.9895468354225159
0.25968435406684875 -0.07985996454954147 1.0204699039459229
0.2518591582775116 -0.09126557409763336 1.0172902345657349
0.10997921228408813 -0.34846794605255127 0.992946982383728
0.21369056403636932 -0.17798811197280884 1.0228513479232788
0.20614852011203766 -0.19346389174461365 1.025829792022705
0.20065975189208984 -0.19114822149276733 1.0142394304275513
0.08701161295175552 -0.4416086673736572 1.058097004890442
0.18966060876846313 -0.21066519618034363 0.9819210767745972
0.1291988343000412 -0.3282851278781891 1.0109093189239502
0.2018035501241684 -0.20970836281776428 1.0243589878082275
0.19752079248428345 -0.22651344537734985 1.026208519935608
0.2009063959121704 -0.22692705690860748 1.0514819622039795
0.19025146961212158 -0.23506799340248108 1.0338449478149414
0.20314903557300568 -0.20063386857509613 1.0134525299072266
0.19880037009716034 -0.20502495765686035 0.9986824989318848
0.09895479679107666 -0.4421693682670593 1.0671554803848267
0.09543605893850327 -0.34452641010284424 1.059232473373413
0.0921543687582016 -0.3482966721057892 1.0564130544662476
0.09022989869117737 -0.3569881319999695 1.0632022619247437
0.09156984090805054 -0.34359729290008545 1.0511443614959717
0.08750005066394806 -0.3620088994503021 1.060283899307251
0.06564310193061829 -0.4119064211845398 1.0759902000427246
0.06863639503717422 -0.42186105251312256 1.0823675394058228
0.08871499449014664 -0.3688277304172516 1.054624080657959
0.08419197052717209 -0.37663328647613525 1.0483782291412354
0.07772354781627655 -0.39419829845428467 1.0623884201049805
0.0755297914147377 -0.4036024212837219 1.076256275177002
0.14673839509487152 -0.24158324301242828 1.016577959060669
0.17681880295276642 -0.22231043875217438 1.0737675428390503
0.18305714428424835 -0.2081046998500824 1.0641286373138428
0.19219255447387695 -0.1691024750471115 1.0322253704071045
0.1943894922733307 -0.16076314449310303 1.0203841924667358
0.08991380035877228 -0.3709941506385803 1.0174082517623901
0.10426446050405502 -0.3297894597053528 1.0086190700531006
0.09247659891843796 -0.35441669821739197 0.9826844930648804
0.09706660360097885 -0.3436013460159302 1.0111688375473022
0.2564213275909424 -0.07709916681051254 1.0590152740478516
0.2669362425804138 -0.05078830569982529 1.0365434885025024
0.2591463625431061 -0.06196475028991699 1.0418871641159058
0.2543354332447052 -0.0653441995382309 1.0321654081344604
0.24719759821891785 -0.07390395551919937 1.027172327041626
0.21452870965003967 -0.1284092515707016 1.0104928016662598
0.20592892169952393 -0.1455165147781372 1.0078214406967163
0.2014445811510086 -0.2006879448890686 1.0890616178512573
0.10340146720409393 -0.4024154245853424 1.1152626276016235
0.08132145553827286 -0.43905872106552124 1.106727123260498
0.04390047490596771 -0.4763414263725281 1.026715874671936
0.04125487059354782 -0.4720281958580017 1.0316580533981323
0.15579180419445038 -0.21232691407203674 0.9251362085342407
0.14410996437072754 -0.2177872359752655 0.9205365180969238
0.23072081804275513 -0.1300373375415802 1.0343385934829712
0.22408288717269897 -0.14933785796165466 1.0335553884506226
0.10849129408597946 -0.4019708037376404 1.118419885635376
0.12435931712388992 -0.30875569581985474 0.9965087175369263
0.12349081039428711 -0.3247741758823395 1.0037167072296143
0.14505411684513092 -0.31548187136650085 1.0656284093856812
0.1375054121017456 -0.33190709352493286 1.0680791139602661
0.12751629948616028 -0.3470168113708496 1.0677950382232666
0.16504833102226257 -0.2561054527759552 0.9831628203392029
0.24963614344596863 -0.10374924540519714 1.0302358865737915
0.24523121118545532 -0.11352425813674927 1.019822120666504
0.04637717083096504 -0.5154702663421631 1.072188138961792
0.1713729351758957 -0.2720602750778198 1.039304494857788
0.1633267104625702 -0.288900762796402 1.0306109189987183
0.17127379775047302 -0.2532587945461273 0.9999186992645264
0.16459329426288605 -0.24942442774772644 0.9726380109786987
0.15026593208312988 -0.26803821325302124 0.9872904419898987
0.188563272356987 -0.24959434568881989 1.0319095849990845
0.19304697215557098 -0.24634873867034912 1.0475902557373047
0.18543115258216858 -0.255136102437973 1.0454190969467163
0.17966407537460327 -0.2590334117412567 1.0292730331420898
0.16435784101486206 -0.22006027400493622 1.0354177951812744
0.1696060448884964 -0.19779622554779053 1.01983642578125
0.16449376940727234 -0.20816180109977722 1.0294193029403687
0.15881137549877167 -0.21516817808151245 1.0172302722930908
0.05997928977012634 -0.4346539378166199 1.0662319660186768
0.1520010381937027 -0.21635490655899048 0.9868139028549194
0.055496253073215485 -0.47125786542892456 1.095733642578125
0.13046890497207642 -0.27299487590789795 1.0048398971557617
0.23729544878005981 -0.09181855618953705 1.0376816987991333
0.23105256259441376 -0.102367103099823 1.0308030843734741
0.23170842230319977 -0.09800427407026291 1.0192867517471313
0.16735798120498657 -0.24621781706809998 1.0612980127334595
0.16720928251743317 -0.2598360776901245 1.0827733278274536
0.16795587539672852 -0.252195805311203 1.070162057876587
0.14866100251674652 -0.23358598351478577 0.9570888876914978
0.13734592497348785 -0.2349599152803421 0.9160047173500061
0.07613188028335571 -0.4196307361125946 1.0377693176269531
0.06913512945175171 -0.43020832538604736 1.038466215133667
0.062250420451164246 -0.4391920566558838 1.0414799451828003
0.19011789560317993 -0.19865603744983673 1.0388619899749756
0.1773674637079239 -0.2655419111251831 1.0854005813598633
0.16948874294757843 -0.2685484290122986 1.08207368850708
0.17068856954574585 -0.26165714859962463 1.072424292564392
0.16708257794380188 -0.2568555176258087 1.056293249130249
0.033227480947971344 -0.4997643828392029 1.0372579097747803
0.029065759852528572 -0.5319154858589172 1.065034031867981
0.26273539662361145 -0.06649702787399292 1.031811237335205
0.265495628118515 -0.049688659608364105 1.0106408596038818
0.2668938934803009 -0.05151360481977463 1.0262702703475952
0.26282885670661926 -0.06358932703733444 1.024646282196045
0.2596147060394287 -0.06868411600589752 1.0154738426208496
0.26050475239753723 -0.0576077401638031 1.0076483488082886
0.25456562638282776 -0.06879173964262009 1.009720802307129
0.1428433060646057 -0.2688251733779907 0.9804293513298035
0.24699801206588745 -0.08499015122652054 1.0048285722732544
0.233953595161438 -0.12949508428573608 1.013317584991455
0.2205996811389923 -0.1426086723804474 1.0096361637115479
0.22547471523284912 -0.15361061692237854 1.0236822366714478
0.20273612439632416 -0.2054464966058731 1.031964898109436
0.2029966562986374 -0.21490523219108582 1.0459798574447632
0.15985196828842163 -0.24677036702632904 0.9615995287895203
0.14975574612617493 -0.3200533986091614 1.0408858060836792
0.15537187457084656 -0.30154597759246826 1.0227450132369995
0.10420769453048706 -0.4296778440475464 1.0645582675933838
0.14101257920265198 -0.34482455253601074 1.0432530641555786
0.13525229692459106 -0.3642430603504181 1.0472630262374878
0.13468873500823975 -0.3544655442237854 1.0444416999816895
0.12635953724384308 -0.3792378306388855 1.0453795194625854
0.1191239058971405 -0.3089827299118042 1.0533199310302734
0.11102098226547241 -0.31683266162872314 1.0499261617660522
0.1333484649658203 -0.28984692692756653 1.055807113647461
0.11776269972324371 -0.30705904960632324 1.0399961471557617
0.040227070450782776 -0.48392248153686523 1.056046485900879
0.19230304658412933 -0.1687081754207611 1.0136101245880127
0.18600726127624512 -0.18341174721717834 1.0149799585342407
0.18437500298023224 -0.18329660594463348 1.029688835144043
0.21085362136363983 -0.13784077763557434 1.0285918712615967
0.20986932516098022 -0.1479056179523468 1.0333950519561768
0.09434156119823456 -0.39730507135391235 1.100717544555664
0.09285710752010345 -0.40287095308303833 1.0967023372650146
0.1092124953866005 -0.38367050886154175 1.091703176498413
0.058127205818891525 -0.4511643052101135 1.039351463317871
0.16740883886814117 -0.1811750829219818 0.9262872338294983
0.1584981083869934 -0.19587814807891846 0.9260602593421936
0.26632529497146606 -0.040540337562561035 1.0163384675979614
0.2627507150173187 -0.04564063251018524 1.0126924514770508
0.2607617974281311 -0.09430491924285889 1.064326524734497
0.2568380832672119 -0.09754785150289536 1.061470627784729
0.05262286216020584 -0.5039637088775635 1.1005516052246094
0.043667860329151154 -0.5242360234260559 1.092265009880066
0.05564872547984123 -0.5010434985160828 1.0742956399917603
0.13135595619678497 -0.2961134910583496 0.9892500638961792
0.27183616161346436 -0.06946828961372375 1.0427734851837158
0.2719397246837616 -0.07113064080476761 1.0511021614074707
0.2644377052783966 -0.08386018872261047 1.0436369180679321
0.19619940221309662 -0.2403431087732315 1.0631513595581055
0.10885602235794067 -0.40644192695617676 1.0629411935806274
0.18126752972602844 -0.2200343906879425 0.9815030694007874
0.17773617804050446 -0.23416197299957275 0.988151490688324
0.06311845034360886 -0.4133627116680145 1.0711514949798584
0.05817141383886337 -0.4225563406944275 1.0734999179840088
0.17342112958431244 -0.2102382481098175 1.0475459098815918
0.1373741775751114 -0.26593321561813354 1.0226662158966064
0.12760436534881592 -0.28252655267715454 1.0338969230651855
0.18778544664382935 -0.19270581007003784 1.0354679822921753
0.24955379962921143 -0.06740669906139374 1.0143123865127563
0.24228578805923462 -0.07931135594844818 1.011041283607483
0.24133339524269104 -0.08155746757984161 1.0070796012878418
0.2545969784259796 -0.08921132981777191 1.0672515630722046
0.24877388775348663 -0.09133744984865189 1.065276861190796
0.24635206162929535 -0.08937720209360123 1.0483925342559814
0.03942622244358063 -0.5176388025283813 1.098974347114563
0.09306535124778748 -0.3569396138191223 0.9979135990142822
0.09316105395555496 -0.3484615683555603 0.9746052622795105
0.2577488422393799 -0.05155498534440994 1.0088763236999512
0.081266388297081 -0.44594547152519226 1.1086339950561523
0.07459287345409393 -0.46656590700149536 1.1173994541168213
0.21073438227176666 -0.16757923364639282 1.0353654623031616
0.1990838348865509 -0.18353945016860962 1.0396184921264648
0.1396304965019226 -0.2333276867866516 0.9129619598388672
0.26275113224983215 -0.07865693420171738 1.055389642715454
0.26905056834220886 -0.054390907287597656 1.0385184288024902
0.2649151086807251 -0.06152837723493576 1.0368835926055908
0.17349709570407867 -0.18547576665878296 0.9261064529418945
0.16804859042167664 -0.20790836215019226 0.9464393258094788
0.24299845099449158 -0.1196989044547081 1.0270397663116455
0.1017366349697113 -0.3636660873889923 0.9996815323829651
0.10241340100765228 -0.3503064513206482 0.9751765131950378
0.14628015458583832 -0.3269702196121216 1.077731728553772
0.11718756705522537 -0.37469783425331116 1.0373305082321167
0.11948204785585403 -0.3809608817100525 1.0443391799926758
0.1319941282272339 -0.3414522111415863 1.0311176776885986
0.12619833648204803 -0.3528561592102051 1.0358456373214722
0.14151817560195923 -0.2594190835952759 1.0378928184509277
0.13430653512477875 -0.30114230513572693 1.061957836151123
0.12208414822816849 -0.3206433057785034 1.0609840154647827
0.08957047760486603 -0.38269859552383423 1.0193138122558594
0.15787085890769958 -0.20367491245269775 0.9440780878067017
0.1505742073059082 -0.20970192551612854 0.9328399896621704
0.14846332371234894 -0.22400346398353577 0.953646183013916
0.18002688884735107 -0.253113329410553 1.0816384553909302
