-0.13788935542106628 -0.015520969405770302 0.5223285555839539
-0.06324136257171631 0.06264423578977585 1.7360146045684814
-0.12558801472187042 -0.11529175937175751 1.5960400104522705
-0.03780430182814598 -0.18810412287712097 0.9828624725341797
-0.08091501891613007 -0.03519674763083458 1.4339501857757568
-0.06049053370952606 -0.0640597715973854 1.4190717935562134
-0.08046828210353851 -0.04807683452963829 1.413163185119629
-0.07368932664394379 -0.11505886912345886 1.5294471979141235
-0.11060632765293121 -0.1059543788433075 1.4773318767547607
-0.05560264736413956 -0.005274098366498947 1.4441196918487549
-0.10737708956003189 -0.04005870223045349 0.641287088394165
-0.02306218072772026 0.016247518360614777 1.756251335144043
-0.03216419741511345 0.11737599223852158 1.6676914691925049
-0.06256777048110962 -0.13162632286548615 1.4804368019104004
-0.07537324726581573 -0.10736190527677536 1.435785174369812
-0.03893356770277023 -0.015424966812133789 1.4202568531036377
-0.04944906011223793 -0.11159300059080124 1.4367830753326416
-0.010108903050422668 0.002732805907726288 1.397506594657898
-0.028620893135666847 -0.01757647469639778 1.2731245756149292
-0.017798852175474167 0.06926929950714111 1.7340710163116455
-0.020318763330578804 -0.01695914939045906 1.4478775262832642
-0.02544419839978218 -0.058559246361255646 1.4338297843933105
0.011511430144309998 0.08289538323879242 1.6966884136199951
-0.010197963565587997 0.02607616037130356 1.739537000656128
-0.020379774272441864 -0.050210822373628616 1.4226512908935547
0.007582906633615494 -0.08099576830863953 1.4580013751983643
-0.014655075967311859 -0.03070996329188347 1.4276859760284424
0.07969444245100021 -0.09151351451873779 0.5948218107223511
0.011200841516256332 0.00648866593837738 1.478843331336975
0.1160113662481308 -0.11159515380859375 0.5118213295936584
-0.005556848831474781 -0.1640368402004242 1.262477993965149
0.04399384558200836 -0.04755162447690964 1.253170371055603
0.04671671241521835 -0.07343518733978271 1.1428664922714233
0.15032850205898285 -0.1354488730430603 0.07489912956953049
0.1655280739068985 -0.12782374024391174 0.05490024387836456
0.1363653987646103 -0.004715137183666229 0.08454164862632751
0.009121349081397057 -0.14851625263690948 1.2483668327331543
-0.0007356572896242142 -0.18867570161819458 1.1739660501480103
0.07368363440036774 -0.14095033705234528 0.734664261341095
0.1326274275779724 -0.05613543838262558 0.05882708728313446
0.037877440452575684 0.016082122921943665 1.6996660232543945
-0.007191013544797897 -0.1273289918899536 1.604400873184204
-0.009964633733034134 -0.1105671301484108 1.5202851295471191
-0.008143935352563858 -0.11106394231319427 1.477090835571289
0.09805759787559509 -0.1618667095899582 0.8803995847702026
0.08530561625957489 0.006181593984365463 1.7279956340789795
0.01658434420824051 0.004976134747266769 1.5307235717773438
0.014874155633151531 -0.014989752322435379 1.5015002489089966
0.13898520171642303 -0.022272704169154167 0.3316999077796936
0.13117484748363495 -0.013859037309885025 0.2695956528186798
0.14853239059448242 0.004548721015453339 0.06683893501758575
0.029522575438022614 0.002262681722640991 1.7831032276153564
0.0487065315246582 -0.016867801547050476 1.3995767831802368
0.09861750900745392 -0.21954673528671265 0.866824746131897
0.08940085023641586 -0.13251495361328125 0.8675318956375122
0.12949681282043457 -0.19602563977241516 0.8691926002502441
0.09802305698394775 -0.040359899401664734 0.7554104924201965
0.192304790019989 -0.12768790125846863 0.06694944202899933
0.047471173107624054 0.004835315048694611 1.7106173038482666
0.03409538045525551 -0.1608755886554718 1.1414365768432617
0.037269674241542816 -0.1352580189704895 1.2653799057006836
0.037736665457487106 -0.15146905183792114 1.2629987001419067
0.12461681663990021 -0.1900177299976349 0.9362283945083618
0.0349314846098423 -0.06804340332746506 1.542081356048584
0.04561987146735191 0.004663124680519104 1.541911005973816
0.04086483269929886 -0.020580880343914032 1.5283172130584717
0.04672813042998314 -0.03650465980172157 1.52353835105896
0.054424237459897995 -0.04857650771737099 1.5004079341888428
0.13901744782924652 -0.06596259027719498 0.6537966728210449
0.1370479166507721 -0.1315128654241562 0.6732556223869324
0.06061970815062523 -0.05185817927122116 1.3823984861373901
0.06582362949848175 -0.007105473428964615 1.3217401504516602
0.03447284549474716 -0.009401865303516388 1.3392112255096436
0.0438736230134964 -0.03016052022576332 1.3150928020477295
0.12597507238388062 -0.11928786337375641 0.8358266353607178
0.19315998256206512 -0.012887373566627502 0.0698680654168129
0.20619826018810272 -0.03700455278158188 0.06519071757793427
0.056889474391937256 -0.0032981261610984802 1.6647905111312866
0.0730711817741394 -0.029864680022001266 1.3744194507598877
0.20214486122131348 -0.0684547945857048 0.3171027600765228
0.0816698893904686 0.0128791444003582 1.64091956615448
0.06024517863988876 0.039972659200429916 1.6455683708190918
0.0680171325802803 0.010155972093343735 1.609616994857788
0.20916277170181274 -0.04381060600280762 0.1414867490530014
0.21622303128242493 -0.09533154964447021 0.06822777539491653
0.20532378554344177 -0.12499017268419266 0.0948125496506691
0.15097251534461975 -0.015836209058761597 0.9763225317001343
0.15104320645332336 -0.016506411135196686 0.877751886844635
0.08231887221336365 -0.01148562878370285 1.7240118980407715
0.16798314452171326 0.0368402861058712 0.8844543695449829
0.17923924326896667 0.00030483631417155266 0.9479571580886841
0.08938132226467133 -0.017262157052755356 1.3167515993118286
0.10015818476676941 -0.037508007138967514 1.3042694330215454
0.07165784388780594 -0.05428639426827431 1.351244330406189
0.10076203942298889 -0.027066092938184738 1.2629668712615967
0.090988390147686 -0.030137307941913605 1.2428057193756104
0.10339397192001343 -0.1038612350821495 1.23185396194458
0.11630469560623169 -0.060653142631053925 1.2652337551116943
0.13790905475616455 -0.04039337858557701 1.19931960105896
0.15334509313106537 -0.049953632056713104 1.1242380142211914
0.17751339077949524 -0.06507807224988937 1.1393487453460693
0.16276371479034424 -0.07763543725013733 1.190062403678894
0.1339389532804489 -0.11070061475038528 1.210378885269165
0.18111754953861237 -0.0890451967716217 1.0884308815002441
0.19386833906173706 -0.1512758433818817 1.1435471773147583
0.20377129316329956 -0.13113194704055786 1.1232337951660156
0.19650669395923615 -0.10596183687448502 1.0954164266586304
0.14998167753219604 -0.18489056825637817 1.128199815750122
0.1748523861169815 -0.15772566199302673 1.0944769382476807
0.17700029909610748 -0.13943932950496674 1.0801362991333008
0.20815737545490265 -0.2245187759399414 0.9828730821609497
0.1533716768026352 -0.17254623770713806 1.0952904224395752
0.15302646160125732 -0.1911916583776474 1.0670466423034668
0.1933891773223877 -0.17596355080604553 1.0121554136276245
0.15839451551437378 -0.18194207549095154 1.0413780212402344
0.15075385570526123 -0.2081054002046585 1.0459935665130615
0.17457018792629242 -0.2063077986240387 1.016105055809021
0.19229519367218018 -0.21313031017780304 1.011539340019226
0.1460774689912796 -0.23009523749351501 1.020548701286316
0.16995155811309814 -0.22573448717594147 1.01128351688385
0.15737193822860718 -0.22577126324176788 1.0203211307525635
0.20059163868427277 -0.23041391372680664 0.9633560180664062
0.16365528106689453 -0.24055664241313934 1.0083580017089844
0.18531543016433716 -0.2132052481174469 0.9766750931739807
0.1845014989376068 -0.24564458429813385 0.9768377542495728
0.20059490203857422 -0.24038241803646088 0.9793906807899475
-0.3111858665943146 -0.04607841745018959 1.0884487628936768
-0.3011431396007538 -0.10072557628154755 1.0778400897979736
-0.2887343764305115 -0.08477551490068436 1.0743203163146973
-0.30445757508277893 -0.11693115532398224 1.1143856048583984
-0.2583962678909302 -0.04484250769019127 1.0828908681869507
-0.27969682216644287 -0.11831864714622498 1.0973644256591797
-0.20390863716602325 -0.008780984207987785 1.2262417078018188
-0.20162583887577057 -0.06114949285984039 1.2048083543777466
-0.17148655652999878 -0.09669052809476852 0.964943528175354
-0.17542460560798645 -0.014859754592180252 0.9466867446899414
-0.1255793422460556 0.051145028322935104 0.9305410981178284
-0.09106609970331192 0.14574386179447174 1.252366304397583
-0.0836266577243805 0.14303773641586304 1.194375991821289
-0.08111432194709778 0.16624873876571655 1.1680158376693726
-0.15005338191986084 -0.011126489378511906 0.9662128686904907
-0.20082959532737732 0.039534151554107666 1.7024825811386108
-0.1536158174276352 0.007172495126724243 1.343234896659851
-0.17395973205566406 0.006597533822059631 1.2780612707138062
-0.016465529799461365 0.15538474917411804 1.0734264850616455
-0.03852896764874458 0.15947449207305908 0.9944781064987183
-0.2951250374317169 -0.08122200518846512 0.12522897124290466
-0.31395256519317627 -0.13254733383655548 0.0760289877653122
-0.17835351824760437 0.02824714034795761 1.6858861446380615
-0.16288815438747406 0.04043680801987648 1.6320774555206299
-0.15771202743053436 -0.12096749246120453 1.2396879196166992
-0.1576010286808014 -0.13702145218849182 1.2141705751419067
-0.16196995973587036 -0.15671738982200623 1.209877848625183
-0.10029320418834686 0.10813064128160477 1.3635085821151733
-0.09220258891582489 0.1000291034579277 1.3595921993255615
-0.13848313689231873 -0.12365297973155975 1.2549418210983276
-0.14744415879249573 -0.0539984256029129 1.1973028182983398
-0.2661024034023285 -0.09797164797782898 0.1898575723171234
-0.2735937237739563 -0.05293894559144974 0.1977611780166626
-0.0437181331217289 0.12236718833446503 1.2471165657043457
-0.15941771864891052 -0.009922292083501816 1.438880443572998
-0.1579439491033554 -0.004346169531345367 1.4182898998260498
-0.14445430040359497 -0.007755376398563385 1.4011712074279785
-0.15882249176502228 -0.002800069749355316 1.3980950117111206
-0.15853410959243774 -0.02082766592502594 1.388620376586914
-0.14983470737934113 -0.10828001797199249 0.794198751449585
-0.16201549768447876 -0.06958869099617004 0.7899419069290161
-0.0064752064645290375 0.2119048833847046 1.0839837789535522
-0.009601245634257793 0.20966915786266327 1.1334422826766968
-0.12948057055473328 -0.11689575016498566 1.2499940395355225
-0.12778644263744354 -0.10901163518428802 0.8659943342208862
-0.26786911487579346 -0.018715620040893555 0.12217780947685242
-0.2731148898601532 -0.018800918012857437 0.08497513830661774
-0.13880611956119537 -0.18505994975566864 0.8515558242797852
-0.04100611060857773 0.18168659508228302 1.230055570602417
-0.16195207834243774 -0.08375009149312973 1.5936356782913208
-0.12959672510623932 0.02527041733264923 1.5159567594528198
-0.09377865493297577 0.10678096115589142 1.4883110523223877
-0.09596684575080872 0.07215934246778488 1.5443170070648193
-0.11606300622224808 0.07238484919071198 1.5182826519012451
-0.1003417894244194 0.08901015669107437 1.4355998039245605
-0.049222905188798904 0.12622064352035522 1.5322813987731934
-0.12208181619644165 -0.009449601173400879 1.468178153038025
-0.08366095274686813 0.0437001958489418 0.9735656976699829
-0.13982577621936798 0.03416820615530014 1.7846115827560425
-0.14892634749412537 0.028353393077850342 1.7784831523895264
-0.154098242521286 0.01769033819437027 1.7648954391479492
-0.01900629512965679 0.0687859058380127 1.4305204153060913
-0.07045809924602509 0.12028791755437851 1.406898856163025
-0.2124178409576416 -0.08159483224153519 0.04685603827238083
-0.018740423023700714 0.15545807778835297 1.355866551399231
-0.12736772000789642 -0.08534429222345352 1.507968544960022
-0.1821366846561432 -0.058387283235788345 0.3996972143650055
-0.06049569323658943 0.06893591582775116 1.4883190393447876
-0.08533382415771484 0.030792616307735443 1.4700008630752563
-0.026858672499656677 0.13061320781707764 1.455312728881836
-0.03232434764504433 0.05082075670361519 0.8567228317260742
-0.19100822508335114 0.0040283361449837685 0.3505202531814575
0.03848663717508316 0.17030847072601318 0.9973671436309814
-0.031082840636372566 0.03553227707743645 1.0314345359802246
-0.11128351837396622 -0.148636132478714 1.249497652053833
-0.10405091941356659 -0.15139441192150116 1.1507275104522705
-0.1796812117099762 -0.023884017020463943 0.3279685378074646
-0.16513900458812714 -0.03845227137207985 0.26554813981056213
-0.19566397368907928 0.010837793350219727 0.26095137000083923
-0.0673382356762886 0.05207444354891777 1.5053298473358154
-0.0931207537651062 -0.10138553380966187 0.6892411112785339
-0.11884800344705582 -0.027252621948719025 0.6627320647239685
0.04303671419620514 0.2118266224861145 1.125603437423706
0.04955042153596878 0.20325025916099548 1.043728232383728
-0.059175070375204086 -0.18465140461921692 1.1765365600585938
-0.1941225379705429 -0.06747155636548996 0.13019295036792755
0.03786911070346832 0.15475249290466309 1.0344300270080566
0.027545606717467308 0.13391385972499847 1.0700429677963257
-0.0006475746631622314 0.04752807319164276 1.4984790086746216
-0.09331250935792923 -0.08177646994590759 1.3824697732925415
0.0333213210105896 0.15864728391170502 1.3384910821914673
0.02567354030907154 0.05828748643398285 1.4213199615478516
-0.01031043753027916 0.0405096597969532 1.498450517654419
0.08509920537471771 0.14431612193584442 1.04475736618042
0.10309737920761108 0.1316748857498169 1.0011770725250244
-0.030893554911017418 -0.099036805331707 1.3785438537597656
0.013350537046790123 0.0336797833442688 1.0298668146133423
-0.03202872350811958 -0.20009440183639526 1.1056950092315674
0.09219671785831451 0.12783734500408173 1.3635863065719604
0.008259370923042297 -0.016612600535154343 1.28999924659729
0.06044789403676987 0.10366493463516235 1.462392807006836
0.026157556101679802 0.05957043915987015 1.4628543853759766
0.022459950298070908 -0.03535483032464981 1.2028391361236572
0.04559731483459473 0.09278610348701477 0.9210481643676758
-0.014714490622282028 -0.018438391387462616 1.7213122844696045
0.13180503249168396 -0.10623340308666229 0.08608967065811157
0.12259635329246521 -0.11557269096374512 0.060831546783447266
0.125420480966568 -0.049825519323349 0.09860685467720032
-0.05107540264725685 -0.13043782114982605 1.5974336862564087
0.06997068226337433 -0.062355972826480865 0.7189005613327026
0.0812530368566513 0.043782491236925125 1.432787299156189
0.018680905923247337 -0.04833722859621048 1.4677116870880127
0.0565495528280735 -0.03418419882655144 1.417860746383667
0.017333360388875008 -0.00450829416513443 1.3947232961654663
0.11816690862178802 -0.03597503900527954 0.3993462920188904
0.14101818203926086 -0.1219194233417511 0.24252882599830627
0.13598515093326569 -0.03554588556289673 0.20456282794475555
0.1470905840396881 0.12992596626281738 1.0531765222549438
0.14288382232189178 0.15576431155204773 1.0222766399383545
0.1071186512708664 -0.14586491882801056 0.7464970350265503
0.11326424777507782 -0.05230730399489403 0.663125216960907
-0.017405148595571518 -0.06514603644609451 1.7063578367233276
0.023145392537117004 -0.07764343172311783 1.6642231941223145
0.1304907202720642 -0.13019543886184692 0.5557152032852173
0.0065983254462480545 -0.012458432465791702 1.7351090908050537
0.02981201745569706 -0.029786139726638794 1.6853466033935547
0.05824679508805275 -0.10015749931335449 1.1385811567306519
0.06349719315767288 -0.08890268206596375 1.1124916076660156
0.05363154038786888 -0.16024678945541382 1.0952471494674683
0.0062921494245529175 -0.11476834118366241 1.5967482328414917
0.031675197184085846 -0.048843011260032654 1.4976391792297363
0.02050197124481201 -0.0880739614367485 1.4947810173034668
0.1847987025976181 0.10735204815864563 1.0163017511367798
0.05179693549871445 -0.0928502306342125 1.2909588813781738
0.06120983511209488 -0.1554955542087555 1.2545032501220703
0.06236860901117325 -0.10462823510169983 1.2367180585861206
0.17703205347061157 -0.01953163743019104 0.15763507783412933
0.19245083630084991 -0.10131340473890305 0.17957615852355957
0.20685319602489471 -0.0883435383439064 0.1650470346212387
0.04559159278869629 -0.009407807141542435 1.709623098373413
0.06012772396206856 -0.10143508017063141 1.2931467294692993
0.1915229856967926 -0.039189524948596954 0.4402971565723419
0.171058788895607 -0.09435707330703735 0.49315786361694336
0.1999269425868988 -0.053520116955041885 0.3833158612251282
0.06880640238523483 -0.050445348024368286 1.4112688302993774
0.05573347210884094 -0.047519002109766006 1.4077777862548828
0.0754217579960823 -0.03966008871793747 1.367138385772705
0.11793658137321472 0.06283020973205566 0.9302836656570435
0.1303078532218933 -0.11718817055225372 0.8712649345397949
0.2051783949136734 -0.038791730999946594 0.2576054036617279
0.22179411351680756 -0.06943311542272568 0.26504701375961304
0.07833532243967056 -0.020473036915063858 1.359809398651123
0.15787145495414734 0.06289135664701462 1.2824926376342773
0.1698329597711563 0.08732528984546661 1.2605690956115723
0.06851775199174881 -0.22768758237361908 1.1540788412094116
0.14675310254096985 -0.06682510673999786 1.0017050504684448
0.14862340688705444 -0.12409237027168274 0.9959715604782104
0.1033838614821434 -0.024935733526945114 1.1882970333099365
0.11286172270774841 -0.13877008855342865 1.089478850364685
0.13380847871303558 -0.10359671711921692 1.069512128829956
0.115020751953125 -0.16699258983135223 1.1566739082336426
-0.29524508118629456 -0.06070360541343689 1.0638550519943237
-0.3044532835483551 -0.11672728508710861 1.04897141456604
-0.23826341331005096 -0.09739644080400467 1.140474557876587
-0.24925187230110168 -0.09654928743839264 1.1872007846832275
-0.21700362861156464 -0.06541909277439117 1.1486929655075073
-0.2154233753681183 -0.02679806761443615 1.166860818862915
-0.1901175081729889 -0.15102097392082214 0.8792626261711121
-0.06766454875469208 0.16863016784191132 1.032765507698059
-0.07974957674741745 0.15905146300792694 1.1306267976760864
-0.1712171882390976 -0.22159340977668762 1.1207795143127441
-0.13862071931362152 -0.15912702679634094 0.9565540552139282
-0.2787875831127167 -0.040310487151145935 0.28599628806114197
-0.2566562592983246 -0.08994965255260468 0.30042240023612976
-0.20370349287986755 0.013530883006751537 0.5044313073158264
-0.1497475802898407 -0.19111263751983643 0.8574279546737671
-0.18095317482948303 -0.046342868357896805 0.6468489766120911
-0.16953390836715698 -0.09008484333753586 0.698575496673584
-0.15139691531658173 -0.03339007869362831 0.705573558807373
-0.10243647545576096 -0.019570529460906982 1.0926097631454468
-0.11557622998952866 -0.07658302038908005 1.1160643100738525
7.581990212202072e-05 0.1998634785413742 1.2020841836929321
-0.11284881830215454 -0.01904701441526413 0.8615947961807251
-0.21311350166797638 -0.10223501175642014 0.3123101592063904
-0.11823402345180511 -0.022988637909293175 1.1953814029693604
-0.09515552222728729 -0.03973574563860893 1.12508225440979
-0.19581353664398193 -0.07989325374364853 0.4523197412490845
-0.14365381002426147 0.013117507100105286 1.703369140625
-0.15088029205799103 -0.021473515778779984 1.6902673244476318
-0.11528168618679047 -0.05838404595851898 1.698986291885376
-0.13459879159927368 -0.09288004040718079 1.657462477684021
-0.14789660274982452 -0.08573590964078903 1.5589821338653564
-0.18946921825408936 -0.05952377989888191 0.3447782099246979
-0.08520199358463287 -0.11495053768157959 0.7386422157287598
-0.16845311224460602 -0.06852864474058151 0.2734279930591583
-0.18670478463172913 -0.09720377624034882 0.2794434428215027
-0.2040720283985138 -0.01744750142097473 0.20845606923103333
-0.04533923417329788 0.0641724243760109 0.9627260565757751
-0.09916006028652191 0.021270204335451126 1.7477933168411255
-0.11704178154468536 0.011277657002210617 1.7344671487808228
0.06671883910894394 0.11997278034687042 1.1876320838928223
-0.012819492258131504 0.13948871195316315 1.183171272277832
0.04126535356044769 0.11158347129821777 1.2403168678283691
-0.008836857974529266 -0.03488404303789139 1.2397629022598267
0.06333162635564804 0.18443632125854492 1.2357056140899658
0.07015323638916016 0.13250818848609924 1.075704574584961
0.12501293420791626 0.18789461255073547 1.161806344985962
0.011006472632288933 0.10464364290237427 1.6418774127960205
0.0994233638048172 0.11649926006793976 1.0858780145645142
0.039047837257385254 -0.2181175947189331 0.9069716930389404
0.10634523630142212 -0.08504991978406906 0.2610618770122528
0.13745011389255524 -0.0957314521074295 0.2012888640165329
0.06880863010883331 -0.1298809051513672 0.7015973925590515
0.03170432150363922 0.005192731507122517 1.0669054985046387
0.09534052014350891 -0.04867403581738472 0.5722371935844421
0.09601239860057831 0.08051422983407974 1.3061989545822144
0.03938717767596245 -0.058750759810209274 1.4014723300933838
0.04120583087205887 0.08826354891061783 1.6063143014907837
0.02936098724603653 0.02337820827960968 1.5728700160980225
0.03529832512140274 0.03906448930501938 1.5503289699554443
0.0009456761181354523 -0.006456438452005386 1.7815337181091309
0.0399741604924202 -0.08080416917800903 1.3388707637786865
0.16028940677642822 -0.017998846247792244 0.5055739879608154
0.12742120027542114 -0.005550934001803398 0.5011557936668396
0.15637314319610596 -0.012376077473163605 0.35100775957107544
0.17873717844486237 -0.015991557389497757 0.32242417335510254
0.05537043511867523 -0.046470724046230316 1.4887373447418213
0.04251236096024513 -0.055092740803956985 1.4983171224594116
0.055758602917194366 -0.05074891448020935 1.4824885129928589
0.13230666518211365 -0.052163172513246536 0.770689070224762
0.152456596493721 -0.09543655812740326 0.6408642530441284
0.11658273637294769 0.022943636402487755 0.9708033800125122
0.09448103606700897 -0.07994212210178375 1.0917478799819946
0.08682389557361603 -0.13359525799751282 1.0808253288269043
0.09715349972248077 -0.15785041451454163 1.0307976007461548
0.058049362152814865 -0.012157551944255829 1.6095473766326904
0.07011829316616058 -0.01752023957669735 1.528519630432129
0.05618143826723099 -0.14827249944210052 1.2357473373413086
0.0932541936635971 0.05147666484117508 1.518026351928711
0.07902196049690247 0.024352215230464935 1.5573058128356934
0.2069915235042572 -0.017360150814056396 0.09341755509376526
0.2208920568227768 -0.060719821602106094 0.08012878149747849
0.10205334424972534 0.029816608875989914 1.4844199419021606
0.11043823510408401 0.042039766907691956 1.4532523155212402
0.120467409491539 0.029987186193466187 1.420583724975586
0.12347139418125153 0.04213225096464157 1.40663480758667
0.06540686637163162 -0.22894330322742462 1.1730551719665527
0.1763191521167755 -0.1582263708114624 0.8861579298973083
0.07892954349517822 -0.20493797957897186 1.1842968463897705
0.07559071481227875 -0.2309686839580536 1.173586368560791
0.20337246358394623 -0.11357805132865906 0.9065946936607361
0.20603060722351074 -0.09068362414836884 0.8871358036994934
0.21460968255996704 -0.05576702952384949 0.8975464105606079
-0.22151297330856323 -0.08842380344867706 1.1929678916931152
-0.18197135627269745 -0.0873887836933136 1.2566051483154297
-0.1900431513786316 -0.08731856942176819 1.2409660816192627
-0.1816134750843048 -0.07908347249031067 1.2464122772216797
-0.17663627862930298 -0.078374482691288 1.2633423805236816
-0.1951989233493805 0.0024042371660470963 0.8876225352287292
-0.15131664276123047 -0.045465126633644104 1.280373454093933
-0.1458752602338791 -0.06381691247224808 1.066286325454712
-0.13388492166996002 0.10128331184387207 1.5230621099472046
-0.14909860491752625 -0.08094766736030579 1.1880244016647339
-0.14768818020820618 -0.07646378874778748 1.13396418094635
-0.10151540488004684 0.10197598487138748 1.41972815990448
-0.08523092418909073 0.09496613591909409 1.3827663660049438
-0.1349545419216156 -0.13955798745155334 1.0309016704559326
-0.10085752606391907 -0.16518452763557434 0.9923667907714844
-0.13831296563148499 -0.026899568736553192 0.7908087372779846
-0.010056896135210991 0.17818580567836761 1.2681294679641724
-0.07737736403942108 0.12377075850963593 1.6164888143539429
-0.20013438165187836 -0.03405468538403511 0.07511599361896515
-0.21376819908618927 -0.019338594749569893 0.06655260920524597
-0.08141599595546722 0.025011956691741943 0.8672077059745789
0.0015671011060476303 0.09419767558574677 0.8530703783035278
-0.06702535599470139 -0.02105189487338066 0.8460907936096191
0.028600584715604782 0.08304984867572784 1.3289028406143188
-0.05391833558678627 -0.07966810464859009 0.7641183137893677
-0.08459538221359253 -0.11756251752376556 1.5731556415557861
-0.006921442225575447 0.01419142633676529 0.8721317052841187
-0.005868889391422272 -0.02704782597720623 0.8510687351226807
0.01753900572657585 -0.11927870661020279 0.8563745617866516
-0.07848022878170013 -0.16298188269138336 0.8562321066856384
-0.008481064811348915 -0.22415240108966827 0.8487981557846069
0.03744259476661682 -0.11122177541255951 0.8366288542747498
-0.00919097289443016 -0.16019105911254883 0.860285758972168
-0.019458197057247162 0.0241774283349514 1.4680144786834717
0.029500233009457588 -0.03781647980213165 0.8487074971199036
0.03444340080022812 -0.050633303821086884 0.83246248960495
-0.006756678223609924 0.031027361750602722 1.5460554361343384
-0.0018497370183467865 0.037359483540058136 1.5216249227523804
0.04590705782175064 -0.12502622604370117 0.852441668510437
0.13160227239131927 0.056305818259716034 0.864714503288269
0.10741071403026581 -0.05650973320007324 0.26016175746917725
0.05590340495109558 -0.035866059362888336 0.8222686648368835
0.1014457494020462 0.11149778962135315 1.2173738479614258
0.1358589082956314 -0.08616835623979568 0.38580819964408875
0.13287700712680817 -0.06744056195020676 0.3244253396987915
0.1490916907787323 -0.0892995223402977 0.34047991037368774
0.14744611084461212 -0.12777304649353027 0.28401196002960205
0.08092799782752991 0.06632956862449646 1.4864331483840942
0.0824548602104187 -0.01738787814974785 0.8567749261856079
0.10995624959468842 -0.03634129464626312 0.8377939462661743
0.06294872611761093 -0.07745020091533661 1.2391998767852783
0.16664251685142517 -0.10021363198757172 0.4345202147960663
0.0641777291893959 0.041793566197156906 1.5925390720367432
0.04901177063584328 -0.03286361321806908 1.2866085767745972
0.17973145842552185 -0.0885404646396637 0.34165894985198975
0.13030992448329926 0.16728894412517548 1.218616247177124
0.0715370625257492 -0.06116493046283722 1.212236762046814
0.16574661433696747 -0.02566109038889408 0.21547476947307587
0.17455926537513733 0.15383389592170715 1.1402992010116577
0.16367663443088531 -0.015225647017359734 0.251871258020401
0.19145998358726501 -0.12816345691680908 0.26012226939201355
0.1318780928850174 0.05880678817629814 1.3282153606414795
0.06457400321960449 -0.03283524885773659 1.4461612701416016
0.07221202552318573 -0.03191644698381424 1.414307951927185
0.06246263533830643 -0.03088720142841339 1.4464781284332275
0.08679007738828659 -0.031587034463882446 1.3941075801849365
0.07280423492193222 -0.17135244607925415 1.223278522491455
0.05884175002574921 -0.18132925033569336 1.2175402641296387
0.16305825114250183 0.07591761648654938 1.2405457496643066
0.1924116164445877 0.10555093735456467 1.183372974395752
0.1877807080745697 0.10020657628774643 1.1499879360198975
0.07860144227743149 -0.044455867260694504 1.2436754703521729
0.06998030841350555 -0.0747932642698288 1.2589610815048218
0.15940262377262115 -0.18328726291656494 0.8952838778495789
0.0770784392952919 -0.0840633437037468 1.2702996730804443
0.07263118028640747 -0.11205104738473892 1.1698576211929321
0.09606489539146423 -0.055323418229818344 1.1476428508758545
0.08165378868579865 -0.0951811671257019 1.1373507976531982
0.12698853015899658 -0.1442338228225708 1.1881434917449951
0.1548919677734375 -0.14019080996513367 1.0597023963928223
0.12450872361660004 -0.17793026566505432 1.1137909889221191
-0.17398174107074738 -0.20673447847366333 1.158612847328186
-0.1685171276330948 -0.13990041613578796 1.2043850421905518
-0.1754721850156784 -0.12567798793315887 1.224244475364685
-0.16333752870559692 -0.19414690136909485 1.1601526737213135
-0.11899052560329437 0.1076122373342514 1.448866605758667
-0.12398562580347061 0.09586305171251297 1.4328362941741943
-0.11927326768636703 0.11142546683549881 1.390289068222046
-0.16627128422260284 0.01477997750043869 1.666601538658142
-0.17044921219348907 -0.01872418075799942 1.5829297304153442
-0.24710404872894287 -0.05697151646018028 0.34337350726127625
-0.1331237554550171 -0.06738713383674622 0.8588186502456665
-0.13651876151561737 -0.09169906377792358 0.8395259380340576
-0.053011421114206314 0.1801757514476776 1.0123553276062012
-0.11836446821689606 -0.11526866257190704 1.2426550388336182
-0.12001168727874756 -0.029273193329572678 0.8355207443237305
-0.12153339385986328 -0.004198998212814331 1.713454246520996
-0.10923741012811661 -0.11981344223022461 1.1232664585113525
-0.0779564157128334 -0.18141433596611023 1.1202428340911865
-0.00803217664361 0.1546766608953476 1.114242434501648
0.061301395297050476 0.13484758138656616 1.114487886428833
-0.07277277112007141 -0.02594851143658161 1.1402510404586792
-0.055361658334732056 -0.11458295583724976 0.8496398329734802
-0.06454595923423767 -0.18754108250141144 1.0529447793960571
-0.05162923410534859 0.01580600067973137 1.051538109779358
-0.07519971579313278 -0.10578083246946335 1.6708176136016846
0.037384726107120514 -0.10246717929840088 0.7725669145584106
-0.015734385699033737 0.1031724065542221 1.2976412773132324
0.11977355927228928 -0.07636810839176178 0.05650627613067627
0.1657438725233078 0.16870184242725372 1.0806632041931152
0.12255465984344482 0.12479191273450851 1.1362392902374268
0.11918126046657562 0.19528470933437347 1.0891672372817993
0.10025356709957123 0.08550584316253662 0.8651024699211121
0.1782490462064743 0.00853826105594635 0.08224675804376602
0.12429197132587433 -0.0385114848613739 0.8648948669433594
0.1694229692220688 -0.09092450141906738 0.393171489238739
0.06874348968267441 -0.053121376782655716 1.3822405338287354
0.06299255788326263 -0.07690796256065369 1.3077751398086548
0.19964738190174103 -0.001620161347091198 0.8878856301307678
0.19543789327144623 -0.052444808185100555 0.9524171352386475
0.14252223074436188 -0.1666298806667328 1.078195333480835
-0.2584431767463684 -0.11101914942264557 1.1572256088256836
-0.1934032142162323 -0.08261888474225998 0.9410247802734375
-0.21185433864593506 -0.07220038026571274 0.8900210857391357
-0.12240337580442429 0.09649816155433655 1.3853445053100586
-0.09289609640836716 0.12463900446891785 1.2534784078598022
-0.14861257374286652 0.026970718055963516 1.5056030750274658
-0.1389940083026886 -0.05541348457336426 1.034330129623413
-0.14608480036258698 -0.08467715978622437 1.0724118947982788
-0.14771942794322968 0.030186403542757034 1.5061862468719482
-0.14789196848869324 0.01698891818523407 1.4930531978607178
-0.14887921512126923 0.02340182289481163 1.5013471841812134
-0.1500215232372284 0.02061336487531662 1.5037287473678589
-0.15585599839687347 0.009966745972633362 1.493463397026062
-0.2418229579925537 -0.11738956719636917 0.19319862127304077
-0.17116963863372803 -0.053936250507831573 1.6321362257003784
-0.04666503518819809 -0.01687375083565712 1.1946439743041992
-0.20602019131183624 -0.13361899554729462 0.06671817600727081
-0.06499652564525604 -0.021011458709836006 1.2359882593154907
-0.019306620582938194 -0.03171456977725029 1.1524393558502197
-0.034805312752723694 0.09246504306793213 0.9256716966629028
-0.06445949524641037 -0.019166309386491776 1.7302162647247314
-0.07646091282367706 -0.06598810851573944 0.7040849924087524
0.009393368847668171 0.1035018116235733 1.2661714553833008
-0.00493868812918663 -0.19225499033927917 1.0032083988189697
-0.060067079961299896 -0.17887860536575317 1.2207832336425781
0.0641736313700676 0.12234426289796829 1.155694603919983
0.1269282102584839 -0.05993242189288139 0.1901596486568451
0.051462527364492416 -0.18041259050369263 0.992857813835144
0.10306989401578903 -0.17462731897830963 0.9817960262298584
0.0535864382982254 0.04014988988637924 1.5179705619812012
0.038140423595905304 -0.1669151932001114 1.170326828956604
0.019562698900699615 -0.04167252033948898 1.15297532081604
0.07834065705537796 -0.03457268700003624 1.0847539901733398
0.07761460542678833 0.056337762624025345 0.9610167741775513
0.16771700978279114 -0.10220688581466675 0.02675441838800907
0.14386984705924988 -0.09654873609542847 0.025999050587415695
0.19688718020915985 -0.07839655131101608 0.03594643995165825
0.20923511683940887 -0.10411535203456879 0.2455976903438568
0.06220182403922081 -0.031709931790828705 1.4432873725891113
0.06185201555490494 -0.032020051032304764 1.4450470209121704
0.0526915080845356 -0.048442866653203964 1.3099501132965088
0.06200608238577843 -0.07227905094623566 1.2951350212097168
0.208953395485878 0.11924570798873901 1.0871537923812866
0.20701268315315247 0.09881462156772614 1.0429824590682983
0.21589870750904083 0.10129593312740326 1.0393218994140625
0.16726529598236084 -0.13398343324661255 1.0627230405807495
0.14029482007026672 -0.18925532698631287 1.0597680807113647
0.1449679434299469 -0.21550574898719788 1.05437433719635
-0.2559804320335388 -0.07720670104026794 1.084244966506958
-0.179818794131279 -0.16668716073036194 1.1953767538070679
-0.21578209102153778 -0.06169293820858002 0.37265390157699585
-0.018681161105632782 0.15711888670921326 0.9889367818832397
-0.11543729901313782 -0.14044728875160217 1.0711696147918701
-0.03680118918418884 -0.043354928493499756 0.8437216281890869
-0.0625363141298294 -0.030311286449432373 0.8099843263626099
-0.05831550434231758 -0.08307261765003204 0.8111283779144287
-0.011141860857605934 0.003863365389406681 1.0971065759658813
0.023272037506103516 -0.2074468433856964 0.8390186429023743
0.09763814508914948 0.01322954148054123 0.8725904226303101
0.13894417881965637 0.12030733376741409 1.1046080589294434
0.06849448382854462 0.002565041184425354 1.5320484638214111
0.08152327686548233 0.02245384454727173 1.5121270418167114
0.18294410407543182 -0.12113889306783676 0.9520069360733032
-0.1839967668056488 -0.180677592754364 1.1655604839324951
-0.14277362823486328 0.07190974801778793 1.5388590097427368
0.006874538026750088 0.1648038774728775 1.0343023538589478
-0.12204074114561081 0.09503476321697235 1.5705468654632568
-0.10188964754343033 0.058991689234972 1.5585129261016846
-0.07269524782896042 0.04723086953163147 1.5386452674865723
0.014496279880404472 -0.19596725702285767 1.0621392726898193
0.024669941514730453 -0.13746173679828644 1.2556971311569214
0.16809602081775665 -0.10858454555273056 0.16368992626667023
0.06331251561641693 -0.13114167749881744 1.2147910594940186
0.07792425900697708 -0.12485681474208832 1.1625310182571411
0.10691626369953156 0.04985888674855232 1.4182281494140625
0.0966029167175293 0.07916309684515 1.4310264587402344
0.08428541570901871 -0.08362314105033875 1.1679613590240479
0.1292172074317932 -0.07573005557060242 0.8484865427017212
0.04490270838141441 -0.16343894600868225 1.2426676750183105
0.13529148697853088 0.07351657748222351 1.3475072383880615
-0.0921643003821373 0.11977332085371017 1.3348536491394043
-0.2072599083185196 0.01387602649629116 0.3795199990272522
0.052155639976263046 -0.10268302261829376 0.7317416071891785
-0.024527937173843384 -0.1153806746006012 1.6526548862457275
-0.06800829619169235 0.1806233674287796 1.0762548446655273
-0.17044822871685028 -0.07939472794532776 1.2660106420516968
-0.1646280288696289 -0.026725737378001213 0.4119163751602173
0.020280009135603905 0.12372420728206635 1.4600956439971924
0.12661269307136536 -0.1050942987203598 0.033882997930049896
0.05870182067155838 -0.050834354013204575 1.4813032150268555
0.05731802061200142 -0.0501883402466774 1.4796886444091797
0.059814415872097015 -0.03798947483301163 1.4018292427062988
0.20182815194129944 -0.0886567011475563 0.21620717644691467
0.19831936061382294 -0.053961172699928284 0.2025485634803772
0.08171698451042175 -0.10852762311697006 1.2179601192474365
-0.1714937686920166 -0.15559783577919006 0.9361597895622253
-0.10325893759727478 0.10750712454319 1.362013339996338
-0.10377137362957001 0.10437310487031937 1.362619161605835
-0.10818053781986237 0.10389915108680725 1.3629425764083862
-0.18540608882904053 -0.057264622300863266 0.21099241077899933
-0.03543796017765999 -0.09737105667591095 0.8451918363571167
0.1385757476091385 -0.08770140260457993 0.152677521109581
0.08928213268518448 -0.13864579796791077 1.180757999420166
0.038218703120946884 -0.07550936192274094 1.6129863262176514
0.14636780321598053 -0.09738475829362869 0.7994142770767212
0.12356434762477875 0.039604466408491135 1.388859510421753
0.12988895177841187 0.056005802005529404 1.3576347827911377
0.1275065392255783 -0.02626929059624672 0.06499557942152023
-0.07281456142663956 -0.45620718598365784 1.1284290552139282
-0.06294848024845123 -0.4315585494041443 1.0988560914993286
-0.06703448295593262 -0.4407692551612854 1.1038684844970703
-0.07279151678085327 -0.43168994784355164 1.1092854738235474
-0.07748010009527206 -0.45383062958717346 1.1158212423324585
-0.06723862886428833 -0.44712164998054504 1.1283454895019531
0.01783868670463562 -0.3391042947769165 1.0853805541992188
0.005906588397920132 -0.3400436043739319 1.0817347764968872
0.003337319940328598 -0.35988521575927734 1.0914644002914429
-0.005669374018907547 -0.36573266983032227 1.0952340364456177
0.08947400003671646 -0.2276110053062439 0.998702883720398
0.08358749747276306 -0.23495051264762878 1.017773151397705
0.0850151926279068 -0.2389768362045288 0.9929248094558716
-0.007724536582827568 -0.35484230518341064 1.0497808456420898
-0.013322429731488228 -0.366528183221817 1.0657591819763184
-0.008289018645882607 -0.38446593284606934 1.1195064783096313
-0.0054982490837574005 -0.37568557262420654 1.1068614721298218
0.061588533222675323 -0.2649272382259369 0.9806491732597351
0.056212447583675385 -0.2699296176433563 1.0034834146499634
0.059628233313560486 -0.29391711950302124 1.0729762315750122
0.057877086102962494 -0.2868008613586426 1.0658009052276611
-0.04762909188866615 -0.43583327531814575 1.1366991996765137
-0.051871754229068756 -0.42553725838661194 1.090545892715454
0.08725442737340927 -0.24223113059997559 0.9829561710357666
0.0793435126543045 -0.2458614557981491 0.9794031977653503
0.2186720073223114 -0.10914222151041031 1.0416792631149292
0.21155217289924622 -0.1174728274345398 1.0413390398025513
0.21616311371326447 -0.10989058017730713 1.0211235284805298
-0.02765529230237007 -0.40374091267585754 1.1172281503677368
-0.04000677913427353 -0.42054715752601624 1.1233915090560913
0.08497059345245361 -0.24460765719413757 0.9769936800003052
0.08333351463079453 -0.2454584538936615 0.9676638841629028
-0.09057769179344177 -0.476223886013031 1.079756736755371
-0.09333772212266922 -0.4859382212162018 1.0923106670379639
0.2309432029724121 -0.10061226040124893 1.033993124961853
0.22581303119659424 -0.1074150875210762 1.0472195148468018
0.22571435570716858 -0.10070644319057465 1.0272409915924072
0.21992561221122742 -0.10838457942008972 1.0189000368118286
-0.10204023122787476 -0.5068866014480591 1.1473197937011719
-0.10885491222143173 -0.5224404335021973 1.1610629558563232
-0.11257500946521759 -0.5217195153236389 1.143223524093628
0.024911662563681602 -0.317715585231781 1.0195951461791992
0.01982603780925274 -0.3323672413825989 1.0220115184783936
0.003791866125538945 -0.34708109498023987 1.016906499862671
0.011707805097103119 -0.3459618091583252 1.015728235244751
0.2247885763645172 -0.11541494727134705 1.0518838167190552
0.2297314703464508 -0.103000208735466 1.0220189094543457
-0.013357678428292274 -0.40157508850097656 1.1323261260986328
-0.007124396041035652 -0.40292930603027344 1.134040117263794
-0.024000687524676323 -0.41093188524246216 1.1352390050888062
-0.03158462047576904 -0.4277440905570984 1.1428337097167969
0.04999678581953049 -0.29160821437835693 1.0012904405593872
0.04053639620542526 -0.30484896898269653 0.9988922476768494
0.037196699529886246 -0.3032875657081604 1.005417823791504
0.23237085342407227 -0.10531699657440186 1.0273611545562744
0.22543038427829742 -0.11563335359096527 1.0498480796813965
0.22189366817474365 -0.11454009264707565 1.022003173828125
0.09320700913667679 -0.2282250076532364 0.9353921413421631
0.0895308181643486 -0.23274816572666168 0.9289531707763672
0.08935623615980148 -0.23800413310527802 0.9538241624832153
0.0901365652680397 -0.23893997073173523 0.943561851978302
0.08883251994848251 -0.23335890471935272 0.9388708472251892
-0.00023237615823745728 -0.36652684211730957 1.012882113456726
-5.3173862397670746e-05 -0.35488682985305786 1.0067721605300903
-0.00202964898198843 -0.35980576276779175 0.996343731880188
-0.006564327050000429 -0.36219269037246704 0.9986743330955505
0.22289028763771057 -0.11629432439804077 1.0310566425323486
-0.1061166524887085 -0.530004620552063 1.167852759361267
-0.11030299216508865 -0.5272537469863892 1.1507885456085205
-0.11007989197969437 -0.5392169952392578 1.1665796041488647
-0.11878883838653564 -0.5383568406105042 1.170358657836914
-0.11371788382530212 -0.521929144859314 1.1353485584259033
0.11065953969955444 -0.2430589348077774 0.9941642880439758
0.09338358044624329 -0.248439222574234 0.9824495911598206
-0.07436446100473404 -0.4680105745792389 1.0720566511154175
-0.0921325832605362 -0.4860670566558838 1.0839632749557495
-0.09755253046751022 -0.5008006691932678 1.1006160974502563
0.07617440074682236 -0.2945393919944763 1.0709705352783203
0.06419387459754944 -0.30590060353279114 1.0745325088500977
0.06150481849908829 -0.3186878561973572 1.071492075920105
-0.004210038110613823 -0.402365118265152 1.1352380514144897
-0.008856050670146942 -0.40880152583122253 1.1275204420089722
-0.03705570474267006 -0.44390976428985596 1.142471194267273
0.005142025649547577 -0.37918755412101746 1.1159793138504028
-0.05064084753394127 -0.4488752782344818 1.085152268409729
-0.0731644481420517 -0.47261881828308105 1.0884654521942139
0.07920080423355103 -0.29464614391326904 1.0661407709121704
0.0035556508228182793 -0.39547401666641235 1.100216269493103
0.014479300007224083 -0.3808680474758148 1.091057300567627
-0.004446014761924744 -0.4062214493751526 1.1072020530700684
-0.09193529188632965 -0.5088440775871277 1.1355994939804077
-0.08596326410770416 -0.5007531642913818 1.1227377653121948
-0.0065756612457334995 -0.3833634555339813 1.04836106300354
-0.002108690794557333 -0.38808584213256836 1.0626602172851562
-0.014052752405405045 -0.3981960415840149 1.0687055587768555
-0.007809577509760857 -0.402620792388916 1.0779943466186523
0.03971964865922928 -0.3443586230278015 1.0771887302398682
0.013613132759928703 -0.36816632747650146 1.0895025730133057
-0.0386006236076355 -0.44486382603645325 1.1233736276626587
-0.04847273975610733 -0.46286624670028687 1.1222658157348633
-0.059734854847192764 -0.4627755284309387 1.1281256675720215
-0.038265161216259 -0.4412229359149933 1.096786618232727
-0.043433722108602524 -0.4481009840965271 1.0933506488800049
0.023900359869003296 -0.3607490360736847 1.0444831848144531
0.011624223552644253 -0.3725506663322449 1.0498749017715454
0.01882632076740265 -0.3509412407875061 1.028428077697754
0.011945419944822788 -0.3691704571247101 1.0396040678024292
0.0012174434959888458 -0.3764704167842865 1.051304817199707
0.035481806844472885 -0.34711021184921265 1.0520045757293701
0.046275533735752106 -0.33830660581588745 1.054171085357666
0.04220986366271973 -0.32512062788009644 1.0251035690307617
0.04277776554226875 -0.33529841899871826 1.042197585105896
-0.04768406227231026 -0.45558732748031616 1.1000505685806274
-0.05529981106519699 -0.46923866868019104 1.1100125312805176
-0.056099385023117065 -0.4614608883857727 1.1017003059387207
-0.04514692723751068 -0.4683524966239929 1.1059871912002563
0.11003027111291885 -0.25534602999687195 1.009774923324585
-0.051899295300245285 -0.412975549697876 1.1137776374816895
-0.06456033140420914 -0.4226231575012207 1.107574701309204
-0.0172305665910244 -0.36923378705978394 1.0904278755187988
-0.01706814020872116 -0.36772215366363525 1.0858615636825562
-0.027940934523940086 -0.3778077960014343 1.0969794988632202
-0.022226277738809586 -0.3729085922241211 1.085319995880127
-0.02630646526813507 -0.3810517191886902 1.0950695276260376
0.004131080117076635 -0.3475804328918457 1.0642035007476807
-0.005551098845899105 -0.3545365631580353 1.066976547241211
0.013717804104089737 -0.3345410227775574 1.0574661493301392
-0.02264128439128399 -0.38100650906562805 1.1017820835113525
-0.06664754450321198 -0.4447370171546936 1.0815544128417969
-0.07546418905258179 -0.453702449798584 1.1077847480773926
-0.02069804072380066 -0.37300342321395874 1.0630697011947632
-0.08894744515419006 -0.4677252769470215 1.124165654182434
-0.09874039143323898 -0.48732325434684753 1.1251161098480225
-0.08604730665683746 -0.4758378267288208 1.1138989925384521
-0.10294684022665024 -0.49931764602661133 1.1386858224868774
0.10485703498125076 -0.22605744004249573 1.0155994892120361
0.09857583045959473 -0.25971314311027527 1.0894207954406738
0.08631831407546997 -0.2617585062980652 1.0827919244766235
0.09274561703205109 -0.2647439241409302 1.0898349285125732
0.05040328949689865 -0.2860701382160187 1.0072749853134155
0.20752397179603577 -0.11354057490825653 1.0114840269088745
0.21078729629516602 -0.12392598390579224 1.054923176765442
0.20221421122550964 -0.13306710124015808 1.0504100322723389
0.20063921809196472 -0.12900973856449127 1.042013168334961
0.02382475696504116 -0.34899747371673584 1.0947234630584717
-0.054345082491636276 -0.4491710662841797 1.152221441268921
-0.10598337650299072 -0.5022016763687134 1.1174451112747192
0.16745233535766602 -0.15738683938980103 1.012798547744751
0.15632277727127075 -0.17981740832328796 1.0080004930496216
0.036775168031454086 -0.33289700746536255 1.0962945222854614
0.027261508628726006 -0.33759069442749023 1.0907676219940186
0.003422355279326439 -0.36639970541000366 1.1002284288406372
-0.10900962352752686 -0.511475145816803 1.120124340057373
-0.11152460426092148 -0.5307919979095459 1.1735508441925049
-0.11340662091970444 -0.5356225967407227 1.1771292686462402
-0.1176002249121666 -0.5340906381607056 1.1584519147872925
0.1236792504787445 -0.21130171418190002 1.0123909711837769
0.11547131091356277 -0.2283565253019333 1.0162962675094604
0.01401505246758461 -0.37006789445877075 1.0998023748397827
0.10096091032028198 -0.2293260395526886 0.9968315958976746
-0.09633469581604004 -0.4917626976966858 1.094460368156433
0.131239116191864 -0.23089900612831116 1.0999149084091187
0.13149675726890564 -0.23436909914016724 1.0966639518737793
0.12208611518144608 -0.24065889418125153 1.0872663259506226
0.12191960960626602 -0.24538573622703552 1.0988937616348267
0.11606339365243912 -0.25589486956596375 1.102431297302246
0.10908354818820953 -0.2393215000629425 1.0648846626281738
0.11806955188512802 -0.24204793572425842 1.0692495107650757
-0.1155109703540802 -0.5365875959396362 1.1786527633666992
-0.02072102390229702 -0.38998156785964966 1.0524208545684814
-0.024224555119872093 -0.399550199508667 1.0603655576705933
-0.0289369598031044 -0.4002450108528137 1.0631657838821411
-0.010191612876951694 -0.3764713406562805 1.0349054336547852
0.1261124312877655 -0.24702824652194977 1.0969856977462769
0.11629123985767365 -0.25890815258026123 1.0999459028244019
0.08853663504123688 -0.2520877718925476 0.9703390002250671
0.1275905817747116 -0.24216869473457336 1.0954065322875977
0.12219452857971191 -0.24619460105895996 1.0879521369934082
-0.002379942685365677 -0.39290690422058105 1.1237642765045166
0.0811343640089035 -0.25618040561676025 0.9431869387626648
0.07951335608959198 -0.25410550832748413 0.937821626663208
0.06881896406412125 -0.26247382164001465 0.9297366142272949
0.06477317214012146 -0.26950740814208984 0.9357752799987793
0.12143787741661072 -0.23964765667915344 1.0154975652694702
0.10813446342945099 -0.2656252980232239 1.0864408016204834
-0.014491884037852287 -0.4107491970062256 1.1146528720855713
-0.028277434408664703 -0.42793145775794983 1.1235824823379517
0.08216515928506851 -0.26448526978492737 0.9706622362136841
0.08015439659357071 -0.2708197832107544 0.9709324836730957
0.07445365190505981 -0.26477980613708496 0.956540584564209
-0.023616686463356018 -0.4274527430534363 1.1154603958129883
