-0.10402363538742065 -0.2016994059085846 0.021696994081139565
-0.06003258004784584 0.1701296716928482 1.3668166399002075
-0.0949549674987793 -0.13273128867149353 1.558017611503601
-0.09989340603351593 -0.1704997718334198 0.3886915147304535
-0.055364180356264114 0.051212240010499954 1.5194196701049805
-0.06937626004219055 -0.0023149214684963226 1.503190517425537
-0.04380550980567932 0.12941010296344757 1.4776546955108643
-0.03984513878822327 0.053192127496004105 0.8528400659561157
-0.10372120887041092 -0.11386292427778244 0.33157122135162354
-0.03675336390733719 0.24702152609825134 0.9510484933853149
-0.0352286621928215 0.040820181369781494 1.037318468093872
-0.07625278830528259 -0.17638233304023743 1.2588562965393066
-0.07698510587215424 -0.16282004117965698 1.1598554849624634
-0.091160349547863 -0.14308591187000275 0.31496933102607727
-0.0703735277056694 -0.16669584810733795 0.25783517956733704
-0.10028699040412903 -0.11736448854207993 0.24679148197174072
-0.05424942821264267 0.028668928891420364 1.5393426418304443
-0.047787588089704514 -0.14861778914928436 0.6929819583892822
-0.06997790932655334 -0.08599843084812164 0.6456465125083923
-0.02612907998263836 0.2786236107349396 1.0947339534759521
-0.022572167217731476 0.2765200436115265 1.0001335144042969
-0.023978233337402344 -0.19424642622470856 1.1838154792785645
-0.08986902236938477 -0.1702275276184082 0.11724908649921417
-0.026316653937101364 0.2227957546710968 0.9991084337234497
-0.029377922415733337 0.19817624986171722 1.0391554832458496
0.015745704993605614 0.04044828563928604 1.5278950929641724
-0.05763348191976547 -0.12344704568386078 1.399504542350769
-0.0015180644113570452 0.1911187469959259 1.3397127389907837
0.028977856040000916 0.06613929569721222 1.439685344696045
0.009505027905106544 0.022338498383760452 1.5295969247817993
0.036575134843587875 0.22693544626235962 1.005176305770874
0.05090039223432541 0.21625134348869324 0.9587674736976624
0.0049267783761024475 -0.1397918462753296 1.3925836086273193
0.014987129718065262 0.04220089316368103 1.033238172531128
-0.0014152252115309238 -0.20073002576828003 1.1171809434890747
0.07818260788917542 0.1688058227300644 1.359413743019104
0.03232796490192413 -0.024421628564596176 1.3125790357589722
0.06689378619194031 0.12312811613082886 1.48183012008667
0.037081703543663025 0.06417550891637802 1.4849294424057007
0.04686807096004486 -0.02581397444009781 1.221946358680725
0.04024731367826462 0.09919074177742004 0.917367696762085
0.021369708701968193 -0.04104182869195938 1.7705564498901367
0.0857878178358078 0.04780798405408859 0.11406130343675613
0.08806058019399643 0.04749093949794769 0.09244281053543091
0.07888138294219971 0.0952039361000061 0.12669208645820618
-0.006904158741235733 -0.17136481404304504 1.651389479637146
0.05127337947487831 -0.051155805587768555 0.7068899273872375
0.10163411498069763 0.06670781224966049 1.4486626386642456
0.060844503343105316 -0.0797891616821289 1.5069892406463623
0.10248740017414093 -0.0728520080447197 1.440768837928772
0.05383617803454399 -0.03350018709897995 1.421096920967102
0.08563852310180664 0.03268330544233322 0.407728374004364
0.10102006047964096 -0.00423741340637207 0.24600255489349365
0.10904478281736374 0.09111973643302917 0.23711355030536652
0.11096151173114777 0.22366216778755188 1.012598991394043
0.09747001528739929 0.25616759061813354 0.9761453866958618
0.09075652807950974 -0.13669875264167786 0.7265404462814331
0.09118340909481049 -0.035919927060604095 0.648749828338623
0.02629835531115532 -0.09326807409524918 1.7605400085449219
0.06563016772270203 -0.09670743346214294 1.7131491899490356
0.10085631906986237 -0.09409669041633606 0.5343210101127625
0.0366617813706398 -0.03309839591383934 1.7834312915802002
0.06478510051965714 -0.04799165949225426 1.7341277599334717
0.0860724225640297 -0.085377536714077 1.1465543508529663
0.09055672585964203 -0.072768434882164 1.1164518594741821
0.08383908867835999 -0.1492224782705307 1.099496603012085
0.05893415957689285 -0.14184889197349548 1.6497366428375244
0.07459978014230728 -0.07049068808555603 1.5347747802734375
0.06231985241174698 -0.11114468425512314 1.539440631866455
0.1509617269039154 0.20982013642787933 0.9663419723510742
0.0993819311261177 -0.11807191371917725 1.296371340751648
0.1108139157295227 -0.18388965725898743 1.2455726861953735
0.10375260561704636 -0.10800667852163315 1.2495965957641602
0.1565779745578766 0.10224533081054688 0.18375539779663086
0.14344967901706696 0.02284802496433258 0.1816423237323761
0.16181878745555878 0.02943354845046997 0.1665598750114441
0.08466427028179169 -0.01805923506617546 1.7537420988082886
0.10892078280448914 -0.1338779628276825 1.2923818826675415
0.1589401364326477 0.01617046818137169 0.44124898314476013
0.13984811305999756 -0.046604305505752563 0.4794050455093384
0.16679072380065918 0.017749205231666565 0.38685548305511475
0.11774716526269913 -0.0903012603521347 1.4324345588684082
0.10517450422048569 -0.08110467344522476 1.4295927286148071
0.1259801983833313 -0.05890645459294319 1.3913335800170898
0.12150879204273224 0.0690593272447586 0.9149908423423767
0.12160558998584747 -0.11496210098266602 0.8417974710464478
0.18414272367954254 0.06216203421354294 0.27124348282814026
0.19041037559509277 0.030616670846939087 0.2712847590446472
0.13625074923038483 -0.04578150808811188 1.388501524925232
0.160101518034935 0.1313857138156891 1.2687067985534668
0.1632993370294571 0.1618422269821167 1.239438772201538
0.11995059251785278 -0.2435363233089447 1.134278416633606
0.16325309872627258 -0.05933660268783569 0.9822402000427246
0.16698068380355835 -0.11866328120231628 0.9733508825302124
0.15954115986824036 -0.011897854506969452 1.205825686454773
0.22180955111980438 -0.08244415372610092 1.0718141794204712
0.22288130223751068 -0.03707375004887581 1.0664057731628418
0.2416549175977707 -0.13494572043418884 1.1208666563034058
-0.27721479535102844 -0.028120089322328568 1.0107002258300781
-0.2934403419494629 -0.09037057310342789 0.9786970615386963
-0.21887773275375366 -0.10961057245731354 1.1065069437026978
-0.2411724328994751 -0.12194186449050903 1.1515510082244873
-0.1856958121061325 -0.0714293122291565 1.1280303001403809
-0.17983251810073853 -0.026598960161209106 1.1582708358764648
-0.19412434101104736 -0.15699243545532227 0.8661465644836426
-0.15104694664478302 0.20742997527122498 1.0002527236938477
-0.1523592472076416 0.1841271072626114 1.1097989082336426
-0.12146393954753876 -0.2485746145248413 1.1033203601837158
-0.14061066508293152 -0.1633674055337906 0.9590473175048828
-0.18818484246730804 -0.16567450761795044 0.2612156271934509
-0.16491957008838654 -0.21287178993225098 0.28281107544898987
-0.13254806399345398 -0.08684256672859192 0.48007655143737793
-0.15033115446567535 -0.19849127531051636 0.8561951518058777
-0.12705425918102264 -0.11939466744661331 0.6224550008773804
-0.12366878241300583 -0.14321903884410858 0.6858137845993042
-0.11543745547533035 -0.08042330294847488 0.6800496578216553
-0.10176114737987518 -0.014766113832592964 1.1087572574615479
-0.10045246034860611 -0.07919412106275558 1.1343481540679932
-0.07015261799097061 0.2423521727323532 1.1870832443237305
-0.11340492963790894 -0.01870434172451496 0.8403079509735107
-0.1208297535777092 -0.22481019794940948 0.30037516355514526
-0.10555009543895721 -0.028568262234330177 1.2187204360961914
-0.08725987374782562 -0.03960945084691048 1.142674446105957
-0.11694057285785675 -0.18491247296333313 0.4373292922973633
-0.13138215243816376 -0.027665873989462852 1.7507020235061646
-0.13466788828372955 -0.06379131227731705 1.7443904876708984
-0.08946582674980164 -0.10241720080375671 1.7547214031219482
-0.10231462866067886 -0.14441260695457458 1.7118738889694214
-0.1155056357383728 -0.13317616283893585 1.6108503341674805
-0.09801872819662094 -0.1753874570131302 0.3331936299800873
-0.0536205917596817 -0.14498035609722137 0.7471375465393066
-0.07280583679676056 -0.19317694008350372 0.26748380064964294
-0.0897122323513031 -0.21989573538303375 0.2722683846950531
-0.10484872758388519 -0.1403980255126953 0.2028212696313858
-0.05688351392745972 0.06553933024406433 0.965544581413269
-0.08438621461391449 -0.013534121215343475 1.7999927997589111
-0.09574084728956223 -0.029494009912014008 1.7866193056106567
0.028479313477873802 0.17486487329006195 1.1652967929840088
-0.07230398058891296 0.1720307320356369 1.173606276512146
0.008680134080350399 0.1492409110069275 1.2295968532562256
0.016269056126475334 -0.03944607451558113 1.2617888450622559
0.011334646493196487 0.24034316837787628 1.220935583114624
0.016498863697052002 0.20384997129440308 1.0440243482589722
0.07922276109457016 0.2654101848602295 1.1313824653625488
0.024682622402906418 0.100278839468956 1.6745796203613281
0.05555633455514908 0.19817155599594116 1.0502285957336426
0.04877111315727234 -0.21817737817764282 0.9043917059898376
0.06759132444858551 0.022420208901166916 0.272283673286438
0.08691786229610443 0.03197578340768814 0.22024288773536682
0.04943118989467621 -0.11413449794054031 0.6842301487922668
0.04059514403343201 0.019337033852934837 1.0680060386657715
0.06891700625419617 -0.021358761936426163 0.5640316605567932
0.08737650513648987 0.1272827684879303 1.305842399597168
0.08114033937454224 -0.11065670102834702 1.4147504568099976
0.05863269791007042 0.0879075899720192 1.6370633840560913
0.05779371038079262 0.013023324310779572 1.608776569366455
0.06197316199541092 0.03244509547948837 1.5789034366607666
0.034119632095098495 -0.02659890055656433 1.8324168920516968
0.08442555367946625 -0.1229751706123352 1.3424129486083984
0.13061095774173737 0.020147837698459625 0.5062443614006042
0.09672428667545319 0.031999774277210236 0.506300151348114
0.12226002663373947 0.06475429236888885 0.36803609132766724
0.14406117796897888 0.06908729672431946 0.34160876274108887
0.0968259871006012 -0.0600571408867836 1.5281529426574707
0.08165136724710464 -0.07130885869264603 1.5376020669937134
0.10115498304367065 -0.0708828940987587 1.5184134244918823
0.12109177559614182 -0.04680369794368744 0.7532100081443787
0.12937714159488678 -0.07561657577753067 0.6190764307975769
0.1263495534658432 0.029600098729133606 0.955316960811615
0.12095298618078232 -0.06503849476575851 1.086670160293579
0.11691515147686005 -0.1204887107014656 1.079683780670166
0.12349337339401245 -0.14664292335510254 1.0235177278518677
0.09930823743343353 -0.019716020673513412 1.64919114112854
0.1101394072175026 -0.02549484185874462 1.5617409944534302
0.10251988470554352 -0.16858527064323425 1.2315295934677124
0.12406031787395477 0.055013470351696014 1.5482648611068726
0.1165401041507721 0.02467263489961624 1.5890371799468994
0.17528818547725677 0.10759928077459335 0.11065103113651276
0.18567247688770294 0.07053010910749435 0.10564499348402023
0.13456833362579346 0.03965029492974281 1.512743592262268
0.14076387882232666 0.057577986270189285 1.4794179201126099
0.14590561389923096 0.055096279829740524 1.4369826316833496
0.14736908674240112 0.07548436522483826 1.421288013458252
0.11017696559429169 -0.249239981174469 1.1526137590408325
0.1720239520072937 -0.15278425812721252 0.8519380688667297
0.13269421458244324 -0.22320151329040527 1.1688083410263062
0.129933163523674 -0.2468002438545227 1.1494250297546387
0.20275256037712097 -0.1098710149526596 0.8682894110679626
0.20255164802074432 -0.08814473450183868 0.8504270315170288
0.21145138144493103 -0.05314072221517563 0.8593178391456604
-0.2016817331314087 -0.11709862947463989 1.171384572982788
-0.1537991166114807 -0.12892423570156097 1.2595582008361816
-0.15836679935455322 -0.12290702760219574 1.239675760269165
-0.14997096359729767 -0.11944334954023361 1.2498104572296143
-0.1484793722629547 -0.11534750461578369 1.267256259918213
-0.20445744693279266 -0.00048603862524032593 0.8518306016921997
-0.1248302161693573 -0.07851028442382812 1.2973030805587769
-0.14114665985107422 -0.06519486755132675 1.082497000694275
-0.13782192766666412 0.07088334858417511 1.5610015392303467
-0.12896184623241425 -0.09816791862249374 1.2024272680282593
-0.130061075091362 -0.08574652671813965 1.1534934043884277
-0.11522401124238968 0.08396963030099869 1.4549076557159424
-0.11125485599040985 0.09028298407793045 1.4101569652557373
-0.12419333308935165 -0.14297741651535034 1.0506565570831299
-0.09065568447113037 -0.17019402980804443 1.0084607601165771
-0.12192150950431824 -0.046842094510793686 0.7623084187507629
-0.06898020207881927 0.20891661942005157 1.2651231288909912
-0.0819879025220871 0.10675464570522308 1.6526533365249634
-0.0969771295785904 -0.13382555544376373 0.05147466063499451
-0.10908843576908112 -0.12462823837995529 0.03889919072389603
-0.08870680630207062 0.025259435176849365 0.8581072092056274
-0.009576484560966492 0.09814639389514923 0.849652886390686
-0.06270099431276321 -0.019073691219091415 0.8370709419250488
0.01106606237590313 0.10801221430301666 1.3337347507476807
-0.028571397066116333 -0.09593108296394348 0.7670165300369263
-0.04281240701675415 -0.1568642556667328 1.6298388242721558
-0.014940343797206879 0.018215999007225037 0.8701354265213013
-0.0075896987691521645 -0.023041851818561554 0.8486283421516418
0.009784013964235783 -0.1164231151342392 0.8512179851531982
-0.07911541312932968 -0.168651282787323 0.8573914170265198
-0.002225475385785103 -0.22703421115875244 0.8493968844413757
0.022953854873776436 -0.10709348320960999 0.8238217830657959
-0.005584966856986284 -0.16295814514160156 0.8613647222518921
0.007948838174343109 0.0025685876607894897 1.5020478963851929
0.02077261544764042 -0.0341997928917408 0.8420975804328918
0.020587433129549026 -0.04810439795255661 0.8220399618148804
0.01636989414691925 0.01645602285861969 1.580545425415039
0.02222668007016182 0.01832246407866478 1.5529451370239258
0.032574158161878586 -0.12118648737668991 0.8400160074234009
0.123805470764637 0.06229138374328613 0.8462604284286499
0.07116014510393143 0.05109691619873047 0.27813416719436646
0.044154949486255646 -0.03443235158920288 0.8081998825073242
0.07364785671234131 0.17178478837013245 1.2012934684753418
0.10571375489234924 -0.01323077455163002 0.38671746850013733
0.09694849699735641 0.025198303163051605 0.33167606592178345
0.11449155956506729 -0.0006090067327022552 0.34016692638397217
0.11011141538619995 -0.02384474128484726 0.28310519456863403
0.10400226712226868 0.06657403707504272 1.5188145637512207
0.07199771702289581 -0.014796245843172073 0.8424055576324463
0.09995065629482269 -0.03560267388820648 0.8212867975234985
0.10045985132455826 -0.07812190800905228 1.2518928050994873
0.13289886713027954 -0.03586297482252121 0.4283334016799927
0.09533201158046722 0.035485681146383286 1.624276876449585
0.08728612959384918 -0.041499264538288116 1.3108062744140625
0.1425521820783615 -0.0014156773686408997 0.3434261381626129
0.09764982014894485 0.23480099439620972 1.1928080320358276
0.1032610535621643 -0.04929159954190254 1.2286698818206787
0.1502315253019333 0.0862913578748703 0.23884420096874237
0.14100369811058044 0.2463533878326416 1.1084728240966797
0.13752932846546173 0.09093804657459259 0.2778415381908417
0.15110965073108673 -0.02153652161359787 0.25416961312294006
0.13925562798976898 0.11404454708099365 1.3198074102401733
0.11641479283571243 -0.07365261763334274 1.476662278175354
0.12660560011863708 -0.0660817101597786 1.4388961791992188
0.11587244272232056 -0.07563578337430954 1.471484899520874
0.1452276110649109 -0.045731741935014725 1.4193873405456543
0.12289057672023773 -0.19436347484588623 1.2152743339538574
0.1091238260269165 -0.20496457815170288 1.2073676586151123
0.15856768190860748 0.15195332467556 1.2226276397705078
0.17207694053649902 0.19382420182228088 1.1544990539550781
0.16986680030822754 0.18754909932613373 1.1200324296951294
0.14149722456932068 -0.053467586636543274 1.2560099363327026
0.13376843929290771 -0.09622272104024887 1.2595136165618896
0.15843166410923004 -0.17696994543075562 0.8636983036994934
0.14168725907802582 -0.11414289474487305 1.2627196311950684
0.16398894786834717 -0.11720744520425797 1.152267336845398
0.162381112575531 -0.03295491635799408 1.155321478843689
0.16395163536071777 -0.08636246621608734 1.1298797130584717
0.24535894393920898 -0.12303857505321503 1.1591570377349854
0.2553337812423706 -0.0530596561729908 1.0430752038955688
0.255413681268692 -0.12280387431383133 1.0745946168899536
-0.12913773953914642 -0.24134331941604614 1.1446552276611328
-0.13531866669654846 -0.1737174391746521 1.2026453018188477
-0.14192408323287964 -0.163118377327919 1.2210379838943481
-0.1186993196606636 -0.2239612340927124 1.1476776599884033
-0.13287074863910675 0.08354764431715012 1.4847050905227661
-0.13979178667068481 0.07682505249977112 1.4665255546569824
-0.14536067843437195 0.09688787162303925 1.422581672668457
-0.15375709533691406 -0.029441174119710922 1.713955044746399
-0.1538688987493515 -0.06995010375976562 1.6282695531845093
-0.15541379153728485 -0.1767909824848175 0.3259902894496918
-0.1298881471157074 -0.06846354901790619 0.8426157236099243
-0.12844286859035492 -0.09507548809051514 0.8269569277763367
-0.13488857448101044 0.22910365462303162 0.9748237133026123
-0.08869262039661407 -0.14238667488098145 1.2556229829788208
-0.1142352893948555 -0.0339469239115715 0.8113248348236084
-0.10534241795539856 -0.042170047760009766 1.767053484916687
-0.08762795478105545 -0.12480117380619049 1.1368613243103027
-0.05157794430851936 -0.18695145845413208 1.1323459148406982
-0.07179509103298187 0.1984190046787262 1.093284010887146
0.008545804768800735 0.19833092391490936 1.0890098810195923
-0.06421324610710144 -0.021348539739847183 1.160517692565918
-0.051129020750522614 -0.1133238673210144 0.845880925655365
-0.04517976567149162 -0.1890314817428589 1.0683190822601318
-0.052502576261758804 0.01963595673441887 1.059339165687561
-0.039348118007183075 -0.14636698365211487 1.72693932056427
0.019095752388238907 -0.09610281884670258 0.7579529285430908
-0.04981616139411926 0.1206151694059372 1.305328130722046
0.08165609836578369 0.07730893790721893 0.07620995491743088
0.12445539981126785 0.26857826113700867 1.0371947288513184
0.0867401510477066 0.19872009754180908 1.111379623413086
0.05816241353750229 0.2839265465736389 1.0494294166564941
0.09282146394252777 0.091947540640831 0.8554603457450867
0.1497587263584137 0.13998958468437195 0.11034461855888367
0.11438536643981934 -0.03745783120393753 0.8428226709365845
0.13747861981391907 -0.01742819882929325 0.3881382942199707
0.11918376386165619 -0.10297758877277374 1.3923237323760986
0.1180192157626152 -0.11096761375665665 1.306633710861206
0.1952664852142334 0.0015555694699287415 0.8552367091178894
0.20328718423843384 -0.04891829937696457 0.9177113771438599
0.25989609956741333 -0.0930749922990799 1.0477797985076904
-0.2498108297586441 -0.1266324520111084 1.112723708152771
-0.2049505114555359 -0.08692564815282822 0.9194680452346802
-0.2194906771183014 -0.07560266554355621 0.8614468574523926
-0.1470680832862854 0.07769183814525604 1.4189162254333496
-0.15090015530586243 0.12955044209957123 1.2600865364074707
-0.13754600286483765 -0.017415501177310944 1.544250249862671
-0.13667793571949005 -0.05924639478325844 1.0483083724975586
-0.13797920942306519 -0.08696426451206207 1.0909069776535034
-0.13694056868553162 -0.012560408562421799 1.5451843738555908
-0.13548614084720612 -0.026953160762786865 1.52994966506958
-0.13504938781261444 -0.02212657406926155 1.5380746126174927
-0.13579298555850983 -0.02051004394888878 1.5431585311889648
-0.14048434793949127 -0.03540392220020294 1.531469702720642
-0.1381857693195343 -0.23524683713912964 0.17205177247524261
-0.14791032671928406 -0.10794852674007416 1.6833605766296387
-0.03174392133951187 -0.020039448514580727 1.2163312435150146
-0.09101016819477081 -0.2538902163505554 0.06387503445148468
-0.044462453573942184 -0.03414810448884964 1.2569940090179443
-0.003895571455359459 -0.022317709401249886 1.1707494258880615
-0.04531963914632797 0.09469691663980484 0.9266253709793091
-0.03880783170461655 -0.0480206198990345 1.7841027975082397
-0.03658810257911682 -0.10936933755874634 0.7034271359443665
-0.023126043379306793 0.13119009137153625 1.264601230621338
0.013202741742134094 -0.1919870376586914 1.0167044401168823
-0.0226855780929327 -0.19755342602729797 1.225960612297058
0.019410837441682816 0.178867369890213 1.1343774795532227
0.09019128233194351 0.06855755299329758 0.21955841779708862
0.0746498852968216 -0.1754196733236313 0.9932260513305664
0.12212470173835754 -0.16928307712078094 0.9670150279998779
0.07843325287103653 0.03810341656208038 1.5473592281341553
0.07653586566448212 -0.16426825523376465 1.1749356985092163
0.04227440431714058 -0.028389953076839447 1.1668744087219238
0.09717463701963425 -0.018623780459165573 1.0803935527801514
0.08139260113239288 0.06226777657866478 0.9527619481086731
0.14531725645065308 0.05895377695560455 0.0622151643037796
0.1195078119635582 0.0673089325428009 0.059018660336732864
0.1772717833518982 0.07208418846130371 0.06753715872764587
0.17281821370124817 -6.239861249923706e-05 0.241620734333992
0.11281770467758179 -0.0737694725394249 1.471766471862793
0.11315087229013443 -0.07167822122573853 1.4697933197021484
0.10257309675216675 -0.07939264178276062 1.3258930444717407
0.11770541965961456 -0.10136456042528152 1.2989681959152222
0.18464356660842896 0.21776603162288666 1.0466948747634888
0.1814538985490799 0.20295843482017517 0.9955013990402222
0.19251063466072083 0.2107885181903839 0.9926806688308716
0.2689478397369385 -0.04240145534276962 1.0432729721069336
0.27468791604042053 -0.10565497726202011 1.0197149515151978
0.2909144461154938 -0.1256561279296875 1.0076314210891724
-0.22744542360305786 -0.0585651621222496 1.0418715476989746
-0.1429280936717987 -0.20430684089660645 1.1848466396331787
-0.1281874030828476 -0.17869322001934052 0.3551042675971985
-0.09281430393457413 0.22024598717689514 0.948386013507843
-0.09758459776639938 -0.14341974258422852 1.087338924407959
-0.03324907273054123 -0.040950313210487366 0.8396884202957153
-0.0520530641078949 -0.03460529446601868 0.8019776940345764
-0.043633557856082916 -0.08662442117929459 0.8111065626144409
-0.0026106666773557663 0.018448669463396072 1.1045547723770142
0.027129296213388443 -0.20839209854602814 0.8365665078163147
0.09131123125553131 0.01789800450205803 0.8594244718551636
0.10604393482208252 0.20235908031463623 1.071831226348877
0.10413752496242523 -0.00013369321823120117 1.564247727394104
0.11462391912937164 0.02606968581676483 1.5394431352615356
0.19117644429206848 -0.11666479706764221 0.9172011613845825
-0.14469319581985474 -0.2130281925201416 1.1509352922439575
-0.14255966246128082 0.03782067447900772 1.5770719051361084
-0.06682483851909637 0.22796005010604858 0.9981833100318909
-0.1240161880850792 0.06841213256120682 1.6080933809280396
-0.0942956805229187 0.02861196920275688 1.5977973937988281
-0.05758296698331833 0.020583637058734894 1.5749847888946533
0.04277355968952179 -0.1915370523929596 1.0705910921096802
0.06550770998001099 -0.15552526712417603 1.2618736028671265
0.11191376298666 0.01944800466299057 0.1766584813594818
0.10462696850299835 -0.12941737473011017 1.2213025093078613
0.11179219186306 -0.11086037755012512 1.1694996356964111
0.12885017693042755 0.07642228901386261 1.4405553340911865
0.11108103394508362 0.10574597865343094 1.444859504699707
0.11448332667350769 -0.06275267899036407 1.1804239749908447
0.11722728610038757 -0.07449932396411896 0.8278608322143555
0.0901988223195076 -0.18650755286216736 1.2320560216903687
0.14154259860515594 0.12751919031143188 1.344683289527893
-0.13125935196876526 0.116425521671772 1.351882815361023
-0.12189624458551407 -0.10253706574440002 0.3555992543697357
0.035683490335941315 -0.091216079890728 0.7161422967910767
0.02148183062672615 -0.14454808831214905 1.706226110458374
-0.15095669031143188 0.21392230689525604 1.0517959594726562
-0.1415761113166809 -0.1191977858543396 1.2716999053955078
-0.08399664610624313 -0.13695046305656433 0.39881691336631775
0.013033120892941952 0.13527414202690125 1.4797395467758179
0.09801620990037918 0.05810956656932831 0.06272047013044357
0.09935769438743591 -0.0672970786690712 1.5237915515899658
0.10119859874248505 -0.06979159265756607 1.5195224285125732
0.10941685736179352 -0.07028332352638245 1.4256354570388794
0.16503524780273438 0.02036353200674057 0.2176368236541748
0.17046959698200226 0.05553479492664337 0.21524354815483093
0.16684748232364655 -0.12863442301750183 1.1997851133346558
-0.18052318692207336 -0.16015534102916718 0.9279786944389343
-0.14053001999855042 0.09746745973825455 1.385918378829956
-0.13803783059120178 0.09584635496139526 1.3867297172546387
-0.14445097744464874 0.09285269677639008 1.3867725133895874
-0.08389896154403687 -0.17822948098182678 0.20148995518684387
-0.032856255769729614 -0.09540526568889618 0.8430606126785278
0.08765564113855362 0.04839055985212326 0.17474040389060974
0.20539125800132751 -0.1406380534172058 1.1513304710388184
0.08263485133647919 -0.09176254272460938 1.6623899936676025
0.1349755972623825 -0.09543953835964203 0.7765970230102539
0.14385877549648285 0.07790251821279526 1.3990826606750488
0.14662230014801025 0.10423426330089569 1.359464406967163
0.08665241301059723 0.12023765593767166 0.0908154621720314
0.21753011643886566 -0.49740055203437805 0.9712936282157898
0.21417371928691864 -0.4565722346305847 0.9589205384254456
0.21288813650608063 -0.47234028577804565 0.9600505232810974
0.206680566072464 -0.4753814935684204 0.9659189581871033
0.2103341966867447 -0.49667593836784363 0.9653878211975098
0.2186191827058792 -0.48528245091438293 0.9801764488220215
0.24400882422924042 -0.3314349055290222 0.9842551946640015
0.2258797287940979 -0.33495640754699707 0.9741668105125427
0.23619341850280762 -0.3549751043319702 0.9797787666320801
0.2343330830335617 -0.3647932708263397 0.9796731472015381
0.2507740259170532 -0.15388263761997223 0.9442934989929199
0.24669675529003143 -0.1754067838191986 0.9582746624946594
0.24050593376159668 -0.16503503918647766 0.9317614436149597
0.22626297175884247 -0.34585142135620117 0.9399304389953613
0.2267719954252243 -0.36065998673439026 0.9481967091560364
0.23652635514736176 -0.39616116881370544 0.998559832572937
0.23630456626415253 -0.37869858741760254 0.9848363399505615
0.2320592999458313 -0.20401400327682495 0.9079757928848267
0.24023255705833435 -0.2124198079109192 0.9335328340530396
0.25965261459350586 -0.26207107305526733 0.9873382449150085
0.249726802110672 -0.25094860792160034 0.9842681288719177
0.23225006461143494 -0.46969854831695557 0.9905452728271484
0.21888621151447296 -0.44813016057014465 0.9486067295074463
0.2505072057247162 -0.164860337972641 0.9252955913543701
0.24454250931739807 -0.16918009519577026 0.9228390455245972
0.3080630600452423 0.026256851851940155 1.0368494987487793
0.2988261878490448 0.012856118381023407 1.0322144031524658
0.2979438900947571 0.02863699197769165 1.0168564319610596
0.23582163453102112 -0.41951435804367065 0.9854321479797363
0.23261940479278564 -0.44484445452690125 0.9895584583282471
0.24756655097007751 -0.16781233251094818 0.9173576831817627
0.24717974662780762 -0.16225194931030273 0.9063073992729187
0.20611891150474548 -0.5076871514320374 0.9233778715133667
0.20111289620399475 -0.5260437726974487 0.9270628690719604
0.3067903220653534 0.03528118133544922 1.03240966796875
0.30640095472335815 0.021142221987247467 1.0412644147872925
0.3017995059490204 0.03722844272851944 1.028019905090332
0.30452728271484375 0.02826831489801407 1.0155712366104126
0.21216614544391632 -0.5627558827400208 0.9700641632080078
0.21790054440498352 -0.5853196978569031 0.9761064052581787
0.20423203706741333 -0.5858691334724426 0.9594379663467407
0.23857250809669495 -0.28036683797836304 0.9241540431976318
0.2386631965637207 -0.30178922414779663 0.9193994998931885
0.2283521145582199 -0.31887200474739075 0.9180361032485962
0.22915118932724 -0.3203011453151703 0.9063237905502319
0.3112214207649231 0.02060694992542267 1.0471739768981934
0.30535316467285156 0.04217629134654999 1.0260597467422485
0.2464032620191574 -0.41906073689460754 1.0003268718719482
0.25130724906921387 -0.4199300706386566 0.9979085326194763
0.2415904700756073 -0.4345531761646271 0.9972596764564514
0.2492998093366623 -0.4536168873310089 0.9989146590232849
0.24405896663665771 -0.23639236390590668 0.9182513356208801
0.24008582532405853 -0.2514714300632477 0.912910521030426
0.239375501871109 -0.2578977048397064 0.9141808748245239
0.3092106580734253 0.03826093673706055 1.0300339460372925
0.31610357761383057 0.01604640483856201 1.0437923669815063
0.30451256036758423 0.026846416294574738 1.0158787965774536
0.24622532725334167 -0.12896861135959625 0.8827627897262573
0.24462516605854034 -0.13771164417266846 0.8740724325180054
0.2443857640028 -0.15525954961776733 0.8955976963043213
0.24758876860141754 -0.1437230110168457 0.8865892887115479
0.24176418781280518 -0.1375747174024582 0.8866961598396301
0.2249525487422943 -0.34136801958084106 0.9007604122161865
0.22969841957092285 -0.3221932053565979 0.901208758354187
0.22485804557800293 -0.32775697112083435 0.8893982172012329
0.2259361892938614 -0.33762967586517334 0.884318470954895
0.31310951709747314 0.018431179225444794 1.0218417644500732
0.2196209579706192 -0.596049964427948 0.9824904203414917
0.21909163892269135 -0.59104984998703 0.9626420736312866
0.22138288617134094 -0.5993215441703796 0.9761255383491516
0.21978768706321716 -0.606788158416748 0.9770858287811279
0.2144564390182495 -0.5832556486129761 0.9544517397880554
0.273925244808197 -0.1565910130739212 0.9334667325019836
0.2589038014411926 -0.16598372161388397 0.9181218147277832
0.2141476273536682 -0.4861089289188385 0.9137946963310242
0.2156064212322235 -0.5143693685531616 0.9172548651695251
0.21422001719474792 -0.5395614504814148 0.9287006855010986
0.27433180809020996 -0.24759536981582642 0.9878119230270386
0.2663017511367798 -0.2668774724006653 0.9840660095214844
0.2730446755886078 -0.2776654362678528 0.9786178469657898
0.26087257266044617 -0.41131889820098877 1.0023103952407837
0.25088196992874146 -0.41974878311157227 0.9941731095314026
0.24348239600658417 -0.4739561080932617 0.9945079684257507
0.2532711923122406 -0.38107067346572876 0.9935950636863708
0.2286665141582489 -0.46524184942245483 0.936558187007904
0.22255688905715942 -0.5014858841896057 0.9309972524642944
0.2770833373069763 -0.2477806806564331 0.9808246493339539
0.26033085584640503 -0.389203280210495 0.9742295145988464
0.2589075267314911 -0.37328559160232544 0.965861439704895
0.25714731216430664 -0.4072486460208893 0.9740744829177856
0.22702813148498535 -0.5532292723655701 0.9581261873245239
0.22950111329555511 -0.5428500771522522 0.9488716125488281
0.2367108315229416 -0.3720335364341736 0.9222745299339294
0.25290030241012573 -0.3770766258239746 0.9395855665206909
0.24229398369789124 -0.3923545479774475 0.9379432201385498
0.24851171672344208 -0.39335504174232483 0.9482502937316895
0.26613596081733704 -0.3227139115333557 0.9760584235191345
0.26232993602752686 -0.3566681742668152 0.9690946936607361
0.24607200920581818 -0.4705929756164551 0.9693677425384521
0.24236103892326355 -0.48859456181526184 0.9647819399833679
0.23676951229572296 -0.49988648295402527 0.9709846377372742
0.24300360679626465 -0.4560299813747406 0.9459613561630249
0.2417614758014679 -0.4638395309448242 0.9410666227340698
0.24996472895145416 -0.33209776878356934 0.9345535635948181
0.2514372766017914 -0.3479965925216675 0.9303979873657227
0.24974845349788666 -0.32108765840530396 0.921958327293396
0.24804264307022095 -0.339000403881073 0.9239606857299805
0.24958358705043793 -0.3601977825164795 0.9323277473449707
0.25789642333984375 -0.3146134316921234 0.9443673491477966
0.26775750517845154 -0.2976958453655243 0.9524158239364624
0.25249263644218445 -0.285185307264328 0.9302946329116821
0.25904110074043274 -0.30018818378448486 0.9426251649856567
0.24236103892326355 -0.47297734022140503 0.9481566548347473
0.24186524748802185 -0.49503806233406067 0.9491313695907593
0.23622383177280426 -0.48548567295074463 0.9448704123497009
0.24861685931682587 -0.4859623312950134 0.9452531337738037
0.28159642219543457 -0.17567558586597443 0.9437053799629211
0.20777738094329834 -0.44422295689582825 0.9782422780990601
0.20056107640266418 -0.4541819095611572 0.9671966433525085
0.2220684438943863 -0.3777213394641876 0.9741083383560181
0.22241675853729248 -0.3740524649620056 0.969703733921051
0.2176005095243454 -0.39117231965065 0.9809454083442688
0.2191273272037506 -0.37811657786369324 0.9654581546783447
0.21417935192584991 -0.3941534459590912 0.9697173833847046
0.22468321025371552 -0.33830124139785767 0.9593861103057861
0.2240673005580902 -0.35387861728668213 0.9545956254005432
0.23131917417049408 -0.31609976291656494 0.9604750871658325
0.2300809621810913 -0.3899901509284973 0.9825109243392944
0.2138064205646515 -0.46914008259773254 0.9331250190734863
0.2091907560825348 -0.4848526120185852 0.9617090225219727
0.22376149892807007 -0.3720511794090271 0.9472810626029968
0.2121690809726715 -0.5154275894165039 0.9602657556533813
0.20419760048389435 -0.5342390537261963 0.9569989442825317
0.20375853776931763 -0.5179468393325806 0.9543811678886414
0.20965871214866638 -0.5527375936508179 0.9650384783744812
0.25878116488456726 -0.14877161383628845 0.9629847407341003
0.27490919828414917 -0.20843857526779175 1.0209970474243164
0.2686891257762909 -0.21811090409755707 1.0101324319839478
0.27483582496643066 -0.22428447008132935 1.014504313468933
0.2396875023841858 -0.23793932795524597 0.9315893650054932
0.2951054871082306 0.02536841481924057 1.0055656433105469
0.30688339471817017 -0.002583220601081848 1.0438135862350464
0.3026387095451355 -0.014155082404613495 1.0358965396881104
0.2974400818347931 -0.009360074996948242 1.030437707901001
0.25332820415496826 -0.3386692404747009 0.9863340258598328
0.2368638515472412 -0.4875539541244507 1.0039136409759521
0.2074107974767685 -0.5583914518356323 0.9428527355194092
0.28419315814971924 -0.04354740306735039 0.9904274940490723
0.2795794904232025 -0.07456598430871964 0.9707732200622559
0.2637307643890381 -0.3143689036369324 0.9957984089851379
0.2565900683403015 -0.3204632103443146 0.9874126315116882
0.24947841465473175 -0.36492836475372314 0.9841253161430359
0.20997899770736694 -0.5643084049224854 0.9462594985961914
0.21897444128990173 -0.6004100441932678 0.9854370355606079
0.21423868834972382 -0.6045721173286438 0.9889386296272278
0.21412315964698792 -0.6000829339027405 0.9707002639770508
0.269929438829422 -0.12011461704969406 0.9642930030822754
0.27308934926986694 -0.14749151468276978 0.9594870209693909
0.255626380443573 -0.3666645288467407 0.9825581908226013
0.2513497471809387 -0.15191802382469177 0.9377907514572144
0.2067008912563324 -0.5337202548980713 0.9257594347000122
0.29217809438705444 -0.17155076563358307 1.0413352251052856
0.2953714430332184 -0.17096124589443207 1.041866660118103
0.29009681940078735 -0.17846494913101196 1.0249102115631104
0.2949294447898865 -0.19080905616283417 1.0303502082824707
0.29478758573532104 -0.2037738561630249 1.0355489253997803
0.2776199281215668 -0.169123113155365 1.0091379880905151
0.28680282831192017 -0.17850884795188904 1.0095404386520386
0.22167253494262695 -0.6088058948516846 0.9914666414260864
0.23740173876285553 -0.38702356815338135 0.9255124926567078
0.23602566123008728 -0.3965414762496948 0.9328112006187439
0.22911986708641052 -0.40025341510772705 0.9309626221656799
0.22724571824073792 -0.36218568682670593 0.9200131893157959
0.2933930456638336 -0.18804869055747986 1.0320844650268555
0.29868775606155396 -0.19715754687786102 1.0304105281829834
0.25821271538734436 -0.17097808420658112 0.9085276126861572
0.3017064332962036 -0.1788363754749298 1.0319347381591797
0.29697394371032715 -0.18720337748527527 1.0238726139068604
0.26350289583206177 -0.4037880599498749 0.9976605176925659
0.24819913506507874 -0.16541941463947296 0.8802883625030518
0.24286946654319763 -0.1638127863407135 0.8782592415809631
0.24225805699825287 -0.17397701740264893 0.8619778156280518
0.2411537617444992 -0.18720516562461853 0.865709662437439
0.278662770986557 -0.152041494846344 0.9545789957046509
0.2942790687084198 -0.20757418870925903 1.0123480558395386
0.25145918130874634 -0.42085331678390503 0.9812635183334351
0.2530360221862793 -0.439240038394928 0.9780053496360779
0.25782597064971924 -0.17949233949184418 0.9013202786445618
0.25333529710769653 -0.19277337193489075 0.8982697129249573
0.25058797001838684 -0.1829555332660675 0.8875654339790344
0.25213223695755005 -0.4396491050720215 0.9687473773956299
0.2569025754928589 -0.42118048667907715 0.9659669399261475
0.24391262233257294 -0.42597976326942444 0.9548006057739258
0.251581072807312 -0.40359067916870117 0.9576424956321716
0.22889010608196259 -0.5158411264419556 0.9337441325187683
0.2283949851989746 -0.5214985013008118 0.9442645907402039
0.26834753155708313 -0.18566498160362244 0.9192746877670288
0.2880929112434387 -0.19379793107509613 0.9628356695175171
0.27532458305358887 -0.21880652010440826 0.956547200679779
0.28175613284111023 -0.20923756062984467 0.9475289583206177
0.2784543037414551 -0.2360781729221344 0.951795756816864
0.27073588967323303 -0.24577844142913818 0.9398004412651062
0.2560289204120636 -0.44651710987091064 0.9526994228363037
0.2520916163921356 -0.43700602650642395 0.9492841362953186
0.25428152084350586 -0.4730536937713623 0.9591344594955444
0.26857390999794006 -0.36924630403518677 0.9573527574539185
0.26028814911842346 -0.3985462784767151 0.960620641708374
0.25828155875205994 -0.37620043754577637 0.9574575424194336
0.265484094619751 -0.38577428460121155 0.9495401978492737
0.2669295370578766 -0.39356279373168945 0.9567977786064148
0.2677723169326782 -0.3799760341644287 0.9569361805915833
0.2623211443424225 -0.3991903066635132 0.9508625864982605
0.2508392035961151 -0.4848869740962982 0.9526912569999695
0.25374695658683777 -0.47366660833358765 0.9450821280479431
0.20309056341648102 -0.46347957849502563 0.9823952913284302
0.21048504114151 -0.47831761837005615 0.9740903973579407
0.20657388865947723 -0.4605836868286133 0.9621891379356384
0.20065990090370178 -0.4843943119049072 0.9676768779754639
0.26091912388801575 -0.2014852911233902 1.006200909614563
0.24722525477409363 -0.1782202422618866 0.9430239200592041
0.24158649146556854 -0.19196242094039917 0.9336614608764648
0.2562049925327301 -0.16379554569721222 0.9860159754753113
0.22334487736225128 -0.4544822573661804 0.9822542667388916
0.22316141426563263 -0.4236487150192261 0.9587354063987732
0.23831480741500854 -0.2336397022008896 0.9532382488250732
0.23882772028446198 -0.24391911923885345 0.9412608742713928
0.2561885118484497 -0.21475735306739807 0.995037853717804
0.25342828035354614 -0.23858362436294556 0.9866877794265747
0.22124166786670685 -0.41436100006103516 0.9594507813453674
0.22516237199306488 -0.4689333438873291 0.985228955745697
0.23593787848949432 -0.26900148391723633 0.9438787698745728
0.2354995459318161 -0.3081585168838501 0.9514446258544922
0.23356007039546967 -0.28697407245635986 0.9380387663841248
0.22592060267925262 -0.3952576816082001 0.9557759761810303
0.21558578312397003 -0.5388925671577454 0.974656879901886
0.20794394612312317 -0.577285885810852 0.9698030948638916
0.202133446931839 -0.5649557113647461 0.9499579668045044
0.2803189754486084 -0.2033325731754303 1.0297468900680542
0.27499037981033325 -0.23587201535701752 1.018331527709961
0.25924187898635864 -0.2799625098705292 0.9862378835678101
0.2567344009876251 -0.3064936399459839 0.9893949627876282
0.23090554773807526 -0.2998562455177307 0.927626371383667
0.2785925269126892 -0.25187426805496216 1.0217041969299316
0.2719161808490753 -0.2329755276441574 0.9954187870025635
0.266571968793869 -0.24528446793556213 0.9919021129608154
0.23341870307922363 -0.5084654688835144 0.9921131730079651
0.22650927305221558 -0.5270295143127441 0.9827313423156738
0.22577932476997375 -0.4020867347717285 0.9405298233032227
0.28224977850914 -0.0972679927945137 0.9964109659194946
0.2841362953186035 -0.0826580822467804 1.002131462097168
0.22803916037082672 -0.3264131546020508 0.9024038314819336
0.26577311754226685 -0.29483047127723694 0.9850866198539734
0.2679961025714874 -0.3129151463508606 0.9990088939666748
0.23659156262874603 -0.502765417098999 0.9979009628295898
0.23715849220752716 -0.5013092756271362 0.9928262233734131
0.23377780616283417 -0.517918050289154 0.9868537783622742
0.24821443855762482 -0.1947362720966339 0.8949471712112427
0.24264980852603912 -0.2107802778482437 0.8923629522323608
0.23840312659740448 -0.21147200465202332 0.8941674828529358
0.24206595122814178 -0.18945138156414032 0.8911174535751343
0.24660387635231018 -0.18798120319843292 0.8908130526542664
0.23665477335453033 -0.1882617175579071 0.8717284798622131
0.24605202674865723 -0.22513800859451294 0.9133687615394592
0.22845488786697388 -0.18754562735557556 0.8724260330200195
0.22946690022945404 -0.20107492804527283 0.8599040508270264
0.2778131067752838 -0.1581016480922699 0.9838303327560425
0.2797689139842987 -0.1670430600643158 0.9881866574287415
0.26954877376556396 -0.1489863097667694 0.9555697441101074
0.28926289081573486 -0.2098349779844284 1.0251280069351196
0.279773086309433 -0.21796458959579468 1.0123655796051025
0.2597929537296295 -0.41383594274520874 1.0133001804351807
0.2608940601348877 -0.41066163778305054 1.0139778852462769
0.25169259309768677 -0.40587443113327026 1.0042566061019897
0.232077494263649 -0.18882650136947632 0.8567246198654175
0.23615092039108276 -0.17378443479537964 0.8624606132507324
0.24667634069919586 -0.22900906205177307 0.9086321592330933
0.22721311450004578 -0.45135319232940674 0.935670018196106
0.2169966846704483 -0.471618115901947 0.9257983565330505
0.28572773933410645 -0.18741998076438904 1.0073695182800293
0.2847331762313843 -0.14272348582744598 0.986120879650116
0.23858433961868286 -0.4854740798473358 0.9779108166694641
0.2347099930047989 -0.3265971541404724 0.9072211980819702
0.30458882451057434 -0.015174828469753265 0.9965415000915527
0.2977195680141449 -0.029060617089271545 0.9897302389144897
0.23567993938922882 -0.33412933349609375 0.9073843955993652
0.28989848494529724 -0.13231603801250458 0.975409209728241
0.2864454388618469 -0.15101724863052368 0.9749332666397095
0.28178539872169495 -0.14837971329689026 0.9643559455871582
0.24463357031345367 -0.44705647230148315 0.951938271522522
0.27563679218292236 -0.16531319916248322 0.9296032190322876
0.2526227533817291 -0.3087748885154724 0.9302319288253784
0.2892603278160095 -0.16918081045150757 0.9698553085327148
0.2882360517978668 -0.18888212740421295 0.9672156572341919
0.2929055392742157 -0.19333569705486298 0.9913340210914612
0.2878212034702301 -0.2009522020816803 0.972754955291748
0.28660622239112854 -0.15699373185634613 0.9601320028305054
0.28317078948020935 -0.16051024198532104 0.9464576244354248
0.25986137986183167 -0.44768619537353516 0.9599213004112244
0.22073222696781158 -0.3462814688682556 0.9752645492553711
0.221732959151268 -0.35117092728614807 0.9721945524215698
0.22411631047725677 -0.3626292049884796 0.9748842120170593
0.2190140038728714 -0.34649184346199036 0.968393087387085
0.22090737521648407 -0.367655873298645 0.973397970199585
0.2143188714981079 -0.42650455236434937 0.9771767258644104
0.2230888158082962 -0.43760526180267334 0.9798598289489746
0.2259119153022766 -0.3737368583679199 0.9652833938598633
0.22409434616565704 -0.3803306519985199 0.9561756253242493
0.22398072481155396 -0.4018797278404236 0.9663770794868469
0.22078876197338104 -0.41549843549728394 0.9797437191009521
0.2414252758026123 -0.21926680207252502 0.956693172454834
0.26794204115867615 -0.20166856050491333 1.0162205696105957
0.2670990526676178 -0.1833379566669464 1.0099602937698364
0.2653888165950775 -0.13292862474918365 0.9873784780502319
0.2646690607070923 -0.11780676245689392 0.9782213568687439
0.22386805713176727 -0.365694522857666 0.9295912981033325
0.22851113975048065 -0.31674790382385254 0.9288086295127869
0.22281192243099213 -0.3408997058868408 0.8982455730438232
0.22421829402446747 -0.33665037155151367 0.9281988143920898
0.2998146116733551 -0.021297436207532883 1.0354140996932983
0.3004373610019684 0.012871302664279938 1.0187981128692627
0.2968279719352722 -0.0019414648413658142 1.0211573839187622
0.2941001355648041 -0.0027564838528633118 1.0114121437072754
0.2884003221988678 -0.015469849109649658 1.0055110454559326
0.27449652552604675 -0.07762937992811203 0.9749342203140259
0.27046412229537964 -0.0992986410856247 0.967291533946991
0.28585970401763916 -0.1754252016544342 1.0355467796325684
0.2511782646179199 -0.41445058584213257 1.0157825946807861
0.23809503018856049 -0.45307832956314087 0.9997385740280151
0.2114551067352295 -0.488023042678833 0.9129835963249207
0.20654311776161194 -0.48376697301864624 0.9183871150016785
0.2398461103439331 -0.166279137134552 0.8716621398925781
0.23168720304965973 -0.17266316711902618 0.8670201301574707
0.2925875186920166 -0.07782761752605438 0.9972913265228271
0.29043835401535034 -0.10182785242795944 0.9929529428482056
0.25826743245124817 -0.41386207938194275 1.0185654163360596
0.23884281516075134 -0.2891281545162201 0.9218471050262451
0.24375970661640167 -0.30581381916999817 0.9237478971481323
0.2667008340358734 -0.30401620268821716 0.9851928353309631
0.2659122049808502 -0.32484138011932373 0.985397458076477
0.2617185115814209 -0.34247279167175293 0.9833163022994995
0.2650672495365143 -0.218621164560318 0.9180771112442017
0.3012928068637848 -0.04547366127371788 1.0008288621902466
0.29714658856391907 -0.051974572241306305 0.9885692596435547
0.2284737527370453 -0.5334805846214294 0.9474395513534546
0.2779301106929779 -0.24636977910995483 0.9691179990768433
0.27410611510276794 -0.26260870695114136 0.9591169953346252
0.27230989933013916 -0.21845927834510803 0.9366132020950317
0.26087915897369385 -0.2105616331100464 0.9104616045951843
0.2563266456127167 -0.2376878559589386 0.920009970664978
0.28921154141426086 -0.2175532579421997 0.9686383605003357
0.2902272939682007 -0.21494987607002258 0.9851552248001099
0.28656715154647827 -0.22682134807109833 0.9807004332542419
0.28222528100013733 -0.22917167842388153 0.9630182385444641
0.2557075321674347 -0.1952378749847412 0.9796110391616821
0.25189656019210815 -0.1660115271806717 0.9697203040122986
0.24824820458889008 -0.1829386055469513 0.9771480560302734
0.24732354283332825 -0.1870335340499878 0.9639865159988403
0.21742232143878937 -0.44989514350891113 0.960817813873291
0.23957830667495728 -0.18223026394844055 0.9326351881027222
0.2258674055337906 -0.493614137172699 0.9814531207084656
0.23607556521892548 -0.2505517303943634 0.9375027418136597
0.28545859456062317 -0.039364077150821686 1.011594295501709
0.2821378707885742 -0.0504935160279274 1.00234055519104
0.28019794821739197 -0.042974989861249924 0.9917749166488647
0.2674763798713684 -0.2235114872455597 0.9989289045333862
0.27096518874168396 -0.24205221235752106 1.0151886940002441
0.26732587814331055 -0.23389855027198792 1.006779432296753
0.23877084255218506 -0.19616687297821045 0.8989269733428955
0.22946321964263916 -0.1919000744819641 0.8591956496238708
0.2299770712852478 -0.4231986999511719 0.9376577734947205
0.22212663292884827 -0.43766307830810547 0.9349628686904907
0.21870793402194977 -0.4469200372695923 0.9355244636535645
0.27538496255874634 -0.16590532660484314 0.9883590936660767
0.2831295132637024 -0.248069167137146 1.0181046724319458
0.2761414051055908 -0.25301334261894226 1.0129783153533936
0.27407747507095337 -0.24165010452270508 1.0055887699127197
0.2658296227455139 -0.23322585225105286 0.9910144805908203
0.20903220772743225 -0.5147442817687988 0.918270468711853
0.2153838872909546 -0.555497944355011 0.9372887015342712
0.30058881640434265 -0.0029424279928207397 1.011542558670044
0.2990094721317291 0.020685628056526184 0.9933037757873535
0.3020850121974945 0.014888674020767212 1.008499264717102
0.3012111783027649 0.002474062144756317 1.0045465230941772
0.2963278889656067 -0.0025795623660087585 0.9933992028236389
0.29521358013153076 0.007307112216949463 0.9895632863044739
0.2908799350261688 -0.004581466317176819 0.9874550104141235
0.24522045254707336 -0.24026989936828613 0.9150976538658142
0.2910609841346741 -0.020848803222179413 0.9805663824081421
