0.1547318994998932 -0.08097748458385468 0.4946596622467041
0.18358147144317627 -0.03171999007463455 0.3912408947944641
0.09765329957008362 -0.061701275408267975 1.4395899772644043
0.08546827733516693 -0.053740546107292175 1.4363768100738525
0.10460612177848816 -0.039578765630722046 1.394363284111023
0.12108771502971649 0.06757054477930069 0.9313659071922302
0.12862513959407806 -0.11565771698951721 0.8653324246406555
0.1971665769815445 -0.0034008659422397614 0.26775622367858887
0.2070169448852539 -0.035244278609752655 0.2728153169155121
0.11255064606666565 -0.020948398858308792 1.3908063173294067
0.16026124358177185 0.10576964169740677 1.2809876203536987
0.1666979342699051 0.13315840065479279 1.2529278993606567
0.1063017025589943 -0.23443415760993958 1.1600974798202515
0.1554848849773407 -0.06233978271484375 1.0015231370925903
0.15878203511238098 -0.12051797658205032 0.9957318305969238
0.14089612662792206 -0.0024318546056747437 1.209014654159546
0.18540328741073608 -0.09542390704154968 1.092671275138855
0.19679532945156097 -0.05521111190319061 1.0801959037780762
0.19543324410915375 -0.13706427812576294 1.1504645347595215
-0.2908306121826172 -0.05791257321834564 1.0528194904327393
-0.3006930947303772 -0.11874646693468094 1.0289192199707031
-0.22824622690677643 -0.11214900016784668 1.1383529901504517
-0.2447529137134552 -0.11680928617715836 1.1847401857376099
-0.20151850581169128 -0.07294727861881256 1.1500481367111206
-0.20034819841384888 -0.030257446691393852 1.1750938892364502
-0.1943075954914093 -0.15554484724998474 0.8788224458694458
-0.12579016387462616 0.18684285879135132 1.0179643630981445
-0.12779821455478668 0.1729419082403183 1.1240237951278687
-0.14408192038536072 -0.24033647775650024 1.1290173530578613
-0.13934865593910217 -0.16323402523994446 0.9668736457824707
-0.24117282032966614 -0.0817505419254303 0.27775371074676514
-0.21746741235256195 -0.13239189982414246 0.29436931014060974
-0.174215629696846 -0.02349187806248665 0.4996733069419861
-0.1523020714521408 -0.19627490639686584 0.8627880215644836
-0.1571986973285675 -0.07495762407779694 0.6420443058013916
-0.14838102459907532 -0.11030013114213943 0.6984958648681641
-0.1364440619945526 -0.04825417697429657 0.7001969814300537
-0.10234405100345612 -0.016298945993185043 1.1087229251861572
-0.1085861399769783 -0.0789484828710556 1.136582374572754
-0.045385271310806274 0.2263026237487793 1.1993911266326904
-0.11464991420507431 -0.017654526978731155 0.8593027591705322
-0.17419689893722534 -0.1462557464838028 0.3084215521812439
-0.11387744545936584 -0.02225085347890854 1.2175562381744385
-0.09246402978897095 -0.039787013083696365 1.142625331878662
-0.16298222541809082 -0.11926152557134628 0.4481988549232483
-0.13542741537094116 0.0014637596905231476 1.7485860586166382
-0.1401495486497879 -0.03563079982995987 1.7420610189437866
-0.09772630035877228 -0.07365382462739944 1.7520337104797363
-0.11341878026723862 -0.11459949612617493 1.7091176509857178
-0.12791533768177032 -0.1039799153804779 1.6072430610656738
-0.14844489097595215 -0.0993238240480423 0.3437780737876892
-0.07274570316076279 -0.12571868300437927 0.7471503019332886
-0.12628649175167084 -0.11101825535297394 0.2751256823539734
-0.143380269408226 -0.1384240984916687 0.27873408794403076
-0.1599619835615158 -0.05913163721561432 0.21075010299682617
-0.05136556178331375 0.06547737121582031 0.9724592566490173
-0.0877768024802208 0.013484735041856766 1.7971138954162598
-0.10215070098638535 -0.0012113749980926514 1.7832309007644653
0.043789103627204895 0.1506548821926117 1.1774790287017822
-0.050782956182956696 0.1574556529521942 1.185056447982788
0.022813912481069565 0.13187822699546814 1.240399956703186
0.004523415118455887 -0.03328077495098114 1.2628191709518433
0.030775902792811394 0.2201147973537445 1.2319726943969727
0.033955350518226624 0.17150349915027618 1.0614807605743408
0.09595459699630737 0.2342047095298767 1.145638346672058
0.018690353259444237 0.11423178017139435 1.6722524166107178
0.06896036863327026 0.16356199979782104 1.067558765411377
0.045084282755851746 -0.21875180304050446 0.9138864874839783
0.08730585873126984 -0.04892025515437126 0.2716433107852936
0.11351644992828369 -0.04921518638730049 0.21542301774024963
0.0597611665725708 -0.12605105340480804 0.7041317820549011
0.03602837771177292 0.014812806621193886 1.0748016834259033
0.08207466453313828 -0.04274421185255051 0.5762016177177429
0.09104615449905396 0.11010242253541946 1.3142871856689453
0.06757934391498566 -0.07447052001953125 1.4255967140197754
0.05070086941123009 0.10117968171834946 1.6357040405273438
0.04623406380414963 0.029450789093971252 1.6087844371795654
0.05192387476563454 0.04679666459560394 1.5789587497711182
0.02610141783952713 -0.004232574254274368 1.831068515777588
0.07237937301397324 -0.09107977896928787 1.356698751449585
0.14524802565574646 -0.008389744907617569 0.5124210119247437
0.11089959740638733 0.003000713884830475 0.5097978711128235
0.13899993896484375 0.011696774512529373 0.36379319429397583
0.1601874977350235 0.012365881353616714 0.3367839455604553
0.08050598949193954 -0.04339190199971199 1.5264461040496826
0.06583651900291443 -0.053040824830532074 1.5361651182174683
0.08338047564029694 -0.053704749792814255 1.5177668333053589
0.12949585914611816 -0.05214819684624672 0.7693745493888855
0.14106853306293488 -0.09172825515270233 0.6385075449943542
0.12111856043338776 0.02818690985441208 0.9718248844146729
0.10877367854118347 -0.07205837965011597 1.0974764823913574
0.10341957211494446 -0.1264967918395996 1.0903398990631104
0.11116371303796768 -0.15137046575546265 1.0367517471313477
0.0859508216381073 -0.004468534141778946 1.649097204208374
0.09597377479076385 -0.011831481009721756 1.562422275543213
0.08929356187582016 -0.15296855568885803 1.249812364578247
0.11153930425643921 0.06459102779626846 1.5485414266586304
0.10226023942232132 0.03766243904829025 1.5899603366851807
0.19185511767864227 0.028496675193309784 0.10109464824199677
0.20428448915481567 -0.012121811509132385 0.09455181658267975
0.12095388770103455 0.04569300636649132 1.5143277645111084
0.12762990593910217 0.06060692295432091 1.478734016418457
0.13335147500038147 0.050519634038209915 1.4397034645080566
0.13609415292739868 0.06800360977649689 1.4247181415557861
0.09785164147615433 -0.23737117648124695 1.179811954498291
0.17683804035186768 -0.1541822999715805 0.880145251750946
0.1187191903591156 -0.21069619059562683 1.192804217338562
0.11586514115333557 -0.23554250597953796 1.1769790649414062
0.2065548449754715 -0.11024047434329987 0.8988800644874573
0.20818692445755005 -0.08825929462909698 0.8797284364700317
0.21597802639007568 -0.0531315952539444 0.8887614607810974
-0.21104180812835693 -0.10766561329364777 1.196252703666687
-0.16861696541309357 -0.11025145649909973 1.2735717296600342
-0.17421677708625793 -0.1059345006942749 1.2547640800476074
-0.16542178392410278 -0.10052810609340668 1.263210415840149
-0.1642111837863922 -0.09605047851800919 1.2800359725952148
-0.20129333436489105 0.0015780385583639145 0.8790862560272217
-0.13978011906147003 -0.05917857214808464 1.303356647491455
-0.14423586428165436 -0.06561298668384552 1.0838708877563477
-0.13909946382045746 0.09412744641304016 1.556680679321289
-0.14058755338191986 -0.08866748958826065 1.207153558731079
-0.13864658772945404 -0.08217592537403107 1.1558446884155273
-0.11175501346588135 0.09921476989984512 1.4494975805282593
-0.102401964366436 0.09848581999540329 1.4076287746429443
-0.1302075982093811 -0.14192050695419312 1.0531530380249023
-0.09628428518772125 -0.16851305961608887 1.0113410949707031
-0.13185390830039978 -0.03287343308329582 0.7850498557090759
-0.04769804701209068 0.19926178455352783 1.2735323905944824
-0.08265511691570282 0.12601864337921143 1.6484910249710083
-0.15442977845668793 -0.06148650497198105 0.0705287829041481
-0.16628223657608032 -0.05209103971719742 0.060482047498226166
-0.08637458086013794 0.0266366358846426 0.8721240758895874
-0.0035205762833356857 0.09746673703193665 0.8581897020339966
-0.06612658500671387 -0.017840035259723663 0.8497641086578369
0.017726853489875793 0.10019954293966293 1.3388862609863281
-0.042510684579610825 -0.08326387405395508 0.7713624238967896
-0.05798383057117462 -0.1307997703552246 1.625891089439392
-0.010530450381338596 0.016783513128757477 0.8781567811965942
-0.006577461026608944 -0.023577136918902397 0.8568488955497742
0.01494781207293272 -0.11705347895622253 0.8612101078033447
-0.08020402491092682 -0.167153462767601 0.8624333739280701
-0.004930328577756882 -0.22683124244213104 0.8556092977523804
0.031705453991889954 -0.10886893421411514 0.8394179344177246
-0.005523874890059233 -0.16246047616004944 0.8676793575286865
-0.004310786724090576 0.023484524339437485 1.5011454820632935
0.026892222464084625 -0.035214412957429886 0.8523779511451721
0.02852863073348999 -0.0494687557220459 0.8357601761817932
0.0061169639229774475 0.03524336963891983 1.5796949863433838
0.011279277503490448 0.036698974668979645 1.5523964166641235
0.04054567217826843 -0.12299665808677673 0.8549689054489136
0.1298837512731552 0.06015246361494064 0.8623545169830322
0.09013444185256958 -0.019637782126665115 0.27371329069137573
0.05291284620761871 -0.036012470722198486 0.8222836852073669
0.08552347868680954 0.14648444950580597 1.2131664752960205
0.12232036888599396 -0.06526822596788406 0.394571989774704
0.1149689182639122 -0.034575510770082474 0.33357590436935425
0.13225607573986053 -0.05886997655034065 0.3457111716270447
0.12980426847934723 -0.09297701716423035 0.29089590907096863
0.09388852119445801 0.07611186802387238 1.515697956085205
0.07892069965600967 -0.01590714603662491 0.8574832677841187
0.10828953981399536 -0.03644876182079315 0.8378047943115234
0.08520275354385376 -0.07327882200479507 1.2580749988555908
0.14941245317459106 -0.08058971911668777 0.4406212568283081
0.08390112221240997 0.04926295951008797 1.6249806880950928
0.07149694859981537 -0.03069128841161728 1.3130736351013184
0.16073811054229736 -0.05938059836626053 0.3492749333381653
0.11143668740987778 0.20661325752735138 1.206551194190979
0.08859056234359741 -0.05057191476225853 1.232578158378601
0.15904559195041656 0.012993697077035904 0.2286384254693985
0.15301047265529633 0.20920805633068085 1.1244574785232544
0.15147094428539276 0.022947203367948532 0.268246591091156
0.17179062962532043 -0.0934794545173645 0.26192742586135864
0.13665291666984558 0.09421981871128082 1.3295619487762451
0.09526526927947998 -0.043937887996435165 1.481135368347168
0.1052035316824913 -0.03854883462190628 1.4433084726333618
0.09386792033910751 -0.044877246022224426 1.4767036437988281
0.12040308117866516 -0.02974318154156208 1.4223517179489136
0.10862547904253006 -0.1796654760837555 1.2359721660614014
0.09580736607313156 -0.18887487053871155 1.2298189401626587
0.16204965114593506 0.1220361664891243 1.235687494277954
0.18007409572601318 0.15813690423965454 1.1698024272918701
0.17702597379684448 0.14973126351833344 1.1361184120178223
0.12020903080701828 -0.03673822432756424 1.263115406036377
0.11457112431526184 -0.07281243056058884 1.2737078666687012
0.16099753975868225 -0.17827311158180237 0.8897654414176941
0.12053003907203674 -0.08671156316995621 1.2797640562057495
0.13173411786556244 -0.10165548324584961 1.1726404428482056
0.14253203570842743 -0.02607981115579605 1.16420316696167
0.1352013647556305 -0.07806868851184845 1.1462209224700928
0.2038583606481552 -0.12156952917575836 1.185278296470642
0.22287951409816742 -0.08038266003131866 1.0628762245178223
0.2091747373342514 -0.13695569336414337 1.1048814058303833
-0.14973217248916626 -0.22952070832252502 1.1693506240844727
-0.15351904928684235 -0.15837514400482178 1.2197303771972656
-0.15917477011680603 -0.14619778096675873 1.2378718852996826
-0.13944023847579956 -0.21309658885002136 1.1697269678115845
-0.13043636083602905 0.10171346366405487 1.477993369102478
-0.13728536665439606 0.09285024553537369 1.4610960483551025
-0.13787421584129333 0.10993357747793198 1.417876958847046
-0.15873804688453674 -0.001452956348657608 1.710744023323059
-0.16206909716129303 -0.039629653096199036 1.6258190870285034
-0.20556220412254333 -0.09945183992385864 0.3400125801563263
-0.1330670714378357 -0.0671374648809433 0.8601480722427368
-0.13475514948368073 -0.09186172485351562 0.8402758836746216
-0.10993064939975739 0.20444278419017792 0.9950553178787231
-0.10458637773990631 -0.12845779955387115 1.2648298740386963
-0.11947529762983322 -0.02928907237946987 0.83180832862854
-0.11143729835748672 -0.014489293098449707 1.7642935514450073
-0.09831984341144562 -0.12290669232606888 1.1422865390777588
-0.06462738662958145 -0.18599161505699158 1.139649748802185
-0.050453245639801025 0.17748992145061493 1.1066492795944214
0.02617783285677433 0.16956572234630585 1.1034331321716309
-0.06983613967895508 -0.02158106490969658 1.159427523612976
-0.054579950869083405 -0.11301033198833466 0.8536390662193298
-0.054927658289670944 -0.18856321275234222 1.0723880529403687
-0.05210604891180992 0.017612911760807037 1.0625284910202026
-0.051787443459033966 -0.11988949775695801 1.7242705821990967
0.02888876385986805 -0.10166344046592712 0.7753536701202393
-0.03614148497581482 0.11554142832756042 1.310867428779602
0.10112394392490387 -0.01791081577539444 0.06530918926000595
0.13968002796173096 0.22646020352840424 1.055521011352539
0.09886666387319565 0.16593563556671143 1.1257352828979492
0.07883648574352264 0.24607035517692566 1.0659689903259277
0.09905190020799637 0.0893799215555191 0.8679333329200745
0.1653064638376236 0.057626597583293915 0.09530647099018097
0.12150083482265472 -0.03768474608659744 0.862795889377594
0.15434116125106812 -0.06780830025672913 0.3973493278026581
0.1009128987789154 -0.06752568483352661 1.4030261039733887
0.1014215499162674 -0.0825653076171875 1.321061134338379
0.2004050463438034 0.0009904829785227776 0.8809447288513184
0.2025747448205948 -0.0485859215259552 0.9448918104171753
0.2195083051919937 -0.11496719717979431 1.073702335357666
-0.2531220316886902 -0.12762175500392914 1.1503617763519287
-0.20056238770484924 -0.08713734149932861 0.9402905106544495
-0.21831542253494263 -0.07387804239988327 0.8850172758102417
-0.14102786779403687 0.09079593420028687 1.4140626192092896
-0.12978768348693848 0.1300739347934723 1.265931487083435
-0.14408402144908905 0.009906250983476639 1.5416274070739746
-0.13723531365394592 -0.05919981002807617 1.0511263608932495
-0.14285778999328613 -0.0864035040140152 1.0923258066177368
-0.14385315775871277 0.014814469963312149 1.5427682399749756
-0.14451593160629272 0.001477319747209549 1.5280346870422363
-0.14243090152740479 0.006036821752786636 1.535727620124817
-0.14397521317005157 0.006763532757759094 1.5410372018814087
-0.14857372641563416 -0.005816459655761719 1.5292867422103882
-0.19593143463134766 -0.1557105928659439 0.18759994208812714
-0.15735088288784027 -0.07707278430461884 1.6799678802490234
-0.04100657254457474 -0.016279149800539017 1.2149275541305542
-0.15525640547275543 -0.17378541827201843 0.06895353645086288
-0.05515635386109352 -0.024408241733908653 1.2572308778762817
-0.012293098494410515 -0.02493773028254509 1.1706364154815674
-0.03948700428009033 0.09418915957212448 0.9349308013916016
-0.045601241290569305 -0.022864431142807007 1.7821463346481323
-0.05873272195458412 -0.08228453993797302 0.7095288038253784
-0.009539890103042126 0.12043900042772293 1.2718091011047363
0.0037662051618099213 -0.1921509951353073 1.02098548412323
-0.038826681673526764 -0.1877206265926361 1.2391457557678223
0.0346926711499691 0.15303237736225128 1.148069977760315
0.11064929515123367 -0.014363989233970642 0.20692208409309387
0.06437849998474121 -0.1786487102508545 1.0018938779830933
0.11340052634477615 -0.17183877527713776 0.9843711853027344
0.06660082936286926 0.04891114681959152 1.5479803085327148
0.06038496643304825 -0.16442334651947021 1.1873939037322998
0.031752973794937134 -0.0335579514503479 1.1681485176086426
0.08799763023853302 -0.02524665743112564 1.0899051427841187
0.07872413843870163 0.0607057586312294 0.9641823172569275
0.156291663646698 -0.040965571999549866 0.044901810586452484
0.1311691254377365 -0.0331973135471344 0.043114688247442245
0.18849648535251617 -0.021688610315322876 0.05103753134608269
0.19311441481113434 -0.06836365908384323 0.24900901317596436
0.09166513383388519 -0.043706417083740234 1.4765782356262207
0.09062587469816208 -0.041625794023275375 1.4742484092712402
0.08534055948257446 -0.05438930168747902 1.3335466384887695
0.10096633434295654 -0.07545678317546844 1.3115311861038208
0.19380125403404236 0.17552824318408966 1.0646543502807617
0.1898513287305832 0.15730524063110352 1.0156420469284058
0.19961139559745789 0.16310201585292816 1.0127921104431152
0.23814943432807922 -0.07166504859924316 1.0616376399993896
0.22846630215644836 -0.1327318549156189 1.049854040145874
0.23904168605804443 -0.15702292323112488 1.0422327518463135
-0.24278974533081055 -0.07851463556289673 1.076525092124939
-0.16054776310920715 -0.18947356939315796 1.2061601877212524
-0.17794528603553772 -0.10456621646881104 0.36730220913887024
-0.0714520812034607 0.1897777020931244 0.9686093926429749
-0.10630285739898682 -0.1431831419467926 1.090893030166626
-0.03616559877991676 -0.04046717658638954 0.8488197922706604
-0.05906381085515022 -0.02996068075299263 0.8146060705184937
-0.052035361528396606 -0.08254507184028625 0.8175042867660522
-0.006600859574973583 0.01358376257121563 1.1078389883041382
0.026517916470766068 -0.20905828475952148 0.845313310623169
0.09602949023246765 0.016165338456630707 0.8737337589263916
0.11832273006439209 0.16570943593978882 1.0879565477371216
0.08996325731277466 0.012304466217756271 1.5653588771820068
0.10107184201478958 0.03564254939556122 1.5406876802444458
0.18994858860969543 -0.1173102855682373 0.9456364512443542
-0.16385282576084137 -0.20099779963493347 1.173833966255188
-0.14534536004066467 0.06261815875768661 1.5736302137374878
-0.0445275716483593 0.19812503457069397 1.016035556793213
-0.12556986510753632 0.09162668883800507 1.6049789190292358
-0.09963266551494598 0.051282379776239395 1.5950478315353394
-0.06558983772993088 0.042831338942050934 1.5733492374420166
0.03037676215171814 -0.19394232332706451 1.0771162509918213
0.05029546096920967 -0.14402459561824799 1.2749625444412231
0.14217352867126465 -0.06396666169166565 0.17503398656845093
0.0883893072605133 -0.1263967901468277 1.2323260307312012
0.0968865156173706 -0.11681224405765533 1.1790568828582764
0.11810772866010666 0.07308845221996307 1.4401922225952148
0.10419926047325134 0.10059194266796112 1.4463551044464111
0.10044819116592407 -0.06968273967504501 1.1866042613983154
0.12546800076961517 -0.07506952434778214 0.8475387096405029
0.07796469330787659 -0.16910263895988464 1.252197504043579
0.13977712392807007 0.10945578664541245 1.3531643152236938
-0.11530743539333344 0.1224866434931755 1.3537743091583252
-0.1701197773218155 -0.027756502851843834 0.373617947101593
0.04521708935499191 -0.09983320534229279 0.733871340751648
0.0070066917687654495 -0.12275359034538269 1.702977180480957
-0.12496066093444824 0.19579678773880005 1.0677542686462402
-0.1576559692621231 -0.09896203875541687 1.283450961112976
-0.1303483247756958 -0.06711066514253616 0.4117129147052765
0.015095562674105167 0.13864509761333466 1.478896141052246
0.11212649196386337 -0.04362701624631882 0.047457218170166016
0.08255371451377869 -0.05051419138908386 1.5230114459991455
0.08413264155387878 -0.052590012550354004 1.5184509754180908
0.0892830416560173 -0.04388636350631714 1.4304527044296265
0.18477687239646912 -0.05045592039823532 0.22205817699432373
0.18455833196640015 -0.015798579901456833 0.21388210356235504
0.13814067840576172 -0.10638029873371124 1.221280574798584
-0.1772174835205078 -0.16027450561523438 0.9403207302093506
-0.12771593034267426 0.10669125616550446 1.3852968215942383
-0.12562379240989685 0.10456696897745132 1.3854256868362427
-0.1311173439025879 0.1020209938287735 1.3858128786087036
-0.14018213748931885 -0.0954153835773468 0.21045847237110138
-0.03572947904467583 -0.09552760422229767 0.8503471612930298
0.11683736741542816 -0.039535462856292725 0.16530992090702057
0.16510896384716034 -0.1300065815448761 1.176443338394165
0.06691659986972809 -0.07330896705389023 1.6599857807159424
0.14343968033790588 -0.09885388612747192 0.7967890501022339
0.13309048116207123 0.06624770909547806 1.4043748378753662
0.1404193639755249 0.08782221376895905 1.3663967847824097
0.10853974521160126 0.029389627277851105 0.0756310522556305
0.09331221878528595 -0.48345938324928284 1.0600348711013794
0.09639275819063187 -0.4476426839828491 1.0410138368606567
0.0943080335855484 -0.46184200048446655 1.0432158708572388
0.08805191516876221 -0.46082231402397156 1.0474690198898315
0.08693946152925491 -0.482880175113678 1.0512232780456543
0.098255954682827 -0.4707295894622803 1.0660830736160278
0.15268030762672424 -0.33361315727233887 1.047379970550537
0.13619364798069 -0.335918664932251 1.0370951890945435
0.1408117562532425 -0.35560348629951477 1.0461759567260742
0.13489946722984314 -0.36380434036254883 1.0474731922149658
0.19317109882831573 -0.18064428865909576 0.9809098243713379
0.1868906021118164 -0.1986207365989685 0.9967522025108337
0.18208208680152893 -0.19197897613048553 0.9707438349723816
0.13055390119552612 -0.3498955965042114 1.0047013759613037
0.12789474427700043 -0.3628898859024048 1.0160493850708008
0.13345707952976227 -0.391049325466156 1.0707210302352905
0.13605453073978424 -0.3762803077697754 1.0551265478134155
0.16605061292648315 -0.22856426239013672 0.9519076943397522
0.16993774473667145 -0.23432549834251404 0.9785785675048828
0.18042726814746857 -0.2736186981201172 1.040376901626587
0.17379561066627502 -0.26333513855934143 1.0354794263839722
0.1134767234325409 -0.4562680125236511 1.0745761394500732
0.10436145961284637 -0.44143301248550415 1.028320074081421
0.1906295120716095 -0.19527286291122437 0.9633395075798035
0.18322275578975677 -0.199082612991333 0.9623313546180725
0.28647932410240173 -0.019107818603515625 1.0480459928512573
0.2759605646133423 -0.03176987171173096 1.0456559658050537
0.27915939688682556 -0.019094623625278473 1.027941346168518
0.126519113779068 -0.4126085042953491 1.061787486076355
0.1174173429608345 -0.4360378384590149 1.068288803100586
0.18666985630989075 -0.19858595728874207 0.9560542106628418
0.1875593215227127 -0.1935693323612213 0.9457345604896545
0.0787111148238182 -0.4989789128303528 1.0133553743362427
0.07302526384592056 -0.5147279500961304 1.0193463563919067
0.289048433303833 -0.01252930611371994 1.0414164066314697
0.2877471148967743 -0.022794559597969055 1.0529993772506714
0.2840845584869385 -0.01096697524189949 1.0367655754089355
0.2850117087364197 -0.020566437393426895 1.0256996154785156
0.07652344554662704 -0.544143795967102 1.0687912702560425
0.07604830712080002 -0.5637403130531311 1.078078269958496
0.06512422114610672 -0.5639728307723999 1.0610939264297485
0.15400445461273193 -0.2947365939617157 0.9810925722122192
0.1509898602962494 -0.3146716356277466 0.9780082702636719
0.1379343569278717 -0.3313875198364258 0.9792648553848267
0.1394203156232834 -0.33393892645835876 0.9680055975914001
0.28970634937286377 -0.025850601494312286 1.0597776174545288
0.2882675230503082 -0.008670888841152191 1.0346062183380127
0.1377459317445755 -0.41241127252578735 1.0765955448150635
0.14172957837581635 -0.41411876678466797 1.0742146968841553
0.12991902232170105 -0.4255430996417999 1.075971007347107
0.13145218789577484 -0.44349905848503113 1.0817081928253174
0.16871292889118195 -0.25673186779022217 0.9680606722831726
0.16143512725830078 -0.2726903557777405 0.9643359780311584
0.16018420457839966 -0.2762133479118347 0.9676761031150818
0.2917657792568207 -0.012089885771274567 1.039103627204895
0.2932871878147125 -0.029915835708379745 1.0564935207366943
0.2848224937915802 -0.022184841334819794 1.0277570486068726
0.1920686513185501 -0.16806839406490326 0.9178173542022705
0.1886533498764038 -0.17644378542900085 0.9100581407546997
0.1874028742313385 -0.18898463249206543 0.9333041906356812
0.19035474956035614 -0.18046265840530396 0.9236660599708557
0.1868283599615097 -0.17465198040008545 0.9221994876861572
0.1316537857055664 -0.3532050848007202 0.9665306210517883
0.13618731498718262 -0.33560270071029663 0.9640653133392334
0.13192874193191528 -0.34220966696739197 0.9531712532043457
0.13205984234809875 -0.3515000641345978 0.9502682089805603
0.2903294563293457 -0.03001394495368004 1.033807635307312
0.07601752877235413 -0.5735836029052734 1.0855633020401
0.07658306509256363 -0.5699697732925415 1.0658700466156006
0.07628180086612701 -0.5784501433372498 1.0811961889266968
0.07229061424732208 -0.5841855406761169 1.0822962522506714
0.07212547957897186 -0.5637704133987427 1.0552918910980225
0.2139318585395813 -0.1903391182422638 0.972209632396698
0.19812482595443726 -0.1978563368320465 0.958285927772522
0.09068259596824646 -0.4822402000427246 1.0017253160476685
0.0849556103348732 -0.5058541297912598 1.0097253322601318
0.07981119304895401 -0.5287694931030273 1.0232317447662354
0.19706828892230988 -0.26341480016708374 1.0407105684280396
0.1854012906551361 -0.2792806029319763 1.0394668579101562
0.18974879384040833 -0.2926967740058899 1.035412073135376
0.15098035335540771 -0.40745943784713745 1.0793734788894653
0.1420338898897171 -0.415752649307251 1.0713229179382324
0.12362320721149445 -0.46319806575775146 1.078851580619812
0.15234419703483582 -0.3793014883995056 1.0653445720672607
0.10808124393224716 -0.4621104598045349 1.0205858945846558
0.0955723449587822 -0.49384450912475586 1.0195249319076538
0.19995063543319702 -0.2654096484184265 1.033408284187317
0.15516142547130585 -0.3918399512767792 1.0485098361968994
0.15695245563983917 -0.37683290243148804 1.03740656375885
0.14744897186756134 -0.40880340337753296 1.0500293970108032
0.0900665670633316 -0.5391921997070312 1.0551921129226685
0.09436634182929993 -0.5304737687110901 1.0448697805404663
0.13519322872161865 -0.3797382414340973 0.9938011765480042
0.1479494422674179 -0.3845751881599426 1.0114555358886719
0.1359284520149231 -0.395876944065094 1.011985182762146
0.14124825596809387 -0.3977947533130646 1.0224183797836304
0.1747216135263443 -0.3312287926673889 1.0386221408843994
0.16273696720600128 -0.3617328107357025 1.0385866165161133
0.12515196204185486 -0.4639303386211395 1.0539547204971313
0.11879000812768936 -0.4805859327316284 1.0532108545303345
0.10969093441963196 -0.48867863416671753 1.0588940382003784
0.12382382154464722 -0.45319488644599915 1.029139757156372
0.12041032314300537 -0.4609871506690979 1.0259721279144287
0.15721450746059418 -0.34353113174438477 0.9992026686668396
0.15427590906620026 -0.35795843601226807 0.9983516335487366
0.1557380110025406 -0.3343598246574402 0.9847760796546936
0.152213454246521 -0.35077136754989624 0.9908088445663452
0.14919845759868622 -0.36841046810150146 1.0017601251602173
0.16913996636867523 -0.329590380191803 1.006905436515808
0.179306298494339 -0.3140607476234436 1.0135012865066528
0.16838663816452026 -0.30177128314971924 0.9876850247383118
0.17179472744464874 -0.3152559697628021 1.0038352012634277
0.12112214416265488 -0.46940183639526367 1.03371262550354
0.11624182760715485 -0.4885784387588501 1.0386102199554443
0.11203134804964066 -0.479447603225708 1.032545566558838
0.12436620891094208 -0.4829951524734497 1.0346190929412842
0.21665704250335693 -0.20663461089134216 0.9859479665756226
0.09677442163228989 -0.43158599734306335 1.056562900543213
0.08670323342084885 -0.4420953392982483 1.0473532676696777
0.12203309684991837 -0.37411582469940186 1.042858600616455
0.12382414191961288 -0.37079083919525146 1.0378416776657104
0.11502650380134583 -0.38550493121147156 1.0509562492370605
0.11933749169111252 -0.3758113980293274 1.034627079963684
0.11220649629831314 -0.38935214281082153 1.0424045324325562
0.13236750662326813 -0.34171175956726074 1.0227668285369873
0.1295200139284134 -0.3562331199645996 1.0207473039627075
0.1430901437997818 -0.323258638381958 1.020340085029602
0.12657631933689117 -0.38501012325286865 1.05367112159729
0.09527204930782318 -0.46202123165130615 1.0168038606643677
0.08793551474809647 -0.4735866189002991 1.0470173358917236
0.12257417291402817 -0.3729153871536255 1.0151646137237549
0.08321728557348251 -0.5001341104507446 1.0510640144348145
0.07318638265132904 -0.5185563564300537 1.0503854751586914
0.07894366979598999 -0.504325807094574 1.044487476348877
0.07553816586732864 -0.5353966355323792 1.060888409614563
0.20223192870616913 -0.1766342669725418 0.9996407628059387
0.20886340737342834 -0.2250857800245285 1.0671980381011963
0.19773226976394653 -0.23259590566158295 1.0568280220031738
0.20455463230609894 -0.2376759797334671 1.061505913734436
0.16501468420028687 -0.2582339942455292 0.9804580211639404
0.2729308307170868 -0.022992022335529327 1.0167207717895508
0.2796352803707123 -0.04482505843043327 1.0580031871795654
0.2737281322479248 -0.05523017793893814 1.0527745485305786
0.2710506319999695 -0.05065423995256424 1.0463629961013794
0.15998835861682892 -0.3423703908920288 1.050764560699463
0.11312352120876312 -0.4734414219856262 1.0905792713165283
0.0721709355711937 -0.5403186678886414 1.0391052961349487
0.24806411564350128 -0.0846109539270401 1.0116417407989502
0.23912857472896576 -0.11178267002105713 0.9974431991577148
0.1730278879404068 -0.32091253995895386 1.0569044351577759
0.16521112620830536 -0.3255484700202942 1.0498262643814087
0.14846853911876678 -0.36590784788131714 1.0523607730865479
0.07155715674161911 -0.5485308170318604 1.0440034866333008
0.0753464326262474 -0.5769449472427368 1.0898168087005615
0.07047727704048157 -0.5802410244941711 1.0929261445999146
0.07118089497089386 -0.5787177085876465 1.074467420578003
0.21813040971755981 -0.1524287611246109 0.9974356293678284
0.21641990542411804 -0.1784609705209732 0.9968761801719666
0.15660427510738373 -0.36873364448547363 1.0522361993789673
0.19676652550697327 -0.18134655058383942 0.9753479361534119
0.0752858817577362 -0.5205016136169434 1.020346999168396
0.23280517756938934 -0.19159263372421265 1.0810620784759521
0.23425018787384033 -0.19340316951274872 1.081484317779541
0.2268596887588501 -0.200180321931839 1.0659044981002808
0.23067636787891388 -0.20942997932434082 1.0739799737930298
0.22786743938922882 -0.22134321928024292 1.0809130668640137
0.21501171588897705 -0.19196675717830658 1.0491487979888916
0.2233920842409134 -0.20091870427131653 1.050703525543213
0.07614172995090485 -0.5831570625305176 1.0954830646514893
0.1313711404800415 -0.39149123430252075 0.9975436925888062
0.12834307551383972 -0.39913666248321533 1.006142020225525
0.12137137353420258 -0.40218067169189453 1.0057380199432373
0.12951768934726715 -0.36989548802375793 0.9874751567840576
0.23027127981185913 -0.2090238630771637 1.0752954483032227
0.2296116054058075 -0.21797208487987518 1.075892686843872
0.19684138894081116 -0.20350220799446106 0.9482840895652771
0.2374449372291565 -0.20058172941207886 1.0733509063720703
0.2316855788230896 -0.20851004123687744 1.0657813549041748
0.15521174669265747 -0.401086688041687 1.0724025964736938
0.18597382307052612 -0.20122238993644714 0.9203563928604126
0.18246722221374512 -0.20002120733261108 0.9180476069450378
0.1785704791545868 -0.21059483289718628 0.9032320976257324
0.17508730292320251 -0.22074058651924133 0.9085756540298462
0.22045430541038513 -0.18407613039016724 0.9934512972831726
0.22447210550308228 -0.22673942148685455 1.0591394901275635
0.14148525893688202 -0.41733741760253906 1.0586696863174438
0.13607637584209442 -0.43498530983924866 1.0606807470321655
0.19280847907066345 -0.21293337643146515 0.9442564845085144
0.18692386150360107 -0.22389638423919678 0.9426098465919495
0.18385049700737 -0.21647389233112335 0.9306305646896362
0.1370972990989685 -0.4363844394683838 1.0501785278320312
0.14550630748271942 -0.4207755923271179 1.0444278717041016
0.1314307600259781 -0.4273909628391266 1.0337116718292236
0.14303313195705414 -0.40730059146881104 1.0330005884170532
0.0974409356713295 -0.5058376789093018 1.026507019996643
0.0978269875049591 -0.5129136443138123 1.0371880531311035
0.20245686173439026 -0.21822527050971985 0.9631659984588623
0.21934175491333008 -0.22115224599838257 1.0093724727630615
0.20311212539672852 -0.2433566153049469 1.0063073635101318
0.20957380533218384 -0.23676797747612 0.9947829246520996
0.2033156156539917 -0.25892844796180725 1.0029454231262207
0.19292649626731873 -0.26755210757255554 0.9931733012199402
0.13865554332733154 -0.4448212683200836 1.0350847244262695
0.13926880061626434 -0.4368513226509094 1.0303573608398438
0.13324597477912903 -0.47020816802978516 1.0475720167160034
0.16597968339920044 -0.37611129879951477 1.0286301374435425
0.1525370478630066 -0.4010950028896332 1.0350465774536133
0.15705111622810364 -0.38254889845848083 1.0290539264678955
0.15947329998016357 -0.3927653133869171 1.0241992473602295
0.15866848826408386 -0.39864426851272583 1.032361388206482
0.1604798585176468 -0.38646411895751953 1.0302554368972778
0.1533840298652649 -0.40371888875961304 1.0266891717910767
0.1260850876569748 -0.4811477065086365 1.0419719219207764
0.12968958914279938 -0.47212034463882446 1.0333466529846191
0.0887024775147438 -0.4502977728843689 1.0634803771972656
0.08981847763061523 -0.46381664276123047 1.0575443506240845
0.09050390869379044 -0.44878506660461426 1.0435514450073242
0.07984969019889832 -0.46922314167022705 1.052139401435852
0.19376082718372345 -0.21704426407814026 1.0492911338806152
0.1843205690383911 -0.20349273085594177 0.9829145669937134
0.17705300450325012 -0.21584707498550415 0.9765537977218628
0.1988459974527359 -0.1860184371471405 1.0240120887756348
0.1065075546503067 -0.44248896837234497 1.0634410381317139
0.11235907673835754 -0.4174247980117798 1.035643219947815
0.1667858362197876 -0.2494690716266632 1.0023131370544434
0.16525112092494965 -0.26065221428871155 0.9911149740219116
0.18606503307819366 -0.2310238927602768 1.0403776168823242
0.1798137128353119 -0.2526271641254425 1.0365980863571167
0.11299493163824081 -0.4101404547691345 1.0362788438796997
0.10579956322908401 -0.45710089802742004 1.0684967041015625
0.15574492514133453 -0.2824271023273468 0.9980505108833313
0.14767655730247498 -0.3163314163684845 1.011418104171753
0.14929570257663727 -0.2992178499698639 0.9946821331977844
0.12032090127468109 -0.3936092257499695 1.0288017988204956
0.08145298063755035 -0.5217726230621338 1.0694098472595215
0.0687171146273613 -0.5567268133163452 1.0691040754318237
0.06517288088798523 -0.547654926776886 1.0481821298599243
0.214401975274086 -0.2185189425945282 1.073479413986206
0.2011474072933197 -0.2487964928150177 1.067246675491333
0.17658604681491852 -0.29002076387405396 1.0424481630325317
0.1674230992794037 -0.3128434121608734 1.049237608909607
0.1456213742494583 -0.3131464123725891 0.9862729907035828
0.20114591717720032 -0.26312416791915894 1.0738270282745361
0.1977808177471161 -0.2470325231552124 1.0436302423477173
0.19179826974868774 -0.25968053936958313 1.0425788164138794
0.10548695921897888 -0.49363040924072266 1.0823899507522583
0.09584872424602509 -0.510903000831604 1.0758010149002075
0.11922956258058548 -0.40170300006866455 1.0149388313293457
0.2367987185716629 -0.12870436906814575 1.0252254009246826
0.24139101803302765 -0.11622399836778641 1.0286214351654053
0.13562068343162537 -0.3388550877571106 0.9654163122177124
0.17932376265525818 -0.30482012033462524 1.0435035228729248
0.17793260514736176 -0.3200792670249939 1.060486912727356
0.11174311488866806 -0.48738211393356323 1.086678385734558
0.1119757741689682 -0.4881160259246826 1.0817822217941284
0.1042429581284523 -0.501643717288971 1.077481985092163
0.18134233355522156 -0.224970743060112 0.9398496150970459
0.171953022480011 -0.23921000957489014 0.9396288394927979
0.16818544268608093 -0.23788249492645264 0.9414803385734558
0.17619270086288452 -0.21920685470104218 0.9339003562927246
0.17990167438983917 -0.22069120407104492 0.933375358581543
0.17103442549705505 -0.22054575383663177 0.9159238934516907
0.1708269864320755 -0.24892231822013855 0.9623212218284607
0.16402655839920044 -0.21900813281536102 0.9149208068847656
0.16193348169326782 -0.23242226243019104 0.9047508239746094
0.2209053337574005 -0.1864919662475586 1.022560715675354
0.21862569451332092 -0.19366353750228882 1.0276495218276978
0.21263684332370758 -0.1794135719537735 0.9941815137863159
0.22056816518306732 -0.22633716464042664 1.0715367794036865
0.21162597835063934 -0.23527508974075317 1.0592373609542847
0.1501988023519516 -0.40882331132888794 1.089786410331726
0.15131895244121552 -0.40408259630203247 1.0901466608047485
0.14409850537776947 -0.4005800485610962 1.0782666206359863
0.16627797484397888 -0.22306734323501587 0.9006431102752686
0.17346960306167603 -0.20889639854431152 0.9040259122848511
0.1728454977273941 -0.25213566422462463 0.9581212401390076
0.11096552014350891 -0.44905713200569153 1.0170049667358398
0.09733016788959503 -0.46670618653297424 1.0107828378677368
0.2234111726284027 -0.20996218919754028 1.0509755611419678
0.23113366961479187 -0.1722719669342041 1.022536277770996
0.115996815264225 -0.4760116934776306 1.0650498867034912
0.1439560353755951 -0.3394157290458679 0.9702423810958862
0.27336570620536804 -0.06197388842701912 1.0141609907150269
0.26547297835350037 -0.07393456995487213 1.0098694562911987
0.14347660541534424 -0.34618958830833435 0.9722630977630615
0.23544031381607056 -0.16599425673484802 1.01130211353302
0.2288036346435547 -0.18235065042972565 1.013609766960144
0.22345386445522308 -0.18004167079925537 1.0022472143173218
0.12897717952728271 -0.44519054889678955 1.032566785812378
0.21389730274677277 -0.1993216574192047 0.9692974090576172
0.1627211719751358 -0.32400935888290405 0.9917939305305481
0.22624163329601288 -0.1992417573928833 1.0111058950424194
0.22286204993724823 -0.21714887022972107 1.0118334293365479
0.2268100380897522 -0.2185261845588684 1.0368765592575073
0.21759700775146484 -0.22628435492515564 1.018701195716858
0.2264786809682846 -0.1891709268093109 1.0005340576171875
0.2227381467819214 -0.19377940893173218 0.9857913255691528
0.14236146211624146 -0.44566982984542847 1.0414732694625854
0.12880991399288177 -0.34559428691864014 1.0393873453140259
0.12714838981628418 -0.35032105445861816 1.0366394519805908
0.12614339590072632 -0.3593842089176178 1.041898250579834
0.12565331161022186 -0.3455570936203003 1.031865119934082
0.12371864914894104 -0.36490142345428467 1.0400434732437134
0.10503549873828888 -0.41732385754585266 1.0524438619613647
0.1101466566324234 -0.4275609254837036 1.0578879117965698
0.125513955950737 -0.371355265378952 1.0334182977676392
0.12193360924720764 -0.3789598047733307 1.0267829895019531
0.11708374321460724 -0.3971458673477173 1.0394983291625977
0.11426392942667007 -0.40840643644332886 1.0536961555480957
0.172747403383255 -0.23647330701351166 1.0024170875549316
0.20227375626564026 -0.21680785715579987 1.0599279403686523
0.2061886042356491 -0.20173081755638123 1.0512868165969849
0.21281979978084564 -0.15959009528160095 1.0214942693710327
0.2143867164850235 -0.14889726042747498 1.0101125240325928
0.12550930678844452 -0.3712347149848938 0.9968222975730896
0.1377481073141098 -0.32744982838630676 0.9895731210708618
0.12757210433483124 -0.35262906551361084 0.9626097679138184
0.13117922842502594 -0.3432469666004181 0.9915060997009277
0.2696596682071686 -0.06088973581790924 1.053269863128662
0.2777223289012909 -0.03249793127179146 1.0315418243408203
0.2710728645324707 -0.04451412707567215 1.0362250804901123
0.26667550206184387 -0.04751832038164139 1.0265631675720215
0.26010850071907043 -0.0575692318379879 1.021623134613037
0.23179423809051514 -0.11434648931026459 1.0015288591384888
0.22435055673122406 -0.13300518691539764 0.997452974319458
0.22500114142894745 -0.19385243952274323 1.0757900476455688
0.14313377439975739 -0.4064878225326538 1.091705322265625
0.12339680641889572 -0.4437331259250641 1.0815132856369019
0.08838725835084915 -0.4816165566444397 0.9994072318077087
0.08480838686227798 -0.47710567712783813 1.0044673681259155
0.17917871475219727 -0.20111390948295593 0.9118229150772095
0.16827498376369476 -0.20650643110275269 0.907630443572998
0.2488163560628891 -0.11518148332834244 1.0250401496887207
0.24333477020263672 -0.13648462295532227 1.0234973430633545
0.14932294189929962 -0.40633440017700195 1.0946089029312134
0.1548299491405487 -0.3049778938293457 0.9787700176239014
0.15590694546699524 -0.32148477435112 0.9848371744155884
0.17836660146713257 -0.31296610832214355 1.0462191104888916
0.1727064549922943 -0.33111506700515747 1.048561453819275
0.16414019465446472 -0.34676894545555115 1.0479106903076172
0.1926090568304062 -0.24692818522453308 0.9673047065734863
0.26469606161117554 -0.08756393194198608 1.0226712226867676
0.2605364918708801 -0.09652557224035263 1.0121527910232544
0.09452174603939056 -0.522739052772522 1.042395830154419
0.20076818764209747 -0.2657497823238373 1.0223214626312256
0.19350773096084595 -0.2825648784637451 1.0136151313781738
0.19946634769439697 -0.24446223676204681 0.9848039150238037
0.19107407331466675 -0.2400418072938919 0.9575933218002319
0.17942170798778534 -0.26095515489578247 0.9708221554756165
0.21698538959026337 -0.24219366908073425 1.0167797803878784
0.22026416659355164 -0.23851002752780914 1.0326526165008545
0.21360944211483002 -0.24822008609771729 1.0298283100128174
0.20808079838752747 -0.25170180201530457 1.0132150650024414
0.1899612993001938 -0.21375080943107605 1.0218772888183594
0.19262780249118805 -0.18981309235095978 1.007947325706482
0.18788011372089386 -0.20191434025764465 1.0170979499816895
0.18362215161323547 -0.20813517272472382 1.0047622919082642
0.10209910571575165 -0.44049501419067383 1.0413784980773926
0.17619659006595612 -0.20797429978847504 0.974200427532196
0.1011451706290245 -0.47856903076171875 1.0689404010772705
0.15927572548389435 -0.2677047848701477 0.9890187978744507
0.2517094016075134 -0.0772174596786499 1.0311354398727417
0.24631303548812866 -0.08815804868936539 1.0236976146697998
0.24611736834049225 -0.08277392387390137 1.0120041370391846
0.19476519525051117 -0.24043899774551392 1.0464568138122559
0.195633202791214 -0.2550309896469116 1.066636085510254
0.19503946602344513 -0.24795398116111755 1.0553699731826782
0.17335020005702972 -0.22456009685993195 0.9431983232498169
0.16296537220478058 -0.22482356429100037 0.9022487998008728
0.11758420616388321 -0.4222460687160492 1.014042854309082
0.10983762890100479 -0.4340440034866333 1.014093041419983
0.1038808673620224 -0.44284898042678833 1.0162962675094604
0.21428409218788147 -0.1900661438703537 1.0266941785812378
0.20683585107326508 -0.2613031268119812 1.0691893100738525
0.19917626678943634 -0.2647920846939087 1.0652170181274414
0.19898658990859985 -0.25656890869140625 1.0564886331558228
0.19391462206840515 -0.25078582763671875 1.0407469272613525
0.08001235127449036 -0.5058867335319519 1.0090709924697876
0.0788322240114212 -0.5406734347343445 1.0345077514648438
0.27463430166244507 -0.048520442098379135 1.0267456769943237
0.27615872025489807 -0.02948687970638275 1.0056869983673096
0.278280109167099 -0.032458506524562836 1.0214704275131226
0.27492663264274597 -0.044864948838949203 1.0193883180618286
0.2709740996360779 -0.05026831477880478 1.0094863176345825
0.2718813419342041 -0.03985114023089409 1.0026066303253174
0.2657831609249115 -0.05098560079932213 1.0034595727920532
0.17035673558712006 -0.26245859265327454 0.9643707275390625
0.2602958083152771 -0.06733408570289612 0.9985023140907288
0.25194525718688965 -0.11391931772232056 1.0039582252502441
0.2388535737991333 -0.12781605124473572 0.9999611377716064
0.24588747322559357 -0.1402009278535843 1.0133475065231323
0.226332888007164 -0.19485802948474884 1.019447922706604
0.2284892201423645 -0.2057974934577942 1.032684564590454
0.18806113302707672 -0.23705118894577026 0.9467107653617859
0.18327152729034424 -0.3157881498336792 1.021672010421753
0.18685120344161987 -0.2957867383956909 1.004361867904663
0.14584846794605255 -0.43178790807724 1.0392557382583618
0.17609211802482605 -0.341553270816803 1.0226407051086426
0.17169411480426788 -0.36185240745544434 1.025046944618225
0.1693146973848343 -0.35109055042266846 1.023810863494873
0.1644732803106308 -0.37857288122177124 1.0222899913787842
0.14972858130931854 -0.30875200033187866 1.0351701974868774
0.1439588963985443 -0.3167266845703125 1.031253695487976
0.16364333033561707 -0.28746211528778076 1.0389208793640137
0.15004488825798035 -0.305908203125 1.0220534801483154
0.08596792072057724 -0.49065446853637695 1.029363751411438
0.21212850511074066 -0.15783311426639557 1.0030814409255981
0.20799025893211365 -0.17376862466335297 1.003657579421997
0.20624257624149323 -0.17374372482299805 1.0185366868972778
0.22882115840911865 -0.12559117376804352 1.0195707082748413
0.22956615686416626 -0.13670361042022705 1.023590326309204
0.1335470974445343 -0.4020348787307739 1.077962040901184
0.13283687829971313 -0.4066910147666931 1.0731765031814575
0.1470794379711151 -0.38629239797592163 1.069775938987732
0.10099001973867416 -0.4551076292991638 1.0136141777038574
0.18813864886760712 -0.16805239021778107 0.9154233336448669
0.17956885695457458 -0.18404416739940643 0.9142202734947205
0.27535027265548706 -0.020600412040948868 1.012136459350586
0.2728451192378998 -0.026513002812862396 1.0087358951568604
0.27572423219680786 -0.07995053380727768 1.0568037033081055
0.27045994997024536 -0.08155161142349243 1.054652452468872
0.09935054183006287 -0.51237553358078 1.0713272094726562
0.09248893707990646 -0.5323052406311035 1.0616446733474731
0.10277866572141647 -0.5074270367622375 1.0455845594406128
0.1623128056526184 -0.2908906936645508 0.9711673855781555
0.28418418765068054 -0.051125846803188324 1.036503791809082
0.28565752506256104 -0.05307912454009056 1.0457911491394043
0.2792123854160309 -0.06784877181053162 1.0365885496139526
0.22306951880455017 -0.23380406200885773 1.0474653244018555
0.14994394779205322 -0.40818095207214355 1.0382263660430908
0.20635801553726196 -0.2095721960067749 0.9674989581108093
0.20432473719120026 -0.22445672750473022 0.9731124043464661
0.10336575657129288 -0.41892823576927185 1.0472609996795654
0.09742572903633118 -0.4275556802749634 1.049647331237793
0.1971203088760376 -0.2036709189414978 1.0345348119735718
0.16561494767665863 -0.2607564330101013 1.0071146488189697
0.15690958499908447 -0.27983689308166504 1.0180476903915405
0.2105812430381775 -0.18373548984527588 1.0231244564056396
0.2603085935115814 -0.05017716437578201 1.008789300918579
0.25485244393348694 -0.06251043826341629 1.0048922300338745
0.2535438537597656 -0.063749760389328 1.0012741088867188
0.26832130551338196 -0.07393466681241989 1.0606708526611328
0.2625278830528259 -0.07699303328990936 1.0586576461791992
0.2610754370689392 -0.07354126870632172 1.0413776636123657
0.08733317255973816 -0.5263105034828186 1.068759560585022
0.12757202982902527 -0.3553668260574341 0.9777637720108032
0.1271882951259613 -0.346834659576416 0.9549412131309509
0.2692473828792572 -0.03261032700538635 1.004079818725586
0.12491925060749054 -0.4513421654701233 1.0822358131408691
0.11785830557346344 -0.47366276383399963 1.0901007652282715
0.2306930422782898 -0.15666641294956207 1.023934245109558
0.22139395773410797 -0.17396259307861328 1.0280874967575073
0.16537977755069733 -0.22194316983222961 0.899262011051178
0.275386780500412 -0.06249739229679108 1.0488201379776
0.2795432209968567 -0.0358600877225399 1.0336451530456543
0.27744755148887634 -0.04388353228569031 1.0310227870941162
0.19550292193889618 -0.17176033556461334 0.9146381616592407
0.19158649444580078 -0.19710062444210052 0.934118390083313
0.259783536195755 -0.10402963310480118 1.0184457302093506
0.13848794996738434 -0.3617912530899048 0.9782357811927795
0.13739663362503052 -0.3469885587692261 0.9550384283065796
0.18001587688922882 -0.32509666681289673 1.058863878250122
0.15538085997104645 -0.3741583526134491 1.0155431032180786
0.15663176774978638 -0.3802899718284607 1.0217549800872803
0.1662811040878296 -0.338665634393692 1.0104104280471802
0.1616799235343933 -0.35008329153060913 1.0145941972732544
0.16888611018657684 -0.2560573220252991 1.0222294330596924
