0.5005307793617249 -0.0022734906524419785 0.4964105486869812
-0.5766647458076477 -0.0842265635728836 0.9201214909553528
-0.5462098121643066 -0.055045172572135925 0.8464787602424622
-0.5529715418815613 -0.06735826283693314 0.8007804155349731
0.5481282472610474 -0.1068446934223175 1.264042615890503
0.49754124879837036 0.0218673013150692 0.49560296535491943
0.6036795377731323 -0.04242287576198578 0.7613496780395508
-0.2508954405784607 -0.03250735253095627 1.3132977485656738
0.6024890542030334 -0.04348340630531311 0.8517813682556152
-0.5212105512619019 -0.04611697420477867 0.9175753593444824
0.43587207794189453 -0.06239846348762512 0.5309014916419983
0.5908281207084656 -0.040991246700286865 0.8413209915161133
-0.5846656560897827 -0.100339874625206 0.882738471031189
-0.3274787664413452 -0.01943821832537651 0.8820539116859436
-0.3338054120540619 -0.01862969622015953 0.8937662243843079
-0.32630643248558044 -0.05051499605178833 0.8852893114089966
-0.3352639973163605 -0.0509699322283268 0.8925328254699707
-0.3012842833995819 -0.036009591072797775 0.962233304977417
-0.30877843499183655 -0.037666112184524536 0.9366859793663025
-0.28946539759635925 -0.00930016115307808 0.9177591800689697
-0.27934733033180237 -0.0019019024912267923 0.9605144262313843
-0.30566537380218506 -0.06194935739040375 0.9364241361618042
-0.3197873830795288 -0.0871364027261734 0.9136812686920166
-0.276022732257843 -0.03820120915770531 1.0367908477783203
-0.2984327971935272 -0.09204640984535217 0.9208511710166931
-0.2984476089477539 -0.04796566814184189 0.9322463870048523
-0.2991570234298706 -0.09404788166284561 0.9619237184524536
-0.2867162227630615 -0.06247253343462944 0.9660403728485107
-0.2530471682548523 -0.011470585130155087 1.0199543237686157
-0.27549129724502563 -0.05182488262653351 0.970939040184021
-0.2844579219818115 -0.07731711119413376 0.9886255264282227
-0.28382736444473267 -0.06600343436002731 1.0239520072937012
-0.28662532567977905 -0.0346270315349102 1.0703508853912354
-0.30249786376953125 -0.09202790260314941 1.0438272953033447
-0.23047341406345367 -0.003547199536114931 1.1231610774993896
-0.23511312901973724 0.011986514553427696 1.0794521570205688
-0.28326383233070374 -0.05871710926294327 1.1012054681777954
-0.1984328031539917 0.01163557730615139 1.078417420387268
-0.235147625207901 -0.08067937940359116 1.1659178733825684
-0.2748427987098694 -0.12344289571046829 1.0967161655426025
-0.19587594270706177 0.009991505183279514 1.1247199773788452
-0.16558018326759338 -0.011666003614664078 1.1413047313690186
-0.17666535079479218 -0.03547897934913635 1.1943446397781372
-0.14936208724975586 -0.03834052383899689 1.202923059463501
-0.17670054733753204 -0.1387326717376709 1.2455956935882568
-0.22946219146251678 -0.13249428570270538 1.1594345569610596
-0.15070882439613342 -0.061393219977617264 1.2461823225021362
-0.18862654268741608 -0.08947217464447021 1.23158597946167
-0.14941656589508057 -0.0820302665233612 1.2822977304458618
-0.14233975112438202 -0.10315336287021637 1.319653034210205
-0.14293226599693298 -0.15312685072422028 1.3099076747894287
-0.17659294605255127 -0.1652819812297821 1.1932806968688965
-0.09987682104110718 -0.1263923943042755 1.7078462839126587
-0.08649369329214096 -0.020447954535484314 1.4374642372131348
-0.13528385758399963 0.06393921375274658 0.8439782857894897
-0.1785379946231842 0.012720483355224133 0.8316429853439331
-0.1496308147907257 -0.08273465931415558 0.8420348167419434
-0.19129599630832672 -0.11196540296077728 0.826158881187439
-0.09322280436754227 -0.10094274580478668 1.6257325410842896
-0.10364913940429688 -0.1445682793855667 1.7255167961120605
-0.07823625952005386 -0.12769556045532227 1.6794179677963257
-0.06395317614078522 -0.08921179920434952 1.6422111988067627
-0.08107762783765793 -0.10045444965362549 1.5924571752548218
-0.12072993814945221 -0.01756291091442108 1.044658899307251
-0.1638975739479065 -0.05794993415474892 0.9934331178665161
-0.17003077268600464 -0.12382801622152328 0.9729755520820618
-0.08613573759794235 -0.11066779494285583 1.527134656906128
-0.13268493115901947 -0.0967932716012001 -0.021156979724764824
-0.1367606520652771 -0.18253475427627563 -0.016141554340720177
-0.1387232393026352 -0.19658194482326508 0.015716053545475006
-0.10626454651355743 -0.15449951589107513 1.365572452545166
-0.09869591146707535 -0.09852327406406403 1.3361992835998535
-0.0949263870716095 -0.11606092751026154 1.3096436262130737
-0.11814948916435242 -0.16342610120773315 1.3483062982559204
-0.10628397762775421 -0.18837715685367584 1.2952591180801392
-0.11870674788951874 -0.07520326972007751 0.42178717255592346
-0.10910146683454514 -0.10079395771026611 0.33574196696281433
-0.11636817455291748 -0.049139268696308136 0.2737220823764801
-0.1232665628194809 -0.07618725299835205 0.3013535439968109
-0.07573740184307098 -0.11460024118423462 1.6530545949935913
-0.1017729640007019 -0.1467314511537552 1.2678024768829346
-0.11241332441568375 -0.1397325098514557 1.2305729389190674
-0.11006759107112885 -0.176613450050354 1.2442471981048584
-0.13479484617710114 -0.19238629937171936 1.2335336208343506
-0.10289330780506134 -0.03640083596110344 0.20425452291965485
-0.08485326170921326 -0.17255114018917084 1.5075852870941162
-0.07426850497722626 -0.10452117025852203 1.5280921459197998
-0.08121290802955627 -0.13385313749313354 1.514617681503296
-0.09841597825288773 -0.1125178188085556 0.5234571099281311
-0.01935439184308052 -0.13941702246665955 1.7314366102218628
-0.10802582651376724 -0.17244231700897217 1.1865472793579102
-0.10846933722496033 -0.08600352704524994 1.168167233467102
-0.08551915735006332 -0.15029144287109375 0.7163398265838623
-0.027181332930922508 -0.08736065030097961 1.697953224182129
-0.08255351334810257 -0.1855393946170807 1.3662528991699219
-0.0888119786977768 -0.12597712874412537 0.8332720994949341
-0.1350424438714981 -0.13501283526420593 0.8515994548797607
-0.12464401125907898 -0.2009115219116211 0.9038432836532593
-0.10259555280208588 -0.21764600276947021 0.8453508615493774
-0.11092395335435867 -0.21711142361164093 0.0583667978644371
0.009113254025578499 -0.067374587059021 1.700075387954712
-0.015073081478476524 -0.12784028053283691 1.7195353507995605
-0.09511225670576096 -0.1433800607919693 1.4275435209274292
-0.07159475237131119 -0.17065414786338806 1.467024803161621
-0.0807206854224205 -0.025612588971853256 0.2744368016719818
-0.09292978048324585 -0.03550754860043526 0.16305121779441833
-0.10828390717506409 -0.1932525634765625 0.08887623995542526
-0.08627820014953613 0.004454903304576874 -0.02247672528028488
-0.07091154158115387 -0.11256874352693558 1.315821647644043
-0.07538775354623795 -0.13817362487316132 0.4984655976295471
-0.06331105530261993 -0.2057947963476181 -0.0168239064514637
-0.10368330776691437 -0.21613791584968567 -0.02332949824631214
-0.03786516189575195 -0.11058281362056732 1.5382039546966553
-0.045843981206417084 -0.13619914650917053 1.49166738986969
-0.030453883111476898 -0.2182328999042511 0.909186065196991
-0.08594140410423279 0.0871935784816742 0.856406033039093
-0.09731589257717133 -0.15247060358524323 0.2069801688194275
-0.06729836761951447 -0.13126428425312042 0.12578749656677246
-0.06849656999111176 0.0018165800720453262 0.03621002286672592
-0.06294775009155273 -0.09904313832521439 1.2895991802215576
-0.07780278474092484 -0.10587474703788757 1.2479076385498047
-0.046879783272743225 -0.22099809348583221 1.2678120136260986
-0.07587490975856781 -0.06036870554089546 0.6252340078353882
-0.06518156081438065 -0.15258678793907166 0.7129249572753906
-0.047440871596336365 -0.12936100363731384 0.8021013736724854
-0.05441375449299812 -0.12669827044010162 0.09354346245527267
-0.057233452796936035 -0.19678276777267456 0.06012663245201111
-0.06528684496879578 -0.21666215360164642 1.4519213438034058
-0.05091400817036629 -0.11138367652893066 1.3496373891830444
-0.03320407122373581 -0.09582135826349258 1.2953834533691406
-0.04631359875202179 -0.14009054005146027 0.5247182250022888
-0.025827791541814804 -0.12000776827335358 0.5283270478248596
-0.06100914627313614 -0.02323710173368454 0.46591585874557495
-0.04540647566318512 -0.20075024664402008 1.4240772724151611
-0.023034963756799698 -0.1590881496667862 1.410016655921936
-0.05395381897687912 -0.10987888276576996 1.394822597503662
-0.032791122794151306 -0.0597575344145298 0.47475218772888184
0.02687586471438408 -0.11296604573726654 1.7241942882537842
-0.048153795301914215 -0.2673608362674713 1.5676686763763428
-0.0341947041451931 -0.19306889176368713 0.9735457897186279
-0.023588877171278 -0.1709078699350357 1.4234557151794434
-0.009376255795359612 -0.19671902060508728 1.40256667137146
-0.027831222862005234 -0.1803542524576187 1.3957407474517822
-0.0034078676253557205 -0.25453251600265503 1.5040256977081299
-0.04478345438838005 -0.24588148295879364 1.4577202796936035
0.0018698517233133316 -0.14358694851398468 1.4408149719238281
-0.026357341557741165 -0.07830415666103363 0.6071665287017822
0.06947390735149384 -0.15360453724861145 1.7299675941467285
0.04690660163760185 -0.049105726182460785 1.6766300201416016
0.0011478550732135773 -0.26528969407081604 1.4541313648223877
-0.017524000257253647 -0.24179738759994507 1.4144631624221802
0.011344024911522865 -0.14718742668628693 1.4133018255233765
0.00692492350935936 -0.24421797692775726 1.4135960340499878
0.03909899294376373 -0.12408280372619629 1.3953300714492798
0.0010048281401395798 -0.10246337950229645 1.2839051485061646
0.07116609811782837 -0.10173998028039932 1.7202200889587402
0.037264443933963776 -0.15338736772537231 1.4405840635299683
0.02547498792409897 -0.19751569628715515 1.418241024017334
0.09628602862358093 -0.07915827631950378 1.6877394914627075
0.08045142889022827 -0.14113080501556396 1.7151037454605103
0.021012019366025925 -0.1937505304813385 1.4051809310913086
0.06615864485502243 -0.21514147520065308 1.4367632865905762
0.03338327631354332 -0.17235752940177917 1.4149746894836426
0.021199941635131836 -0.09267653524875641 0.5511956214904785
0.07150575518608093 -0.12536314129829407 1.47368323802948
0.0484258234500885 -0.12330789119005203 0.4656012952327728
0.0073954034596681595 -0.2549474835395813 1.219489336013794
0.0665455237030983 -0.13114777207374573 1.246346116065979
0.0545579232275486 -0.10957853496074677 1.1422507762908936
0.060215678066015244 -0.2825465202331543 0.054690368473529816
0.09121417999267578 -0.3008009195327759 0.026737116277217865
0.062187422066926956 -0.0806872546672821 -0.01915428414940834
0.0212548915296793 -0.23405638337135315 1.2122853994369507
0.009637606330215931 -0.23558467626571655 1.131651759147644
0.02944003976881504 -0.14277926087379456 0.6940250992774963
0.05365857854485512 -0.17798025906085968 -0.048560790717601776
0.12237760424613953 -0.138437420129776 1.6734731197357178
0.07053500413894653 -0.2680132985115051 1.564981460571289
0.05803655833005905 -0.24459469318389893 1.4920525550842285
0.05318451300263405 -0.24413344264030457 1.4501057863235474
0.08093936741352081 -0.15865646302700043 0.842346727848053
0.171306774020195 -0.14725494384765625 1.6936521530151367
0.08290846645832062 -0.13159960508346558 1.5192705392837524
0.07748053967952728 -0.14754801988601685 1.4893234968185425
0.06734718382358551 -0.060721978545188904 0.26816242933273315
0.06034766882658005 -0.053686562925577164 0.205032616853714
0.07964374125003815 -0.08402524888515472 -0.04897705838084221
0.12423501163721085 -0.1645653396844864 1.74708890914917
0.09668304026126862 -0.15286237001419067 1.3816546201705933
0.08745957911014557 -0.21793398261070251 0.8365973234176636
0.06269630789756775 -0.1315447837114334 0.8249993324279785
0.11181610077619553 -0.1929766833782196 0.822553277015686
0.06203716993331909 -0.04183337092399597 0.7135439515113831
0.11195924133062363 -0.2971803843975067 0.04529175907373428
0.13236859440803528 -0.14962175488471985 1.6810530424118042
0.039894260466098785 -0.197180837392807 1.111330270767212
0.04394478350877762 -0.24697305262088776 1.2298896312713623
0.0418444387614727 -0.26689857244491577 1.2230744361877441
0.1322965770959854 -0.1910753846168518 0.892624020576477
0.10356269776821136 -0.20055991411209106 1.516470193862915
0.11107572913169861 -0.12802471220493317 1.528786301612854
0.10731924325227737 -0.15145844221115112 1.5114942789077759
0.11201043426990509 -0.16467690467834473 1.5044385194778442
0.11715732514858246 -0.17542710900306702 1.4793076515197754
0.08952633291482925 -0.06885099411010742 0.6057726740837097
0.08616872131824493 -0.1353152096271515 0.6249006986618042
0.09892597794532776 -0.2242378145456314 1.3535548448562622
0.10760661214590073 -0.18083319067955017 1.3048384189605713
0.07479751110076904 -0.1710098832845688 1.3287937641143799
0.07582834362983704 -0.17929495871067047 1.3007657527923584
0.09298722445964813 -0.12002649903297424 0.7883570790290833
0.12311957776546478 -0.13088804483413696 -0.04387836158275604
0.13690680265426636 -0.17687508463859558 -0.042998891323804855
0.1368737518787384 -0.15141922235488892 1.6379605531692505
0.11644807457923889 -0.16199161112308502 1.350833773612976
0.12687352299690247 -0.11415372788906097 0.25338268280029297
0.15845420956611633 -0.1296718865633011 1.6174148321151733
0.136030912399292 -0.1069464236497879 1.6281163692474365
0.141639843583107 -0.12834669649600983 1.589392900466919
0.1373428851366043 -0.15449216961860657 0.05313915014266968
0.142167329788208 -0.26378393173217773 0.018567819148302078
0.11040864884853363 -0.27256327867507935 0.07298281788825989
0.16983802616596222 -0.018546774983406067 0.9259076118469238
0.1337740123271942 -0.016416320577263832 0.8187515735626221
0.1700408011674881 -0.16418929398059845 1.687004804611206
0.15768727660179138 0.036710094660520554 0.8257471919059753
0.18684154748916626 -0.0020874529145658016 0.8818629384040833
0.13101840019226074 -0.1996796727180481 1.2896852493286133
0.1318625956773758 -0.2317182719707489 1.2685567140579224
0.10299766063690186 -0.23441588878631592 1.3240454196929932
0.12691214680671692 -0.2168659269809723 1.2300267219543457
0.10880985856056213 -0.2163713276386261 1.2132537364959717
0.11150826513767242 -0.3064383864402771 1.1881943941116333
0.13389518857002258 -0.2599289119243622 1.2220637798309326
0.12899655103683472 -0.23154622316360474 1.1510709524154663
0.11628299951553345 -0.23331019282341003 1.069387435913086
0.14419499039649963 -0.23707348108291626 1.0752384662628174
0.15503603219985962 -0.25533726811408997 1.127537488937378
0.1455899327993393 -0.29573506116867065 1.1538622379302979
0.1376061588525772 -0.2521274983882904 1.0230743885040283
0.18610849976539612 -0.3047039806842804 1.06387460231781
0.18155981600284576 -0.2818729877471924 1.0442886352539062
0.1621137410402298 -0.2619655728340149 1.0227813720703125
0.15773162245750427 -0.3489660620689392 1.057104468345642
0.16027766466140747 -0.3133019804954529 1.0260827541351318
0.1542741060256958 -0.29380786418914795 1.0140568017959595
0.1989378035068512 -0.3374612629413605 0.9147903919219971
0.1473255157470703 -0.33280086517333984 1.0257737636566162
0.1492372453212738 -0.3463895618915558 0.9997996091842651
0.1756182461977005 -0.30753767490386963 0.9475467205047607
0.14836624264717102 -0.33164846897125244 0.9770579934120178
0.15187743306159973 -0.35617077350616455 0.9774576425552368
0.16888216137886047 -0.34093227982521057 0.948875904083252
0.18487364053726196 -0.3393636643886566 0.9429992437362671
0.15542197227478027 -0.37297511100769043 0.9511318802833557
0.17114683985710144 -0.3561602234840393 0.9424211382865906
0.1643347442150116 -0.3630751669406891 0.9506717920303345
0.19562917947769165 -0.3416551947593689 0.8972836136817932
0.17010056972503662 -0.37444591522216797 0.9381842613220215
0.1774110198020935 -0.3361043632030487 0.9132700562477112
0.18856731057167053 -0.3635789752006531 0.9084809422492981
0.20072263479232788 -0.354728639125824 0.9117289781570435
-0.25562119483947754 -0.01443381980061531 1.0440657138824463
-0.26857155561447144 -0.07517364621162415 1.010803461074829
-0.2466878890991211 -0.05689513683319092 1.0172773599624634
-0.28910842537879944 -0.1125217080116272 1.0325102806091309
-0.19314955174922943 -0.0216279998421669 1.0543622970581055
-0.2584375739097595 -0.11177880316972733 1.02663254737854
-0.13745245337486267 -0.07986479252576828 1.2225422859191895
-0.15822376310825348 -0.1324426829814911 1.1760334968566895
-0.18661919236183167 -0.09915290772914886 0.937842845916748
-0.19205687940120697 -0.01582302153110504 0.9042172431945801
-0.13962329924106598 0.05102597177028656 0.9092128276824951
-0.0758964791893959 0.0452398955821991 1.3326045274734497
-0.07864104211330414 0.05549028515815735 1.2822681665420532
-0.07900704443454742 0.08283992111682892 1.264275074005127
-0.16876822710037231 -0.011857830919325352 0.9415706396102905
-0.11359581351280212 -0.14378739893436432 1.696671962738037
-0.1058918759226799 -0.11471500247716904 1.349367380142212
-0.12275996804237366 -0.08925206959247589 1.2830939292907715
-0.02547743171453476 0.10608002543449402 1.1775188446044922
-0.056839846074581146 0.12219971418380737 1.1121009588241577
-0.1409834623336792 -0.08031538873910904 0.046181149780750275
-0.1454724818468094 -0.16353332996368408 0.03093038499355316
-0.0906464233994484 -0.14906415343284607 1.6775246858596802
-0.08272133022546768 -0.13150537014007568 1.6295342445373535
-0.12380623817443848 -0.20447607338428497 1.2070975303649902
-0.12403517961502075 -0.2125881314277649 1.1774201393127441
-0.13140295445919037 -0.23091763257980347 1.1655397415161133
-0.06500931829214096 -0.009538406506180763 1.4191486835479736
-0.056408338248729706 -0.013783968985080719 1.4134920835494995
-0.10606428980827332 -0.21020722389221191 1.2245694398880005
-0.12592792510986328 -0.12266914546489716 1.2045855522155762
-0.11977537721395493 -0.11641041934490204 0.11336252093315125
-0.12578560411930084 -0.07334630191326141 0.1313626617193222
-0.028823494911193848 0.03488489240407944 1.320462703704834
-0.09889937192201614 -0.1570475548505783 1.4357402324676514
-0.10021156817674637 -0.14857032895088196 1.4161620140075684
-0.09168508648872375 -0.1466834843158722 1.3955533504486084
-0.10431595891714096 -0.1426946371793747 1.395959734916687
-0.10839782655239105 -0.15647545456886292 1.377974033355713
-0.11581973731517792 -0.12885288894176483 0.7571836709976196
-0.12974458932876587 -0.09171527624130249 0.7440632581710815
-0.01577432081103325 0.1534673422574997 1.198498010635376
-0.013766394928097725 0.14116521179676056 1.2408349514007568
-0.09835241734981537 -0.20111820101737976 1.2252293825149536
-0.11799303442239761 -0.11625055968761444 0.8388956785202026
-0.11583550274372101 -0.007919065654277802 0.035982366651296616
-0.11858150362968445 -0.01794121414422989 -0.013057943433523178
-0.13353972136974335 -0.19041305780410767 0.8390985727310181
-0.031007712706923485 0.09002145379781723 1.320418119430542
-0.08372921496629715 -0.24119135737419128 1.573225975036621
-0.06332287192344666 -0.12530149519443512 1.5190647840499878
-0.035456784069538116 -0.03896689787507057 1.5218510627746582
-0.03061424382030964 -0.08075346052646637 1.5565581321716309
-0.05232132226228714 -0.08082883805036545 1.5348458290100098
-0.049265120178461075 -0.04457056522369385 1.4735254049301147
0.010835785418748856 -0.019384868443012238 1.564345359802246
-0.05962187051773071 -0.15501053631305695 1.4654582738876343
-0.09874992072582245 0.04417917877435684 0.9721363186836243
-0.04444923996925354 -0.15543147921562195 1.7658157348632812
-0.05457862466573715 -0.1607609987258911 1.759338617324829
-0.059875763952732086 -0.16893139481544495 1.7453908920288086
0.028606968000531197 -0.0463234968483448 1.464322805404663
-0.028386570513248444 -0.0020207222551107407 1.4585429430007935
-0.0487188957631588 -0.11143798381090164 -0.02380583994090557
0.012484688311815262 0.04683200642466545 1.4180189371109009
-0.058624863624572754 -0.2305225431919098 1.4904311895370483
-0.0605841726064682 -0.10150463134050369 0.3442552983760834
-0.0031372718513011932 -0.068987637758255 1.5096588134765625
-0.025749731808900833 -0.11260072886943817 1.4748984575271606
0.020434606820344925 0.0025626206770539284 1.4978535175323486
-0.036200255155563354 0.051472634077072144 0.8567779064178467
-0.06459341943264008 -0.037481021136045456 0.29511889815330505
0.019778447225689888 0.14701586961746216 1.1130229234695435
-0.03206813707947731 0.02191706746816635 1.0506196022033691
-0.08292770385742188 -0.2259329855442047 1.2135041952133179
-0.0947633758187294 -0.19651590287685394 1.1267516613006592
-0.04936864227056503 -0.06563379615545273 0.2734823226928711
-0.027541622519493103 -0.07923747599124908 0.2127416580915451
-0.05872147157788277 -0.030764417722821236 0.20840555429458618
-0.004444405436515808 -0.09044097363948822 1.5149073600769043
-0.022254103794693947 -0.13304556906223297 0.6672530770301819
-0.047457560896873474 -0.061486728489398956 0.6240808367729187
0.036637529730796814 0.15461519360542297 1.2313663959503174
0.033984068781137466 0.16622555255889893 1.159350037574768
-0.04667842015624046 -0.2328832447528839 1.1378173828125
-0.03871355578303337 -0.06533842533826828 0.06775403767824173
0.022402267903089523 0.12355658411979675 1.1413984298706055
0.016844607889652252 0.09572991728782654 1.1668570041656494
0.057646192610263824 -0.0811895951628685 1.5099327564239502
-0.04556630551815033 -0.2055548131465912 1.354431390762329
0.06262145191431046 0.0614786334335804 1.4006106853485107
0.07124924659729004 -0.04563266783952713 1.4512956142425537
0.04984503239393234 -0.09498411417007446 1.5018492937088013
0.07204306870698929 0.12248487770557404 1.1441569328308105
0.0837562084197998 0.12222180515527725 1.1026158332824707
0.005975557491183281 -0.22363772988319397 1.3468449115753174
0.020006896927952766 0.021353088319301605 1.0475071668624878
-0.026753690093755722 -0.2290254682302475 1.0770186185836792
0.12703631818294525 0.041377462446689606 1.4084587097167969
0.0384209007024765 -0.1060849279165268 1.294416069984436
0.1096021980047226 -0.009287361055612564 1.4925066232681274
0.07617796957492828 -0.05444949120283127 1.4851340055465698
0.040285494178533554 -0.09232167154550552 1.2118490934371948
0.04611774906516075 0.09431256353855133 0.9204268455505371
0.07426496595144272 -0.18046706914901733 1.6898146867752075
0.035041261464357376 -0.2243616282939911 0.03706635907292366
0.04246010631322861 -0.2620699405670166 0.006365478038787842
0.03244837746024132 -0.13011431694030762 0.019346434623003006
0.02634241059422493 -0.27598118782043457 1.5617845058441162
0.027452608570456505 -0.06300148367881775 0.6791590452194214
0.12821772694587708 -0.05236072093248367 1.4512954950332642
0.07796867191791534 -0.18174637854099274 1.4517583847045898
0.10533053427934647 -0.183381587266922 1.3880594968795776
0.06506477296352386 -0.15129736065864563 1.3863170146942139
0.04904891923069954 -0.06503349542617798 0.3398323059082031
0.049702998250722885 -0.170241117477417 0.19281047582626343
0.07219842821359634 -0.07545454800128937 0.13870587944984436
0.1329418569803238 0.11871722340583801 1.1427748203277588
0.12568408250808716 0.1469578742980957 1.123854160308838
0.06454968452453613 -0.14873887598514557 0.7027879953384399
0.06457170844078064 -0.05385280400514603 0.6167572736740112
0.07086940109729767 -0.2243446409702301 1.6679039001464844
0.1053219735622406 -0.22447483241558075 1.6244986057281494
0.06596945971250534 -0.13824817538261414 0.5112064480781555
0.09458842128515244 -0.1751215010881424 1.7017930746078491
0.1141127273440361 -0.18094295263290405 1.6531405448913574
0.06416533887386322 -0.135208860039711 1.1291342973709106
0.07316839694976807 -0.11681117117404938 1.1090224981307983
0.06271126866340637 -0.18420468270778656 1.0772444009780884
0.08445070683956146 -0.25329145789146423 1.5592480897903442
0.09565211087465286 -0.17811846733093262 1.478680968284607
0.0837855413556099 -0.21756622195243835 1.4703450202941895
0.16515153646469116 0.11360915005207062 1.1033756732940674
0.06615621596574783 -0.2354874312877655 1.2630059719085693
0.058183230459690094 -0.2881177067756653 1.2116906642913818
0.07681093364953995 -0.19054259359836578 1.209742546081543
0.11685480177402496 -0.09423204511404037 0.07506237924098969
0.09175833314657211 -0.1929270625114441 0.11579664051532745
0.11075955629348755 -0.19378075003623962 0.09517408162355423
0.1319141387939453 -0.16277244687080383 1.677059531211853
0.06959453225135803 -0.25959691405296326 1.2631261348724365
0.1259394884109497 -0.06894853711128235 0.37555110454559326
0.10457346588373184 -0.11289498955011368 0.4379706382751465
0.12895449995994568 -0.09234260022640228 0.3193635046482086
0.1140441745519638 -0.2019987404346466 1.3741847276687622
0.10109969973564148 -0.1973891705274582 1.3758823871612549
0.11505086719989777 -0.174911767244339 1.3394410610198975
0.12549591064453125 0.06304898858070374 0.8969890475273132
0.1051863431930542 -0.11772403120994568 0.8163981437683105
0.14164958894252777 -0.09413918107748032 0.18454785645008087
0.14680296182632446 -0.12630800902843475 0.19728341698646545
0.12487418949604034 -0.179586723446846 1.3366414308547974
0.1821112334728241 0.013890555128455162 1.3184643983840942
0.1881667971611023 0.043241094797849655 1.3044825792312622
0.03949059545993805 -0.3316376507282257 1.0981732606887817
0.16791220009326935 -0.07152041792869568 0.9629751443862915
0.17059703171253204 -0.12818002700805664 0.945568323135376
0.09867815673351288 -0.21757878363132477 1.154348373413086
0.09681367874145508 -0.3174556791782379 1.0394917726516724
0.09840767085552216 -0.280018150806427 1.0166265964508057
0.12939408421516418 -0.3463437557220459 1.099005937576294
-0.24001163244247437 -0.0206146202981472 1.0189588069915771
-0.2734661400318146 -0.0727420449256897 0.9764848947525024
-0.20909889042377472 -0.1251991093158722 1.086975336074829
-0.23180657625198364 -0.14718212187290192 1.1243873834609985
-0.16697700321674347 -0.09746982902288437 1.117940902709961
-0.1465257704257965 -0.059881553053855896 1.1549994945526123
-0.1887332648038864 -0.15721789002418518 0.8464828729629517
-0.08128510415554047 0.11608250439167023 1.1485013961791992
-0.08238130062818527 0.08451958000659943 1.230390191078186
-0.1435636281967163 -0.2611446678638458 1.0593976974487305
-0.14691868424415588 -0.16184037923812866 0.9405081272125244
-0.14473339915275574 -0.08496341109275818 0.2181652933359146
-0.12248022854328156 -0.13427162170410156 0.23369979858398438
-0.0981542244553566 -0.03244505077600479 0.44843152165412903
-0.14564451575279236 -0.1963994801044464 0.8431057929992676
-0.09998331218957901 -0.08898690342903137 0.5894021987915039
-0.10222408920526505 -0.12604336440563202 0.6505230665206909
-0.09357141703367233 -0.06414730846881866 0.6572961807250977
-0.10100342333316803 -0.04811350256204605 1.1110670566558838
-0.11015478521585464 -0.11537086218595505 1.1240456104278564
0.004746904596686363 0.11852554976940155 1.295823335647583
-0.10920573770999908 -0.023709146305918694 0.8324825763702393
-0.07893974334001541 -0.14495611190795898 0.25112712383270264
-0.09901432693004608 -0.0883546844124794 1.2156050205230713
-0.08767352998256683 -0.08085842430591583 1.1437366008758545
-0.07951579242944717 -0.12493842840194702 0.39478936791419983
-0.05564796179533005 -0.16248895227909088 1.688706874847412
-0.06379550695419312 -0.19304847717285156 1.6703866720199585
-0.02759483829140663 -0.22668637335300446 1.6700329780578613
-0.04911310598254204 -0.2555921673774719 1.6265629529953003
-0.07127830386161804 -0.2378687858581543 1.5385923385620117
-0.060468874871730804 -0.10188106447458267 0.28822556138038635
-0.03188456594944 -0.13814811408519745 0.7245104312896729
-0.030509192496538162 -0.10924718528985977 0.218012273311615
-0.04812070354819298 -0.1390901356935501 0.22084766626358032
-0.05915375426411629 -0.04454942047595978 0.16012313961982727
-0.05514658987522125 0.0650259479880333 0.9725245833396912
-0.0078114792704582214 -0.15665671229362488 1.7279850244522095
-0.02406160905957222 -0.16686873137950897 1.7146495580673218
0.07011379301548004 0.06608553230762482 1.2594482898712158
-0.010491501539945602 0.0662536770105362 1.2675189971923828
0.05473210662603378 0.04286818951368332 1.3046528100967407
0.015340711921453476 -0.10765683650970459 1.247265338897705
0.07228019088506699 0.1112525686621666 1.3167458772659302
0.05863718315958977 0.100898876786232 1.1692051887512207
0.12356578558683395 0.14040078222751617 1.2499619722366333
0.08681713044643402 -0.05029253661632538 1.647942304611206
0.0897461324930191 0.09205110371112823 1.1702251434326172
0.042035069316625595 -0.2184963971376419 0.8996860384941101
0.021337423473596573 -0.12603865563869476 0.2097865343093872
0.03675901144742966 -0.14629562199115753 0.15117594599723816
0.021004127338528633 -0.13086679577827454 0.6616678237915039
0.04279320687055588 -0.01512184739112854 1.081223487854004
0.038289763033390045 -0.04981022700667381 0.5223050117492676
0.1254546344280243 0.012173272669315338 1.3489454984664917
0.07208327203989029 -0.22999641299247742 1.3754677772521973
0.11298082768917084 -0.05760283023118973 1.6096466779708862
0.09887877851724625 -0.11669398099184036 1.5610456466674805
0.10120999068021774 -0.09610054641962051 1.5448577404022217
0.09478604048490524 -0.17638862133026123 1.7456908226013184
0.054941896349191666 -0.25006407499313354 1.3159019947052002
0.10066283494234085 -0.03362574055790901 0.442332923412323
0.06881377100944519 -0.020484033972024918 0.43850260972976685
0.08857753127813339 -0.04822613298892975 0.2847421169281006
0.11001485586166382 -0.056468408554792404 0.25475549697875977
0.11601230502128601 -0.1726876199245453 1.4708194732666016
0.10492667555809021 -0.18208134174346924 1.4771322011947632
0.1166127622127533 -0.17533721029758453 1.4622775316238403
0.09758900105953217 -0.055342406034469604 0.7240222692489624
0.09977298974990845 -0.0994860827922821 0.5900298357009888
0.13459448516368866 0.021923353895545006 0.9374310970306396
0.1092262864112854 -0.10329950600862503 1.0876073837280273
0.10047344863414764 -0.15340647101402283 1.068099021911621
0.11509551107883453 -0.16623282432556152 1.0079364776611328
0.13302847743034363 -0.15131312608718872 1.585829734802246
0.13497447967529297 -0.14342431724071503 1.509774088859558
0.05162587761878967 -0.2727940082550049 1.1975021362304688
0.1553116887807846 -0.07391680032014847 1.514983892440796
0.14668051898479462 -0.10739962756633759 1.5440555810928345
0.1369457095861435 -0.13345304131507874 -0.011219803243875504
0.14424078166484833 -0.20706632733345032 -0.0019413046538829803
0.15801838040351868 -0.08305540680885315 1.480580449104309
0.16068103909492493 -0.06390020251274109 1.4587414264678955
0.1645416021347046 -0.05926550552248955 1.4296458959579468
0.16608834266662598 -0.04256130009889603 1.4222782850265503
0.0378059558570385 -0.33730924129486084 1.1161456108093262
0.1608029007911682 -0.15768146514892578 0.8203277587890625
0.057354625314474106 -0.3199298083782196 1.1308014392852783
0.04948299005627632 -0.3398233950138092 1.114243507385254
0.19246242940425873 -0.1149827390909195 0.8300102353096008
0.18930545449256897 -0.09214860200881958 0.8103214502334595
0.20184364914894104 -0.057517290115356445 0.8177064061164856
-0.19326093792915344 -0.15061351656913757 1.1452829837799072
-0.14484253525733948 -0.18116262555122375 1.2256145477294922
-0.1514517217874527 -0.1741592288017273 1.2085288763046265
-0.1419375240802765 -0.1692134141921997 1.2199535369873047
-0.1378595530986786 -0.17313998937606812 1.2375860214233398
-0.19984421133995056 -0.0020153727382421494 0.8358583450317383
-0.10958296060562134 -0.14582514762878418 1.2739686965942383
-0.14688917994499207 -0.0883542075753212 1.073429822921753
-0.06888209283351898 -0.05639263987541199 1.5478515625
-0.12948426604270935 -0.14481398463249207 1.1850823163986206
-0.1390172392129898 -0.12307214736938477 1.1403764486312866
-0.05291539803147316 -0.028629222884774208 1.4633920192718506
-0.045182790607213974 -0.022738777101039886 1.4320781230926514
-0.1378035545349121 -0.15435725450515747 1.0213878154754639
-0.10308835655450821 -0.17304468154907227 0.9815651178359985
-0.11019007861614227 -0.04607163742184639 0.7481769323348999
0.005846408195793629 0.0845455452799797 1.3493766784667969
-0.003790576010942459 -0.041106030344963074 1.6362098455429077
-0.04207659140229225 -0.027873918414115906 -0.004076989367604256
-0.055647771805524826 -0.014540320262312889 -0.020001396536827087
-0.08332676440477371 0.024375464767217636 0.8545731902122498
-0.006634179502725601 0.09555723518133163 0.8582508563995361
-0.05631262809038162 -0.025291163474321365 0.8300617933273315
0.05996086448431015 -0.0027816379442811012 1.374775767326355
-0.012373420409858227 -0.0959773063659668 0.7565242052078247
-0.007588503882288933 -0.26241394877433777 1.5433235168457031
-0.011255450546741486 0.016383500769734383 0.8745180368423462
-0.006255129352211952 -0.02494998648762703 0.8494594097137451
0.001348185120150447 -0.11616016179323196 0.850241482257843
-0.07878148555755615 -0.16643396019935608 0.8570607900619507
-0.005371246486902237 -0.22621579468250275 0.8500888347625732
0.005868745967745781 -0.1086200699210167 0.8116015791893005
-0.008001458831131458 -0.16111044585704803 0.8618273735046387
0.03870885819196701 -0.11067141592502594 1.4680277109146118
0.00840709637850523 -0.035495832562446594 0.8360893130302429
0.006188402883708477 -0.04834552854299545 0.8072208166122437
0.06029284745454788 -0.11007281392812729 1.5409507751464844
0.061634112149477005 -0.1006820872426033 1.520158052444458
0.017681075260043144 -0.12327200174331665 0.8298362493515015
0.11706165224313736 0.057437874376773834 0.8246248960494995
0.026715315878391266 -0.09606555104255676 0.2042909860610962
0.02486242912709713 -0.034288011491298676 0.787529706954956
0.11100133508443832 0.05928276106715202 1.2802680730819702
0.062409620732069016 -0.11937548220157623 0.33177876472473145
0.056333642452955246 -0.10687853395938873 0.26716750860214233
0.07246533036231995 -0.12773193418979645 0.28422439098358154
0.061711765825748444 -0.17317533493041992 0.23435930907726288
0.13754121959209442 -0.05661013349890709 1.4947412014007568
0.06079712510108948 -0.01633302867412567 0.8231661915779114
0.08171417564153671 -0.03629228100180626 0.793047308921814
0.08006132394075394 -0.16140368580818176 1.2206792831420898
0.09345254302024841 -0.12814727425575256 0.38150158524513245
0.13551990687847137 -0.09749047458171844 1.5802028179168701
0.07746514678001404 -0.15020954608917236 1.2762216329574585
0.10278183221817017 -0.13052044808864594 0.2838665843009949
0.13776668906211853 0.11136718094348907 1.2915936708450317
0.08709175139665604 -0.12520268559455872 1.2041500806808472
0.1136709600687027 -0.07816554605960846 0.13988716900348663
0.17056740820407867 0.12448704242706299 1.2207300662994385
0.0980396568775177 -0.06006018817424774 0.1829977184534073
0.1020900160074234 -0.18330025672912598 0.20491579174995422
0.1658461093902588 -0.0025646870490163565 1.3584736585617065
0.12345582246780396 -0.18703947961330414 1.4106553792953491
0.12490320950746536 -0.18256239593029022 1.3819242715835571
0.1237022653222084 -0.1853632926940918 1.410569190979004
0.1363363265991211 -0.15154945850372314 1.3579728603363037
0.06350267678499222 -0.2954027056694031 1.176474928855896
0.04585197567939758 -0.30425071716308594 1.1714750528335571
0.17936085164546967 0.036860041320323944 1.2859265804290771
0.19578294456005096 0.07712717354297638 1.242879867553711
0.18753236532211304 0.07887957990169525 1.2143245935440063
0.09159795194864273 -0.2297305166721344 1.2156323194503784
0.07594896852970123 -0.2635040283203125 1.231843113899231
0.14843398332595825 -0.1816728413105011 0.8365622758865356
0.08493451774120331 -0.2806541919708252 1.2389092445373535
0.07524756342172623 -0.31521809101104736 1.1370511054992676
0.07513159513473511 -0.25491172075271606 1.1132622957229614
0.06981148570775986 -0.2970871925354004 1.1051875352859497
0.14463932812213898 -0.32300785183906555 1.1287060976028442
0.13192680478096008 -0.300967276096344 0.9972240924835205
0.12813568115234375 -0.34890973567962646 1.0516279935836792
-0.14620278775691986 -0.261068731546402 1.097906470298767
-0.1346006542444229 -0.2118009328842163 1.165157675743103
-0.14119713008403778 -0.2063111662864685 1.1857861280441284
-0.13375014066696167 -0.24889028072357178 1.1062138080596924
-0.06639625877141953 -0.033095911145210266 1.489780068397522
-0.07350312173366547 -0.04027099162340164 1.472813367843628
-0.07670991122722626 -0.014993898570537567 1.4418036937713623
-0.08012080192565918 -0.15778331458568573 1.6565766334533691
-0.09288643300533295 -0.17994514107704163 1.5728626251220703
-0.11856812238693237 -0.10122422128915787 0.279132217168808
-0.12288793921470642 -0.07647919654846191 0.8253271579742432
-0.11836883425712585 -0.10413789749145508 0.8066144585609436
-0.06718188524246216 0.1341184824705124 1.1312536001205444
-0.08978724479675293 -0.19399496912956238 1.21980881690979
-0.106037937104702 -0.04010758921504021 0.8007344007492065
-0.032862503081560135 -0.1777067929506302 1.6940116882324219
-0.1033247709274292 -0.1584426313638687 1.1148042678833008
-0.07219955325126648 -0.21476459503173828 1.0927485227584839
-0.012640248984098434 0.09531465172767639 1.2120702266693115
0.05529842525720596 0.09216712415218353 1.2024400234222412
-0.0633477121591568 -0.07072748243808746 1.1629045009613037
-0.044248200953006744 -0.11698813736438751 0.8459324836730957
-0.06260325014591217 -0.20671184360980988 1.0342645645141602
-0.051275648176670074 -0.0045108795166015625 1.070001482963562
0.00916096568107605 -0.26268768310546875 1.6324043273925781
-0.003765655215829611 -0.10187965631484985 0.7388380765914917
0.007602635771036148 0.012577272020280361 1.356081247329712
0.04179777577519417 -0.20556095242500305 -0.037859782576560974
0.15296527743339539 0.1501590460538864 1.1737949848175049
0.11909670382738113 0.09103793650865555 1.2138111591339111
0.1062081977725029 0.1613972932100296 1.1921411752700806
0.08912552148103714 0.08675122261047363 0.8447532653808594
0.11313025653362274 -0.0873478502035141 -0.03168792277574539
0.10061244666576385 -0.03853856027126312 0.811741292476654
0.09707499295473099 -0.12446113675832748 0.33641722798347473
0.10562071204185486 -0.23085829615592957 1.3527140617370605
0.07855195552110672 -0.2570214569568634 1.2815943956375122
0.1867278665304184 -0.0027794912457466125 0.8141832947731018
0.20231369137763977 -0.055067453533411026 0.8801673650741577
0.13136233389377594 -0.33038508892059326 1.012902021408081
-0.24243195354938507 -0.14355412125587463 1.0877737998962402
-0.20637042820453644 -0.08500003814697266 0.8965768814086914
-0.2144486904144287 -0.07821695506572723 0.8382960557937622
-0.07963238656520844 -0.027927394956350327 1.433628797531128
-0.07689768075942993 0.026656730100512505 1.3294944763183594
-0.08308178931474686 -0.12572193145751953 1.5102479457855225
-0.14323797821998596 -0.07209546118974686 1.0391619205474854
-0.1474311798810959 -0.10970470309257507 1.0756003856658936
-0.08187799155712128 -0.12296392023563385 1.5113722085952759
-0.08379673212766647 -0.13418829441070557 1.495983362197876
-0.08440092206001282 -0.1282956898212433 1.5058313608169556
-0.08456385880708694 -0.13172633945941925 1.5074732303619385
-0.09028220921754837 -0.1426960527896881 1.4941632747650146
-0.09336347132921219 -0.137089341878891 0.1168898195028305
-0.08811545372009277 -0.21950381994247437 1.6128045320510864
-0.029418673366308212 -0.08027781546115875 1.216309905052185
-0.03943272680044174 -0.1520509123802185 0.02796928770840168
-0.038806263357400894 -0.09793303161859512 1.2513054609298706
-0.007403379771858454 -0.07735976576805115 1.17099928855896
-0.04317252337932587 0.09419544041156769 0.9301055669784546
0.023600416257977486 -0.1880110502243042 1.7014988660812378
-0.014967248775064945 -0.09235274791717529 0.6859662532806396
0.02846704050898552 0.023657511919736862 1.327101707458496
0.0022219717502593994 -0.1990988850593567 0.9906922578811646
-0.04336562007665634 -0.24462252855300903 1.180565595626831
0.06308244168758392 0.07271081209182739 1.2333569526672363
0.044458094984292984 -0.1028764545917511 0.1329803466796875
0.06439394503831863 -0.1845102608203888 0.977436900138855
0.12293527275323868 -0.1775466799736023 0.9453793168067932
0.11512650549411774 -0.0866704210639 1.5169200897216797
0.04548978805541992 -0.2144719362258911 1.1337676048278809
0.03071013279259205 -0.08478127419948578 1.1647953987121582
0.09352195262908936 -0.057474106550216675 1.0887044668197632
0.08980227261781693 0.05649524927139282 0.9489772915840149
0.10957519710063934 -0.2932640314102173 -0.03963073343038559
0.08509460091590881 -0.2757827043533325 -0.05502394959330559
0.13880115747451782 -0.2629231810569763 -0.04783833399415016
0.1224617213010788 -0.174551323056221 0.18229670822620392
0.12033957988023758 -0.1849568635225296 1.408740520477295
0.12294439971446991 -0.18519923090934753 1.408988356590271
0.07716789841651917 -0.21227750182151794 1.2896491289138794
0.07658994197845459 -0.2462989091873169 1.2714000940322876
0.19753611087799072 0.11194714903831482 1.1638121604919434
0.1897936463356018 0.1035166010260582 1.1212962865829468
0.199310764670372 0.10819379985332489 1.119726300239563
0.14081037044525146 -0.2913084626197815 0.9991108179092407
0.13768579065799713 -0.3462989032268524 0.9925745725631714
0.14804232120513916 -0.36590784788131714 0.9850506782531738
-0.20574191212654114 -0.061124034225940704 1.041385293006897
-0.15025131404399872 -0.23600910604000092 1.1436690092086792
-0.08979238569736481 -0.10654555261135101 0.3129259943962097
-0.03517979010939598 0.12663811445236206 1.1056735515594482
-0.11471342295408249 -0.16391925513744354 1.0609804391860962
-0.028543666005134583 -0.0452873632311821 0.8387606143951416
-0.04067379981279373 -0.03990687057375908 0.79506516456604
-0.032285936176776886 -0.09278292953968048 0.8036478757858276
-0.0034436583518981934 -0.024694662541151047 1.1164865493774414
0.02299915999174118 -0.20880268514156342 0.8351434469223022
0.08515997231006622 0.014860650524497032 0.841460108757019
0.13091769814491272 0.09679453819990158 1.184954285621643
0.13381783664226532 -0.12480369210243225 1.5177686214447021
0.14249438047409058 -0.0995934009552002 1.503480315208435
0.1887311339378357 -0.12387332320213318 0.8830698132514954
-0.1544589102268219 -0.23741307854652405 1.1109975576400757
-0.07577884942293167 -0.08496164530515671 1.553560495376587
-0.007624064572155476 0.12690411508083344 1.1455528736114502
-0.05248335748910904 -0.0665549486875534 1.5869220495224
-0.03318719193339348 -0.0957300215959549 1.5655769109725952
-0.006097368896007538 -0.10164151340723038 1.5418637990951538
0.02320495992898941 -0.2137351930141449 1.0406454801559448
0.03748273476958275 -0.23166169226169586 1.2213913202285767
0.05556870251893997 -0.19009414315223694 0.11133281886577606
0.07429139316082001 -0.20229534804821014 1.182378888130188
0.0845443606376648 -0.16706129908561707 1.138634204864502
0.15140604972839355 -0.04448818787932396 1.43511962890625
0.14333778619766235 -0.01832633465528488 1.4560017585754395
0.0922633707523346 -0.12695489823818207 1.1580451726913452
0.10094571113586426 -0.07596737146377563 0.8005040884017944
0.03831160068511963 -0.28623074293136597 1.200756549835205
0.17065708339214325 0.004823556635528803 1.3798476457595825
-0.061968713998794556 0.006709717214107513 1.3961260318756104
-0.08575905859470367 -0.030492408201098442 0.322706401348114
0.009033492766320705 -0.10240590572357178 0.6941993236541748
0.05799127742648125 -0.26314860582351685 1.6123273372650146
-0.07631278038024902 0.11693846434354782 1.1882920265197754
-0.1320241391658783 -0.17549490928649902 1.2422113418579102
-0.04589914530515671 -0.06884197145700455 0.35900208353996277
0.06780774891376495 0.0028843292966485023 1.4986438751220703
0.06113951653242111 -0.27542591094970703 -0.03853151202201843
0.11853106319904327 -0.17531290650367737 1.4624290466308594
0.11710615456104279 -0.17483371496200562 1.4611519575119019
0.1066189855337143 -0.18582673370838165 1.3734114170074463
0.11616335064172745 -0.16921475529670715 0.14617609977722168
0.13152720034122467 -0.13509702682495117 0.12375356256961823
0.08730050921440125 -0.3113948106765747 1.182386875152588
-0.17754675447940826 -0.1578715294599533 0.906855046749115
-0.06912195682525635 -0.011105075478553772 1.4167664051055908
-0.06753027439117432 -0.013305194675922394 1.4182429313659668
-0.07289320230484009 -0.015551645308732986 1.4172399044036865
-0.04043693095445633 -0.08675234019756317 0.15307815372943878
-0.027732226997613907 -0.09910348057746887 0.8438360691070557
0.03311023861169815 -0.15397600829601288 0.09978456050157547
0.10398498177528381 -0.33274412155151367 1.137190341949463
0.11507053673267365 -0.21482345461845398 1.5786082744598389
0.1118425726890564 -0.10139045119285583 0.7506126165390015
0.16558942198753357 -0.03790610283613205 1.406755805015564
0.16820982098579407 -0.014053407125175 1.3841580152511597
0.043896909803152084 -0.11937437951564789 -0.04069805145263672
0.052414245903491974 -0.6488616466522217 1.0268207788467407
0.052059125155210495 -0.6229766011238098 1.0046106576919556
0.04962220788002014 -0.6326610445976257 1.0072581768035889
0.044810082763433456 -0.6286768913269043 1.0146180391311646
0.04554378613829613 -0.6480619311332703 1.0167725086212158
0.05081449821591377 -0.6419956088066101 1.0289987325668335
0.08873898535966873 -0.5202417373657227 1.002021074295044
0.07516935467720032 -0.5241779088973999 0.9978408813476562
0.08140958845615387 -0.5417790412902832 1.0057506561279297
0.07946430146694183 -0.5494229793548584 1.0091187953948975
0.10511588305234909 -0.3898709714412689 0.934025764465332
0.10326126217842102 -0.4001599848270416 0.9501752853393555
0.10303189605474472 -0.4004858434200287 0.9281537532806396
0.07042473554611206 -0.536130428314209 0.968187153339386
0.07111910730600357 -0.5483905673027039 0.9812626242637634
0.08266130089759827 -0.5694537162780762 1.0287127494812012
0.08071526885032654 -0.5596019625663757 1.017866849899292
0.09297512471675873 -0.429330974817276 0.9149735569953918
0.09244739264249802 -0.436496376991272 0.9355496168136597
0.10884364694356918 -0.4660993814468384 0.9956076145172119
0.10456377267837524 -0.45969802141189575 0.9897613525390625
0.06730469316244125 -0.6283054947853088 1.0372546911239624
0.05739976093173027 -0.6138310432434082 0.9973363876342773
0.10743388533592224 -0.39887893199920654 0.9185368418693542
0.10078200697898865 -0.4046552777290344 0.9157539010047913
0.17370927333831787 -0.24425023794174194 0.9813202619552612
0.16971932351589203 -0.2533123791217804 0.9804604053497314
0.1690232902765274 -0.24306677281856537 0.9619778990745544
0.07308329641819 -0.5898934602737427 1.0236185789108276
0.07071062177419662 -0.6094193458557129 1.028762698173523
0.10637848824262619 -0.4022665023803711 0.9133263826370239
0.10384848713874817 -0.40179014205932617 0.9040837287902832
0.040121715515851974 -0.6661570072174072 0.9827185869216919
0.03959422558546066 -0.6765468120574951 0.9901329278945923
0.18144014477729797 -0.23151442408561707 0.9741729497909546
0.17812736332416534 -0.24312850832939148 0.9855933785438538
0.17580443620681763 -0.23273895680904388 0.9688747525215149
0.17329823970794678 -0.23970142006874084 0.9600329399108887
0.04097851365804672 -0.703476071357727 1.0385310649871826
0.0418083481490612 -0.7192099690437317 1.0495188236236572
0.03571641817688942 -0.7200546860694885 1.03183114528656
0.0842035636305809 -0.49019655585289 0.9427558779716492
0.08566144108772278 -0.5054130554199219 0.9445134997367859
0.07369526475667953 -0.5203956961631775 0.9399640560150146
0.08015501499176025 -0.5181949734687805 0.9372464418411255
0.18026836216449738 -0.2474767416715622 0.9897682666778564
0.17807382345199585 -0.23119354248046875 0.9643846154212952
0.08376263082027435 -0.5871533155441284 1.0376876592636108
0.09151865541934967 -0.5869587659835815 1.038610816001892
0.07888934761285782 -0.5999209880828857 1.0395359992980957
0.07927267998456955 -0.6154779195785522 1.0437989234924316
0.09353658556938171 -0.45759037137031555 0.9298098087310791
0.09108476340770721 -0.4700429439544678 0.9272944927215576
0.08837708085775375 -0.4723461866378784 0.932571291923523
