0.5386994481086731 -0.24339209496974945 0.8545991778373718
0.5042862296104431 -0.2390131652355194 0.9174146056175232
0.5170198082923889 -0.2717411518096924 0.8466477394104004
0.5195236206054688 -0.2000824511051178 0.9828689694404602
0.5593646168708801 -0.21849335730075836 0.9316156506538391
0.5714473128318787 -0.2647916078567505 0.692703902721405
0.5523813366889954 -0.2938227355480194 0.6353302001953125
0.6061740517616272 -0.22659319639205933 0.6388148665428162
0.566718578338623 -0.17134016752243042 1.0012067556381226
0.5814059972763062 -0.20597928762435913 0.7890020608901978
0.5490682125091553 -0.2761663794517517 0.7629110813140869
0.5750049948692322 -0.27034515142440796 0.7531993389129639
0.6078668832778931 -0.26664137840270996 0.6703140735626221
0.6172037124633789 -0.19449160993099213 0.934067964553833
0.6367395520210266 -0.19538657367229462 0.9007747769355774
0.6412194967269897 -0.23901474475860596 0.7284554839134216
0.6343308687210083 -0.24828606843948364 0.7492399215698242
0.5628268122673035 -0.14683450758457184 1.1018002033233643
0.6547538042068481 -0.15283340215682983 1.0523509979248047
0.6151860356330872 -0.1694953441619873 1.0483686923980713
0.6130586266517639 -0.12865956127643585 1.2409456968307495
0.610115647315979 -0.13218897581100464 1.1954704523086548
0.6071962118148804 -0.12863944470882416 1.1910686492919922
0.606985330581665 -0.14824645221233368 1.1778010129928589
0.6416516304016113 -0.14849106967449188 1.1110131740570068
0.6299981474876404 -0.15362796187400818 1.1308705806732178
-0.41179999709129333 0.09250752627849579 0.8448735475540161
-0.4121769070625305 0.07095669955015182 0.8618276715278625
-0.40597835183143616 0.0466076135635376 0.8332692980766296
-0.1943465769290924 -0.06282711029052734 0.5730448961257935
-0.18512316048145294 -0.1107647716999054 0.541837751865387
-0.26731306314468384 -0.04175632447004318 0.7581219673156738
-0.26716381311416626 -0.05380630865693092 0.7025490999221802
-0.2794305384159088 -0.07674534618854523 0.7458621859550476
-0.245988667011261 -0.08844033628702164 0.634257435798645
-0.21376964449882507 -0.07389401644468307 0.6459968686103821
-0.20100241899490356 -0.10418461263179779 0.6179457902908325
-0.3267737627029419 0.004253365099430084 0.8954297304153442
-0.3029649257659912 -0.029743533581495285 0.8523895144462585
-0.31287434697151184 -0.012178268283605576 0.8482162952423096
-0.23377802968025208 -0.08921050280332565 0.685188889503479
-0.2268528938293457 -0.06637817621231079 0.6842829585075378
-0.2714812457561493 -0.06152809038758278 0.7798069715499878
-0.2557006776332855 -0.04891236498951912 0.7317296266555786
-0.36733609437942505 0.09152249991893768 1.0325005054473877
-0.25698432326316833 0.039198894053697586 0.8879729509353638
-0.23269516229629517 0.029569946229457855 0.9341893196105957
-0.22907352447509766 0.04979774355888367 0.9295611381530762
-0.3345410227775574 0.053797099739313126 1.0743987560272217
-0.2683364152908325 0.05282154306769371 1.0220879316329956
-0.2400304079055786 0.05576122924685478 0.9642403721809387
-0.23729169368743896 0.03592260554432869 0.957800567150116
-0.3292178809642792 0.0927639827132225 1.3150393962860107
-0.2474251091480255 0.07173757255077362 1.0564839839935303
-0.2464473992586136 0.04862574487924576 1.104203224182129
-0.2226914018392563 0.07220116257667542 1.0636508464813232
-0.1902126520872116 0.04857201874256134 1.1135668754577637
-0.19777163863182068 0.06595196574926376 1.081546425819397
-0.16449400782585144 0.05384018272161484 1.176050066947937
0.43285155296325684 -0.09267805516719818 1.0566258430480957
0.4047435522079468 -0.0518350750207901 1.545737862586975
0.5000977516174316 -0.13383905589580536 1.0189921855926514
0.4562838673591614 -0.10018329322338104 1.000059962272644
0.4684101343154907 -0.14119109511375427 0.9958207011222839
0.4801304340362549 -0.128047376871109 0.9889594912528992
0.45738738775253296 -0.09839697182178497 1.1939945220947266
0.47113919258117676 -0.175828754901886 1.0207762718200684
0.4857390522956848 -0.19195768237113953 0.965287446975708
0.46660640835762024 -0.21209846436977386 0.9889436364173889
0.4731757342815399 -0.21354477107524872 0.9595744609832764
0.4926871359348297 -0.20410199463367462 0.9058179259300232
0.532282292842865 -0.22831913828849792 0.7048587799072266
0.5448269248008728 -0.23621049523353577 0.6530783772468567
0.5740237832069397 -0.22773990035057068 0.6412332057952881
0.5224361419677734 -0.16298162937164307 1.0000414848327637
0.5345512628555298 -0.16700246930122375 0.9628816843032837
0.509972333908081 -0.21959388256072998 0.9383082389831543
0.5019628405570984 -0.22888068854808807 0.89892578125
0.48705512285232544 -0.2555358409881592 0.8682684302330017
0.4821960926055908 -0.12531588971614838 1.307342529296875
0.5792633891105652 -0.19077010452747345 0.9318767786026001
0.6047041416168213 -0.20910051465034485 0.8851202726364136
0.5676931142807007 -0.18208971619606018 1.0578635931015015
0.6250951886177063 -0.27686333656311035 0.7119075059890747
0.6348548531532288 -0.24038304388523102 0.6756856441497803
0.5978081226348877 -0.22080551087856293 0.9154019355773926
0.6033442616462708 -0.23652009665966034 0.864153265953064
0.6801046133041382 -0.1832483559846878 1.042238473892212
0.6321840286254883 -0.21801775693893433 1.004494309425354
0.6525707244873047 -0.20012861490249634 0.9980250597000122
0.6642715930938721 -0.2366241216659546 0.8681350946426392
0.6686992645263672 -0.21818365156650543 0.8771553039550781
-0.46168386936187744 0.13508868217468262 1.0083810091018677
-0.20280319452285767 -0.05565063655376434 0.5144315958023071
-0.3316877484321594 -0.0018712878227233887 0.8294692635536194
-0.310474157333374 -0.025261372327804565 0.8045896291732788
-0.35260269045829773 0.03149469569325447 0.8700410723686218
-0.48675188422203064 0.14194855093955994 1.3206357955932617
-0.33493438363075256 0.06547200679779053 0.9057559967041016
-0.32100117206573486 0.04391053691506386 0.879944920539856
-0.15307706594467163 -0.07058412581682205 0.5587334632873535
-0.13965322077274323 -0.045639071613550186 0.5543670058250427
-0.28837937116622925 -0.013029959052801132 0.854073166847229
-0.2707160711288452 -0.03661864250898361 0.8020285367965698
-0.28539150953292847 -0.030831441283226013 0.8449934720993042
-0.4669742286205292 0.11886103451251984 1.275618076324463
-0.4126535952091217 0.12361300736665726 1.174800157546997
-0.21355178952217102 0.08438266813755035 1.1815106868743896
0.15044713020324707 -0.008818220347166061 1.2309083938598633
0.13576285541057587 -0.020678453147411346 1.2387996912002563
0.2362646609544754 -0.049924176186323166 1.1829957962036133
0.2440059632062912 -0.03724173828959465 1.1108230352401733
0.30887553095817566 -0.03779134899377823 1.2253613471984863
0.3683755099773407 -0.06815516203641891 1.1095175743103027
0.3594096302986145 -0.08218996971845627 1.0949829816818237
0.4110810160636902 -0.1005484014749527 1.2429248094558716
0.42831873893737793 -0.10773821175098419 1.3231364488601685
0.4490642249584198 -0.13281770050525665 1.13913893699646
0.4831223487854004 -0.2475355863571167 0.8727637529373169
0.5202351212501526 -0.24364104866981506 0.8225259780883789
0.5080040097236633 -0.271629273891449 0.7807574272155762
0.5312060713768005 -0.2553446292877197 0.7272390723228455
0.523478627204895 -0.17703717947006226 1.0635861158370972
0.5581020712852478 -0.30188125371932983 0.6574805378913879
-0.40006399154663086 0.05629860609769821 0.8579183220863342
-0.19763600826263428 -0.029414407908916473 0.7112240195274353
-0.16941094398498535 -0.04465382918715477 0.6596813797950745
-0.49993404746055603 0.14790408313274384 1.4266161918640137
-0.2429886907339096 0.06628075987100601 1.0450255870819092
-0.2291695475578308 0.06274886429309845 1.0157612562179565
-0.21849820017814636 0.05624988302588463 1.0474656820297241
-0.1821201890707016 0.06407880783081055 1.0910248756408691
-0.14339525997638702 0.045112162828445435 1.245105266571045
-0.15159887075424194 0.028003863990306854 1.2460930347442627
0.35297977924346924 -0.07284675538539886 1.3736158609390259
0.37684816122055054 -0.07954832911491394 1.4228507280349731
0.5218275189399719 -0.15025508403778076 1.029881238937378
0.5201969742774963 -0.14928275346755981 0.9544166326522827
0.47535964846611023 -0.15297681093215942 1.1360536813735962
0.5023036599159241 -0.2132968008518219 0.8493838310241699
0.5392481088638306 -0.16575652360916138 1.1054716110229492
0.5293276906013489 -0.14700542390346527 1.1923918724060059
0.610420823097229 -0.1936698853969574 1.0287939310073853
0.609346330165863 -0.20906464755535126 0.9658426642417908
0.617728054523468 -0.25729140639305115 0.7995861172676086
0.5725467801094055 -0.2741244435310364 0.7164864540100098
0.6339834332466125 -0.23688407242298126 0.7894794344902039
-0.20267270505428314 -0.07347211986780167 0.5422852039337158
-0.16171154379844666 -0.05271480232477188 0.5429569482803345
-0.269937664270401 -0.04366802051663399 0.7529475092887878
-0.20409563183784485 -0.07331221550703049 0.6053110361099243
-0.16432051360607147 -0.07140512764453888 0.6036742925643921
-0.2771652340888977 0.022075992077589035 0.9103783965110779
-0.232715904712677 0.0606095977127552 1.192168951034546
-0.2175501585006714 0.059264231473207474 1.1388951539993286
-0.21468254923820496 0.06837550550699234 1.1116397380828857
-0.20095902681350708 0.04768114537000656 1.1878600120544434
-0.1709655523300171 0.03332582116127014 1.12272047996521
-0.16572558879852295 0.048387058079242706 1.1110074520111084
0.24839399755001068 -0.021411951631307602 1.1164358854293823
0.45564043521881104 -0.14854203164577484 1.0663725137710571
0.4856625199317932 -0.18265847861766815 1.0615791082382202
0.4965749979019165 -0.19883818924427032 1.0190401077270508
0.5875829458236694 -0.25093501806259155 0.8502930402755737
-0.2665625214576721 -0.02987171709537506 0.6073570847511292
-0.255464643239975 -0.0563683845102787 0.5772075653076172
-0.24917879700660706 -0.04580376297235489 0.5714707970619202
-0.2992120683193207 0.034590575844049454 0.7931922078132629
-0.25255700945854187 -0.026784665882587433 0.7723398208618164
-0.2693534195423126 -0.02690369449555874 0.8243113160133362
-0.16944074630737305 0.040183134377002716 1.2073960304260254
-0.14383040368556976 0.0377965122461319 1.314591646194458
-0.13217423856258392 0.041409797966480255 1.3031507730484009
0.13636723160743713 -0.029228124767541885 1.2514584064483643
0.1877402365207672 0.0035206787288188934 1.6246533393859863
0.3469097316265106 -0.015975456684827805 1.5652967691421509
0.3677748441696167 -0.03639304265379906 1.5823653936386108
0.41891592741012573 -0.05526846647262573 1.5131922960281372
0.5699490308761597 -0.11832597106695175 1.2641021013259888
0.5945941209793091 -0.11674772948026657 1.2986359596252441
0.5948057174682617 -0.10298104584217072 1.2392297983169556
0.596646249294281 -0.13014304637908936 1.2232816219329834
0.6242674589157104 -0.11655355244874954 1.2393995523452759
-0.45151180028915405 0.11539432406425476 0.9392472505569458
-0.43200957775115967 0.12449109554290771 0.9228719472885132
-0.5163049101829529 0.1704711616039276 1.1860055923461914
-0.4946073293685913 0.17184782028198242 1.173417091369629
-0.20145581662654877 -0.02018190547823906 0.5596824884414673
-0.18171118199825287 -0.037448663264513016 0.5200911164283752
-0.23808516561985016 -0.06916444003582001 0.6430676579475403
-0.27599576115608215 0.019056349992752075 0.7473745942115784
-0.34827619791030884 0.07888065278530121 0.9561638832092285
-0.4974250793457031 0.1540912389755249 1.477369785308838
0.24526752531528473 -0.02601035125553608 1.18125581741333
0.2658974528312683 -0.014340889640152454 1.4033684730529785
0.38407430052757263 -0.07361140102148056 1.125949501991272
0.3717415928840637 -0.04882857948541641 1.2516900300979614
0.42105090618133545 -0.10006779432296753 1.058305263519287
0.4374432861804962 -0.11631571501493454 1.0079017877578735
0.42371389269828796 -0.1301564872264862 1.0884575843811035
0.5212321877479553 -0.18976013362407684 0.8051847219467163
0.5258935689926147 -0.20594587922096252 0.7953557372093201
0.5260828137397766 -0.2487621307373047 0.8613650798797607
0.5966578722000122 -0.17777687311172485 1.0269391536712646
0.6258588433265686 -0.20210778713226318 0.8100504875183105
-0.22238479554653168 -0.061312511563301086 0.5467361211776733
-0.17532947659492493 -0.06279011815786362 0.5118886232376099
-0.21581149101257324 0.07553699612617493 1.0184636116027832
-0.191215381026268 0.07590814679861069 1.1103425025939941
-0.1712692677974701 0.04526408016681671 1.164576768875122
0.5990636348724365 -0.19526568055152893 0.8449430465698242
0.6222715377807617 -0.25074517726898193 0.6143988370895386
0.6274202466011047 -0.25435134768486023 0.6289113163948059
-0.2971087694168091 -0.029692331328988075 0.7880969047546387
-0.22128573060035706 -0.028679929673671722 0.722999095916748
-0.20289409160614014 -0.05268150195479393 0.681571364402771
0.4535939693450928 -0.07628690451383591 1.4366148710250854
0.636812686920166 -0.2316078245639801 0.6209536194801331
0.6418682336807251 -0.22465448081493378 0.9306464195251465
-0.23514437675476074 0.09415378421545029 1.2560772895812988
0.6259782314300537 -0.1906222403049469 1.0190813541412354
-0.23287473618984222 -0.002584606409072876 0.7970191240310669
0.5337483286857605 -0.28131940960884094 0.6738027930259705
0.6130908131599426 -0.18741661310195923 1.007684350013733
-0.28681910037994385 -0.05610440671443939 0.7542444467544556
-0.3586556315422058 -0.12493234872817993 0.9634881615638733
-0.3647661805152893 -0.1212613582611084 0.973633885383606
-0.3469444811344147 -0.14291028678417206 0.9727088212966919
-0.3561108708381653 -0.14051656424999237 0.9820175766944885
-0.33431729674339294 -0.09554484486579895 1.0305335521697998
-0.34035834670066833 -0.1097964346408844 1.0096683502197266
-0.33107736706733704 -0.10043606162071228 0.9802610278129578
-0.3287177085876465 -0.0722164437174797 1.0120660066604614
-0.3302857577800751 -0.125034898519516 1.0144339799880981
-0.33299094438552856 -0.15229471027851105 1.003758192062378
-0.3172866702079773 -0.06359817832708359 1.0894113779067993
-0.3136800527572632 -0.1514599621295929 1.0062239170074463
-0.3274085223674774 -0.11857759207487106 1.0055427551269531
-0.3157482445240021 -0.1341908872127533 1.0418288707733154
-0.31613031029701233 -0.11138149350881577 1.035219430923462
-0.30650097131729126 -0.052594251930713654 1.0595916509628296
-0.3099888563156128 -0.10202810913324356 1.0339676141738892
-0.3095446228981018 -0.10880649834871292 1.058496117591858
-0.313382625579834 -0.08692822605371475 1.0862663984298706
-0.32881131768226624 -0.04879741743206978 1.1200556755065918
-0.32115456461906433 -0.09797239303588867 1.1155285835266113
-0.29545122385025024 -0.000632002018392086 1.1458618640899658
-0.3030892014503479 -0.012569179758429527 1.1033025979995728
-0.3187561631202698 -0.049329858273267746 1.1544508934020996
-0.27180784940719604 -0.010079169645905495 1.0923821926116943
-0.27532660961151123 -0.032986246049404144 1.2039905786514282
-0.29065316915512085 -0.09230237454175949 1.1628375053405762
-0.2714470624923706 0.008731639012694359 1.1353814601898193
-0.24220773577690125 0.0014117760583758354 1.145585060119629
-0.244477316737175 0.008998287841677666 1.2018016576766968
-0.22209981083869934 0.008923530578613281 1.2003648281097412
-0.2169940173625946 -0.041550569236278534 1.2719565629959106
-0.2557341456413269 -0.07179960608482361 1.2072874307632446
-0.21214023232460022 0.014631718397140503 1.2441802024841309
-0.23909339308738708 -0.012196728959679604 1.2518625259399414
-0.1999000906944275 0.011268075555562973 1.2822365760803223
-0.18538223206996918 0.009117085486650467 1.317065954208374
-0.18001390993595123 -0.03762533515691757 1.3236972093582153
-0.21110540628433228 -0.08019258081912994 1.2306890487670898
-0.18555279076099396 0.05097447335720062 1.7032550573349
-0.1260683834552765 0.10092456638813019 1.3831747770309448
-0.12861299514770508 0.06611960381269455 0.8638623952865601
-0.17452645301818848 0.0165400467813015 0.8726084232330322
-0.15132799744606018 -0.07581129670143127 0.8762047290802002
-0.19467057287693024 -0.1037711352109909 0.8680229187011719
-0.16734692454338074 0.06490419805049896 1.614183783531189
-0.19432231783866882 0.040173452347517014 1.7242580652236938
-0.1614009290933609 0.04529557377099991 1.676127552986145
-0.14096927642822266 0.07548445463180542 1.6300463676452637
-0.15085509419441223 0.05672069266438484 1.5787054300308228
-0.1152414083480835 -0.0021526850759983063 1.030055046081543
-0.15286973118782043 -0.04967900365591049 0.9945165514945984
-0.15945743024349213 -0.11769135296344757 0.9817686676979065
-0.1492193639278412 0.03855381906032562 1.5120515823364258
-0.28858232498168945 -0.06441737711429596 0.06227364391088486
-0.3044392466545105 -0.12442392110824585 0.027916669845581055
-0.3088696300983429 -0.1489398032426834 0.045329783111810684
-0.1532406061887741 -0.02675323374569416 1.3707666397094727
-0.14281250536441803 0.013313431292772293 1.3187059164047241
-0.13740594685077667 -0.012873806059360504 1.2993311882019043
-0.16158324480056763 -0.037568531930446625 1.3590158224105835
-0.14495177567005157 -0.08104727417230606 1.314691424369812
-0.2263759970664978 -0.028945643454790115 0.47794628143310547
-0.2268919199705124 -0.057016413658857346 0.39368337392807007
-0.2395094931125641 -0.004452815279364586 0.3324347734451294
-0.24543435871601105 -0.031377553939819336 0.36029884219169617
-0.15457986295223236 0.05474810674786568 1.6459156274795532
-0.1397741734981537 -0.05286550521850586 1.2680776119232178
-0.14290843904018402 -0.062350738793611526 1.226438283920288
-0.1460847705602646 -0.08650202304124832 1.256788730621338
-0.1696789562702179 -0.09951215982437134 1.2576125860214233
-0.2353387326002121 0.00585520314052701 0.2579938471317291
-0.15252366662025452 -0.024701708927750587 1.5065703392028809
-0.13592857122421265 0.04385434463620186 1.512887954711914
-0.14501254260540009 0.014826960861682892 1.5048580169677734
-0.194953054189682 -0.06573174893856049 0.5761632323265076
-0.10941007733345032 0.03519435226917267 1.7371665239334106
-0.12969744205474854 -0.10757952928543091 1.1953480243682861
-0.1173827201128006 -0.036107271909713745 1.1449863910675049
-0.13580961525440216 -0.12434133887290955 0.7441118955612183
-0.10985182970762253 0.08485971391201019 1.6900174617767334
-0.1325443834066391 -0.057004496455192566 1.3822500705718994
-0.1038653701543808 -0.11861938238143921 0.8488301038742065
-0.13855700194835663 -0.13046212494373322 0.8704203367233276
-0.12262391299009323 -0.19700893759727478 0.909054160118103
-0.10607945919036865 -0.21276986598968506 0.8470609188079834
-0.2821972072124481 -0.18756549060344696 0.06295403838157654
-0.07306408137083054 0.10217145085334778 1.6896605491638184
-0.1030249148607254 0.04508298635482788 1.7223005294799805
-0.15067432820796967 -0.0018079280853271484 1.4207251071929932
-0.13391606509685516 -0.02702365070581436 1.465219497680664
-0.20462408661842346 0.016987554728984833 0.32695066928863525
-0.23294080793857574 -0.007989882491528988 0.20958492159843445
-0.27143406867980957 -0.18480275571346283 0.10625286400318146
-0.23824778199195862 -0.002844683825969696 0.06856708228588104
-0.11219528317451477 -0.00960942730307579 1.3042460680007935
-0.17590302228927612 -0.09215451776981354 0.5488078594207764
-0.23754708468914032 -0.14660361409187317 0.005508077330887318
-0.27806732058525085 -0.1469670534133911 0.002201932016760111
-0.10249121487140656 0.034427937120199203 1.5281193256378174
-0.10888697952032089 0.006046641618013382 1.4856112003326416
-0.03289258852601051 -0.21495747566223145 0.9009926915168762
-0.07796652615070343 0.08880548924207687 0.8605843782424927
-0.23219795525074005 -0.10986670851707458 0.2703682780265808
-0.2097262144088745 -0.10745657980442047 0.19456398487091064
-0.2168055772781372 -0.011683721095323563 0.11062880605459213
-0.0969049483537674 -0.009545672684907913 1.2697957754135132
-0.10567667335271835 -0.029040714725852013 1.229724407196045
-0.07952752709388733 -0.12773972749710083 1.2964318990707397
-0.1408354640007019 -0.02571713924407959 0.6684825420379639
-0.11917733401060104 -0.1263505518436432 0.7362400889396667
-0.07470320165157318 -0.11792434006929398 0.8100952506065369
-0.2009478211402893 -0.1159423291683197 0.16079941391944885
-0.22515344619750977 -0.1786336898803711 0.0705743283033371
-0.12881912291049957 -0.0782582014799118 1.4576971530914307
-0.0963084027171135 -0.0003117285668849945 1.338613510131836
-0.06704211235046387 -0.006481047719717026 1.2760233879089355
-0.1454349309206009 -0.09408402442932129 0.5712381601333618
-0.12343504279851913 -0.07468836009502411 0.5709818005561829
-0.16191452741622925 0.021589040756225586 0.5141451358795166
-0.10151957720518112 -0.06582200527191162 1.4289686679840088
-0.07457739114761353 -0.029047172516584396 1.4144189357757568
-0.10297083109617233 0.014056168496608734 1.3780579566955566
-0.13509203493595123 -0.015961678698658943 0.5193203091621399
-0.06110551580786705 0.055905990302562714 1.7276173830032349
-0.12494391202926636 -0.11890912801027298 1.5866131782531738
-0.038270723074674606 -0.18802610039710999 0.9787414073944092
-0.08005499839782715 -0.039223384112119675 1.427248239517212
-0.060108400881290436 -0.06807004660367966 1.4121679067611694
-0.07991084456443787 -0.051955826580524445 1.4061791896820068
-0.07355033606290817 -0.11884505301713943 1.5207831859588623
-0.10958462953567505 -0.10897964984178543 1.4693307876586914
-0.05441979318857193 -0.009757988154888153 1.4377094507217407
-0.10481665283441544 -0.04021364077925682 0.6382765769958496
-0.021643076092004776 0.00974302738904953 1.7465214729309082
-0.029408834874629974 0.11039745062589645 1.6613473892211914
-0.0628616064786911 -0.13531629741191864 1.4716922044754028
-0.07527244091033936 -0.1105017438530922 1.427738070487976
-0.038037270307540894 -0.02001560479402542 1.4140173196792603
-0.04940927401185036 -0.11549687385559082 1.4290331602096558
-0.009644739329814911 -0.0023718848824501038 1.3919651508331299
-0.027746113017201424 -0.021080046892166138 1.2688748836517334
-0.016333650797605515 0.06210874766111374 1.725480318069458
-0.02002001740038395 -0.021341782063245773 1.4411628246307373
-0.025455694645643234 -0.06253664195537567 1.4267834424972534
0.013139128684997559 0.07519949972629547 1.6893597841262817
-0.009347669780254364 0.019078373908996582 1.7305468320846558
-0.02073429524898529 -0.054370731115341187 1.416248083114624
0.007443081587553024 -0.08499827235937119 1.450549602508545
-0.014663547277450562 -0.03525036200881004 1.4210689067840576
0.07796718180179596 -0.09135673195123672 0.5912150740623474
0.011821072548627853 0.0012679994106292725 1.4726347923278809
0.11432430893182755 -0.1117730662226677 0.5080727934837341
-0.0073784878477454185 -0.16648060083389282 1.2560545206069946
0.04336797073483467 -0.05171314254403114 1.2482285499572754
0.04574977606534958 -0.07559312880039215 1.1390899419784546
0.14765137434005737 -0.14338506758213043 0.07190713286399841
0.16291412711143494 -0.13671797513961792 0.05103198066353798
0.13370491564273834 -0.0095367431640625 0.07891365885734558
0.007119322195649147 -0.15108835697174072 1.2423144578933716
-0.0023059863597154617 -0.19006788730621338 1.1679836511611938
0.07224389165639877 -0.14077287912368774 0.7306386828422546
0.13016881048679352 -0.06267669796943665 0.053401440382003784
0.03805090859532356 0.009185843169689178 1.6906206607818604
-0.00809355080127716 -0.13194186985492706 1.5945582389831543
-0.009932667016983032 -0.1149308979511261 1.5114861726760864
-0.009053803980350494 -0.11509665846824646 1.4688098430633545
0.09689043462276459 -0.1621449589729309 0.8768689036369324
0.08526001870632172 -0.0012471377849578857 1.7189679145812988
0.01710476353764534 -0.00011508539319038391 1.5232986211776733
0.015087949112057686 -0.0206645205616951 1.4941853284835815
0.13687950372695923 -0.023948518559336662 0.327098548412323
0.12914331257343292 -0.016304876655340195 0.26471537351608276
0.14604517817497253 -0.0010533928871154785 0.06066105142235756
0.02966846153140068 -0.004507105797529221 1.773197889328003
0.048267800360918045 -0.02256862446665764 1.392470121383667
0.09768019616603851 -0.2194802463054657 0.8633753061294556
0.08793453872203827 -0.13269884884357452 0.863764762878418
0.12854905426502228 -0.19618993997573853 0.8654202222824097
0.09652113169431686 -0.040027227252721786 0.7516422867774963
0.18926887214183807 -0.1367320567369461 0.0633472427725792
0.04815591871738434 -0.0019044019281864166 1.7014473676681519
0.03279280662536621 -0.16268447041511536 1.136070728302002
0.034955792129039764 -0.1387622058391571 1.2588133811950684
0.034924693405628204 -0.1551501452922821 1.2563650608062744
0.12426149845123291 -0.19014686346054077 0.9322842359542847
0.034678421914577484 -0.07302610576152802 1.5334455966949463
0.04586688429117203 -0.0006413832306861877 1.5349992513656616
0.041301269084215164 -0.025783706456422806 1.520609736442566
0.04668872058391571 -0.04148118570446968 1.515966773033142
0.053512245416641235 -0.053716033697128296 1.4928255081176758
0.1372992843389511 -0.06596266478300095 0.6498590707778931
0.13529181480407715 -0.13125956058502197 0.6692140698432922
0.058770716190338135 -0.05826149135828018 1.375862956047058
0.06452998518943787 -0.014555513858795166 1.3154315948486328
0.03401480242609978 -0.016045108437538147 1.333632230758667
0.04281303286552429 -0.03628746420145035 1.3092362880706787
0.12451496720314026 -0.11936100572347641 0.8318303227424622
0.19079159200191498 -0.019785650074481964 0.06365668773651123
0.20344947278499603 -0.044296614825725555 0.0596286840736866
0.05666518211364746 -0.009733673185110092 1.6560267210006714
0.07226122915744781 -0.03508496657013893 1.3677400350570679
0.19986259937286377 -0.07076365500688553 0.3126382529735565
0.08194877952337265 0.006154131144285202 1.6328541040420532
0.060646455734968185 0.03317519649863243 1.6378761529922485
0.06824386864900589 0.0038551166653633118 1.6017944812774658
0.20656326413154602 -0.04939517751336098 0.13632355630397797
0.21349956095218658 -0.10379186272621155 0.06409456580877304
0.20261035859584808 -0.1325928121805191 0.09144449979066849
0.15079310536384583 -0.01636265218257904 0.9720563888549805
0.14992371201515198 -0.016870317980647087 0.8735798597335815
0.08222554624080658 -0.018075421452522278 1.7143696546554565
0.16691043972969055 0.0364459827542305 0.8800598382949829
0.1786816120147705 -8.719787001609802e-05 0.9432569742202759
0.0874505490064621 -0.025220245122909546 1.3103646039962769
0.09680485725402832 -0.04581376165151596 1.2978659868240356
0.06932760775089264 -0.06054088473320007 1.3454114198684692
0.09787991642951965 -0.03595835343003273 1.2566273212432861
0.08790934085845947 -0.038447778671979904 1.2366609573364258
0.09783823788166046 -0.11223313212394714 1.2268177270889282
0.11146356910467148 -0.06951973587274551 1.2589936256408691
0.1324722170829773 -0.05063663423061371 1.1927144527435303
0.14636176824569702 -0.06090695410966873 1.1179369688034058
0.17020872235298157 -0.0757763683795929 1.1322002410888672
0.1567421853542328 -0.08735879510641098 1.1836458444595337
0.12744998931884766 -0.11930971592664719 1.2041593790054321
0.17294356226921082 -0.10104499012231827 1.0816394090652466
0.18601879477500916 -0.1610352247953415 1.1370611190795898
0.1951812505722046 -0.14195643365383148 1.1165708303451538
0.18783415853977203 -0.11716292798519135 1.0892125368118286
0.14109423756599426 -0.19445949792861938 1.1227574348449707
0.1660650372505188 -0.1679932177066803 1.0889434814453125
0.16793642938137054 -0.1503632366657257 1.0741572380065918
0.19739818572998047 -0.23574993014335632 0.9784090518951416
0.1443941444158554 -0.18226735293865204 1.09002685546875
0.14428085088729858 -0.20149075984954834 1.0618513822555542
0.1841355413198471 -0.1864640712738037 1.0067694187164307
0.14919094741344452 -0.19222226738929749 1.0361343622207642
0.14130839705467224 -0.21793244779109955 1.041029691696167
0.1647314876317978 -0.21676719188690186 1.0115505456924438
0.18142032623291016 -0.2233070433139801 1.0073120594024658
0.13612787425518036 -0.23900356888771057 1.0162447690963745
0.15927715599536896 -0.23583078384399414 1.0070321559906006
0.1472572684288025 -0.2352067232131958 1.016066551208496
0.19000761210918427 -0.24119403958320618 0.9591991901397705
0.15283408761024475 -0.2500304877758026 1.0041835308074951
0.17491260170936584 -0.22394266724586487 0.9724553823471069
0.17413878440856934 -0.25593429803848267 0.9727149605751038
0.18960687518119812 -0.25096064805984497 0.9752045273780823
-0.3072730600833893 -0.043554577976465225 1.0834288597106934
-0.29879486560821533 -0.09729225933551788 1.0718291997909546
-0.2858520746231079 -0.08167971670627594 1.0687670707702637
-0.3026672601699829 -0.11336077004671097 1.1079835891723633
-0.25519102811813354 -0.04306731000542641 1.0783202648162842
-0.27821972966194153 -0.11548791080713272 1.0910086631774902
-0.20125047862529755 -0.010136475786566734 1.2220604419708252
-0.2004179060459137 -0.06189824268221855 1.199822187423706
-0.17147547006607056 -0.09639650583267212 0.9612671136856079
-0.17553935945034027 -0.014712769538164139 0.942774772644043
-0.12564203143119812 0.051053233444690704 0.9273115992546082
-0.08674930781126022 0.14084812998771667 1.2512648105621338
-0.0798153430223465 0.13860581815242767 1.1935160160064697
-0.07618173956871033 0.16198348999023438 1.168484091758728
-0.15017488598823547 -0.011098247952759266 0.9624075889587402
-0.19718950986862183 0.03477609157562256 1.693834900856018
-0.15177182853221893 0.003726571798324585 1.3382647037506104
-0.1718538999557495 0.003907479345798492 1.273692011833191
-0.012798294425010681 0.15156477689743042 1.0750670433044434
-0.034154683351516724 0.1555708348751068 0.9969353675842285
-0.29057177901268005 -0.0806550532579422 0.12182965874671936
-0.30949705839157104 -0.13275936245918274 0.07333781570196152
-0.1752011924982071 0.02243415266275406 1.6776655912399292
-0.16008654236793518 0.035390209406614304 1.624312162399292
-0.15731219947338104 -0.12206265330314636 1.2333043813705444
-0.15731792151927948 -0.13761448860168457 1.2082136869430542
-0.1618906408548355 -0.15705201029777527 1.203387975692749
-0.09664350748062134 0.10302997380495071 1.3601932525634766
-0.0886208713054657 0.09530992060899734 1.3565092086791992
-0.13828876614570618 -0.1252828687429428 1.2487914562225342
-0.14637190103530884 -0.05570529028773308 1.1928913593292236
-0.26156312227249146 -0.09775473922491074 0.18606968224048615
-0.26946839690208435 -0.05286337435245514 0.19465182721614838
-0.04018840193748474 0.11797180771827698 1.2459254264831543
-0.15754224359989166 -0.013977646827697754 1.432525634765625
-0.15573792159557343 -0.008332416415214539 1.4122278690338135
-0.1425810605287552 -0.011242195963859558 1.3952488899230957
-0.15706074237823486 -0.006752420216798782 1.3923802375793457
-0.15719671547412872 -0.024048298597335815 1.3823310136795044
-0.14847111701965332 -0.10885022580623627 0.7908757925033569
-0.1608579009771347 -0.07008462399244308 0.7863665819168091
-0.0017949976027011871 0.20678803324699402 1.0865066051483154
-0.00503865722566843 0.20436763763427734 1.135178565979004
-0.12929756939411163 -0.11860735714435577 1.2434453964233398
-0.1268288493156433 -0.10934356600046158 0.8629095554351807
-0.2632518410682678 -0.018014702945947647 0.1179884523153305
-0.2684659957885742 -0.018557488918304443 0.08057326078414917
-0.1381445676088333 -0.18468758463859558 0.8489382863044739
-0.03691798448562622 0.17682310938835144 1.2297117710113525
-0.16023731231689453 -0.08754537999629974 1.5843939781188965
-0.1271100491285324 0.020571991801261902 1.5093910694122314
-0.09052151441574097 0.10100957751274109 1.4840819835662842
-0.09300600737333298 0.0668177530169487 1.5384292602539062
-0.11338557302951813 0.06733400374650955 1.512763500213623
-0.09757903218269348 0.08414285629987717 1.4316357374191284
-0.04636536166071892 0.11984962970018387 1.5283122062683105
-0.12021079659461975 -0.013484381139278412 1.4615092277526855
-0.08377450704574585 0.04364582896232605 0.9708781838417053
-0.13758063316345215 0.02804137021303177 1.7750413417816162
-0.14604607224464417 0.022631309926509857 1.7687265872955322
-0.15230557322502136 0.012228794395923615 1.7553952932357788
-0.016769466921687126 0.06372646987438202 1.4272949695587158
-0.06693103909492493 0.11513248831033707 1.4036328792572021
-0.20760951936244965 -0.08218170702457428 0.043575286865234375
-0.01536622829735279 0.1501762568950653 1.3536157608032227
-0.12679219245910645 -0.08904866874217987 1.4992496967315674
-0.1783028393983841 -0.05837910994887352 0.3961830139160156
-0.058504749089479446 0.0637282133102417 1.4835059642791748
-0.08350316435098648 0.02582920342683792 1.4642255306243896
-0.024070560932159424 0.12493731826543808 1.4520974159240723
-0.03239070251584053 0.050492122769355774 0.8544528484344482
-0.18717364966869354 0.003798392368480563 0.3472447395324707
0.042828746140003204 0.1660355031490326 1.0010621547698975
-0.03073255531489849 0.03462810814380646 1.029387354850769
-0.11136116832494736 -0.15005312860012054 1.242764949798584
-0.10463053733110428 -0.1520489752292633 1.1454782485961914
-0.17581474781036377 -0.02425910346210003 0.3245409429073334
-0.1612066626548767 -0.038751084357500076 0.262217253446579
-0.19164560735225677 0.010451799258589745 0.2576521635055542
-0.06489043682813644 0.04680382087826729 1.4994847774505615
-0.09112443029880524 -0.10182276368141174 0.686597466468811
-0.11686570197343826 -0.027831481769680977 0.6597040295600891
0.046726569533348083 0.2060731053352356 1.1278326511383057
0.05335763841867447 0.19851332902908325 1.0473525524139404
-0.06009432300925255 -0.18563421070575714 1.1705193519592285
-0.18982283771038055 -0.06734923273324966 0.1267859786748886
0.04127608239650726 0.15077900886535645 1.036818027496338
0.030541835352778435 0.12961234152317047 1.0717202425003052
0.0009009651839733124 0.04195443540811539 1.4932835102081299
-0.0933157354593277 -0.08530916273593903 1.3756130933761597
0.03632761165499687 0.15259729325771332 1.3371808528900146
0.027740515768527985 0.0535181388258934 1.4180738925933838
-0.009116452187299728 0.03512296453118324 1.4927972555160522
0.0876072570681572 0.13956905901432037 1.0475594997406006
0.105447918176651 0.12759146094322205 1.0037362575531006
-0.031864412128925323 -0.1023949533700943 1.3715240955352783
0.01342608593404293 0.0324399434030056 1.0277520418167114
-0.03315998613834381 -0.20104387402534485 1.1003741025924683
0.09414345771074295 0.12204590439796448 1.361859679222107
0.008627345785498619 -0.020216114819049835 1.2854145765304565
0.06211039423942566 0.09745477139949799 1.4590479135513306
0.027726851403713226 0.054343849420547485 1.4588165283203125
0.022224269807338715 -0.0384824275970459 1.1991935968399048
0.045660946518182755 0.09236906468868256 0.918694019317627
-0.014432556927204132 -0.024467889219522476 1.7116315364837646
0.12875665724277496 -0.11286251246929169 0.08192361891269684
0.1203278973698616 -0.12370609492063522 0.05604220926761627
0.1227758526802063 -0.05466996505856514 0.09345731139183044
-0.051338519901037216 -0.13432016968727112 1.5878807306289673
0.06878401339054108 -0.062330521643161774 0.7150474190711975
0.08228026330471039 0.038107626140117645 1.4289664030075073
0.01815009117126465 -0.05287598818540573 1.4601681232452393
0.055832356214523315 -0.03931112214922905 1.4107751846313477
0.017320899292826653 -0.010459870100021362 1.3888165950775146
0.11610487103462219 -0.03758581727743149 0.3948005437850952
0.13814082741737366 -0.12495994567871094 0.23879051208496094
0.13415449857711792 -0.038677044212818146 0.19945570826530457
0.1484588235616684 0.12515917420387268 1.0553109645843506
0.14461012184619904 0.1504858136177063 1.0255188941955566
0.10570262372493744 -0.14581963419914246 0.7424770593643188
0.1119503453373909 -0.0521741658449173 0.6593440771102905
-0.017664480954408646 -0.07074596732854843 1.6960570812225342
0.022872142493724823 -0.08323295414447784 1.654366374015808
0.12866981327533722 -0.13019326329231262 0.5519724488258362
0.007337635383009911 -0.018405083566904068 1.7255237102508545
0.030695941299200058 -0.035385310649871826 1.675827980041504
0.05721611529588699 -0.10189441591501236 1.134462594985962
0.06277965009212494 -0.09081806242465973 1.1087281703948975
0.05263146013021469 -0.16153889894485474 1.0909888744354248
0.005426950752735138 -0.11928917467594147 1.587084174156189
0.03138727694749832 -0.05380251631140709 1.4903268814086914
0.02020839974284172 -0.09311267733573914 1.486674189567566
0.18601156771183014 0.10311774909496307 1.019058108329773
0.04893895983695984 -0.0981900617480278 1.284986972808838
0.05744023993611336 -0.15988817811012268 1.2485697269439697
0.060305215418338776 -0.10832361876964569 1.2307624816894531
0.1743806153535843 -0.023522023111581802 0.15249468386173248
0.18938906490802765 -0.10627256333827972 0.17561426758766174
0.20379258692264557 -0.09347446262836456 0.1610931009054184
0.045606404542922974 -0.01589483767747879 1.7004714012145996
0.05677371844649315 -0.10707772523164749 1.2875490188598633
0.1895311325788498 -0.040280334651470184 0.4359263777732849
0.16928724944591522 -0.09500983357429504 0.4891708791255951
0.19764193892478943 -0.05516578257083893 0.37867364287376404
0.06760882586240768 -0.055788107216358185 1.40392005443573
0.054610513150691986 -0.053207483142614365 1.4005670547485352
0.07423087954521179 -0.04521430283784866 1.3605594635009766
0.11780951172113419 0.06229265034198761 0.9265726804733276
0.12894277274608612 -0.11727172136306763 0.8673970103263855
0.20245666801929474 -0.041933994740247726 0.2529204189777374
0.21910101175308228 -0.07245951890945435 0.2606213688850403
0.07700933516025543 -0.02718813344836235 1.3528578281402588
0.1582859456539154 0.05728942155838013 1.2810307741165161
0.17049148678779602 0.08171050250530243 1.259885311126709
0.06335525959730148 -0.23078209161758423 1.148249626159668
0.14671248197555542 -0.06737653911113739 0.9977388381958008
0.14847469329833984 -0.12446270138025284 0.99140465259552
0.09913419187068939 -0.034584835171699524 1.1822829246520996
0.10476065427064896 -0.14888891577720642 1.0842270851135254
0.1255437284708023 -0.11404307931661606 1.063577651977539
0.10772014409303665 -0.17625358700752258 1.1515346765518188
-0.29166606068611145 -0.057601675391197205 1.0586330890655518
-0.3019710183143616 -0.11286971718072891 1.0435134172439575
-0.2370074987411499 -0.09591832756996155 1.134785532951355
-0.24844050407409668 -0.09551385045051575 1.180999517440796
-0.21538551151752472 -0.06523826718330383 1.1441032886505127
-0.21275615692138672 -0.02694699540734291 1.162284255027771
-0.18939432501792908 -0.15078292787075043 0.8760711550712585
-0.0625421553850174 0.16499759256839752 1.0351994037628174
-0.07532866299152374 0.1548396795988083 1.1315698623657227
-0.1716737151145935 -0.22066029906272888 1.1143203973770142
-0.138789564371109 -0.1586267650127411 0.9528845548629761
-0.27440816164016724 -0.04105454683303833 0.2825368344783783
-0.25259634852409363 -0.09028269350528717 0.29706260561943054
-0.20024473965168 0.013058560900390148 0.500939130783081
-0.1490035504102707 -0.19079186022281647 0.854625403881073
-0.17855098843574524 -0.046607162803411484 0.6429983377456665
-0.16784222424030304 -0.090471550822258 0.6949623823165894
-0.1495257318019867 -0.03423423320055008 0.7022143602371216
-0.10238009691238403 -0.02094234898686409 1.0899548530578613
-0.11585139483213425 -0.07732456922531128 1.112149953842163
0.004278644919395447 0.1942829191684723 1.2022759914398193
-0.11225126683712006 -0.01942439191043377 0.8585525751113892
-0.20882095396518707 -0.10220082104206085 0.3090633153915405
-0.11745008826255798 -0.02540263533592224 1.1918301582336426
-0.09491614252328873 -0.0411149226129055 1.1220760345458984
-0.19206227362155914 -0.07990771532058716 0.448993057012558
-0.14134098589420319 0.00767337903380394 1.6945525407791138
-0.14885950088500977 -0.02625727653503418 1.6805340051651
-0.11402057111263275 -0.06304427236318588 1.688906192779541
-0.13353531062602997 -0.09658220410346985 1.6475472450256348
-0.14686353504657745 -0.0895925834774971 1.550036907196045
-0.18597635626792908 -0.0599617175757885 0.3413471579551697
-0.08336008340120316 -0.11540990322828293 0.7359640002250671
-0.16459792852401733 -0.06884229183197021 0.26997023820877075
-0.18290410935878754 -0.09764248877763748 0.2761928141117096
-0.20009644329547882 -0.017421182245016098 0.20521190762519836
-0.04519669711589813 0.06386762857437134 0.9603154063224792
-0.09740092605352402 0.015507958829402924 1.7384042739868164
-0.11518654227256775 0.005981523543596268 1.7253204584121704
0.0685591772198677 0.11538757383823395 1.1883809566497803
-0.009548844769597054 0.13513031601905823 1.1828010082244873
0.043109532445669174 0.10746482759714127 1.2394826412200928
-0.009026885032653809 -0.03794211894273758 1.2353863716125488
0.06634410470724106 0.17830094695091248 1.235776662826538
0.07286396622657776 0.12797267735004425 1.077261209487915
0.12728825211524963 0.18181580305099487 1.1634955406188965
0.012955166399478912 0.09790277481079102 1.6358745098114014
0.10184304416179657 0.1114492118358612 1.0876736640930176
0.03862521052360535 -0.21783535182476044 0.9041879177093506
0.10380110889673233 -0.08729958534240723 0.25710269808769226
0.134455144405365 -0.09921183437108994 0.19713695347309113
0.06724409759044647 -0.12969665229320526 0.69777512550354
0.03181109577417374 0.003359910100698471 1.0646882057189941
0.09370855987071991 -0.048383355140686035 0.5683269500732422
0.09750066697597504 0.07529255002737045 1.3040121793746948
0.03760344162583351 -0.0645013228058815 1.3948918581008911
0.042871009558439255 0.08124056458473206 1.6005066633224487
0.030269818380475044 0.01725655049085617 1.5654737949371338
0.035858213901519775 0.033043958246707916 1.54417085647583
0.0012383237481117249 -0.012911539524793625 1.7714546918869019
0.036917537450790405 -0.08691414445638657 1.3330509662628174
0.15854451060295105 -0.01844586431980133 0.5009709596633911
0.12613265216350555 -0.0058577656745910645 0.49649205803871155
0.15440413355827332 -0.013991037383675575 0.34617894887924194
0.17689652740955353 -0.018235180526971817 0.3174591064453125
0.05506236478686333 -0.05180058628320694 1.4813668727874756
0.042420778423547745 -0.060383304953575134 1.4906402826309204
0.05535184592008591 -0.05532674863934517 1.4750772714614868
0.13067194819450378 -0.05214429646730423 0.7670157551765442
0.15080146491527557 -0.09530100226402283 0.6372504234313965
0.11695617437362671 0.022325921803712845 0.9672293066978455
0.09379997104406357 -0.08147867023944855 1.0887846946716309
0.08591426908969879 -0.13491985201835632 1.0770471096038818
0.0966501384973526 -0.15862195193767548 1.0270249843597412
0.05771869421005249 -0.018198184669017792 1.601271152496338
0.06963058561086655 -0.02288157306611538 1.5212767124176025
0.05235949531197548 -0.15276017785072327 1.229824423789978
0.09375826269388199 0.04526354372501373 1.5117242336273193
0.07920283079147339 0.01773485168814659 1.5504131317138672
0.20473389327526093 -0.023369193077087402 0.08788351714611053
0.2183513343334198 -0.06801868975162506 0.074996218085289
0.10219448804855347 0.02386382594704628 1.4781697988510132
0.11072559654712677 0.03602743148803711 1.448255181312561
0.12099792063236237 0.024682320654392242 1.4163544178009033
0.12408320605754852 0.03642118722200394 1.4025754928588867
0.06082531437277794 -0.23219895362854004 1.1669222116470337
0.17494428157806396 -0.1585642695426941 0.8815749883651733
0.0736120268702507 -0.20889507234096527 1.1783897876739502
0.07018895447254181 -0.23460447788238525 1.1676883697509766
0.20202986896038055 -0.11401724815368652 0.90155428647995
0.20444516837596893 -0.09108869731426239 0.882209837436676
0.21336224675178528 -0.056190647184848785 0.8925026655197144
-0.22068080306053162 -0.08824743330478668 1.187307596206665
-0.18119870126247406 -0.08834080398082733 1.2507753372192383
-0.1892465054988861 -0.08843625336885452 1.235298752784729
-0.18097661435604095 -0.08035162091255188 1.2406396865844727
-0.17548975348472595 -0.08014313876628876 1.2576619386672974
-0.1946953535079956 0.0022132443264126778 0.8839593529701233
-0.15011903643608093 -0.048050060868263245 1.2752007246017456
-0.14591772854328156 -0.06424929201602936 1.0627906322479248
-0.13066595792770386 0.09588924050331116 1.5177537202835083
-0.14861035346984863 -0.08256421983242035 1.1836048364639282
-0.1478811800479889 -0.07727687060832977 1.1297835111618042
-0.09844981878995895 0.09698601812124252 1.4156612157821655
-0.08189679682254791 0.09006866067647934 1.3795263767242432
-0.13522329926490784 -0.1397038847208023 1.0261332988739014
-0.10112342983484268 -0.16498318314552307 0.9879487752914429
-0.13721460103988647 -0.02745516039431095 0.7873900532722473
-0.006092865020036697 0.17261193692684174 1.2672979831695557
-0.07403664290904999 0.11727599799633026 1.6108813285827637
-0.19557078182697296 -0.03410836309194565 0.07109075784683228
-0.20935772359371185 -0.018807485699653625 0.06231854856014252
-0.08097565919160843 0.024717139080166817 0.8642896413803101
0.001533661037683487 0.09386967867612839 0.851131796836853
-0.06650673598051071 -0.02165156602859497 0.8432372808456421
0.030755743384361267 0.07811976969242096 1.3267478942871094
-0.05277662351727486 -0.08033594489097595 0.7617123126983643
-0.08430944383144379 -0.12154249846935272 1.5633221864700317
-0.006992241367697716 0.014153534546494484 0.8699570894241333
-0.005924608558416367 -0.027388164773583412 0.84881591796875
0.016823654994368553 -0.1193767860531807 0.8538933992385864
-0.07813140749931335 -0.16259804368019104 0.8540724515914917
-0.008641378954052925 -0.22366172075271606 0.8466104865074158
0.03622845560312271 -0.1113651841878891 0.8334558010101318
-0.00967326108366251 -0.15980522334575653 0.8580151796340942
-0.01859423518180847 0.018859099596738815 1.4616665840148926
0.028696982190012932 -0.03806092217564583 0.8461225628852844
0.033500924706459045 -0.050710178911685944 0.8292273283004761
-0.005495574325323105 0.025076210498809814 1.5394227504730225
-0.000617682933807373 0.03197804093360901 1.515433669090271
0.044863488525152206 -0.1250244826078415 0.8493921756744385
0.13073885440826416 0.055942878127098083 0.8613478541374207
0.10483794659376144 -0.05887801572680473 0.2556723356246948
0.054484773427248 -0.03585309162735939 0.8189847469329834
0.1028808131814003 0.10659460723400116 1.2171050310134888
0.13339874148368835 -0.08720727264881134 0.3813508152961731
0.13053296506404877 -0.06993021816015244 0.32011908292770386
0.14673742651939392 -0.09152541309595108 0.33655983209609985
0.14458678662776947 -0.13013750314712524 0.280084490776062
0.08165901899337769 0.06054440513253212 1.4810950756072998
0.08151255548000336 -0.01750386878848076 0.8533029556274414
0.10840998589992523 -0.03636661544442177 0.8339203596115112
0.06141706928610802 -0.08118091523647308 1.2340381145477295
0.16441133618354797 -0.10142247378826141 0.43028342723846436
0.06458170711994171 0.03572947904467583 1.5855686664581299
0.04789864644408226 -0.037632182240486145 1.280904769897461
0.1774904876947403 -0.09074294567108154 0.33740684390068054
0.13195595145225525 0.16184505820274353 1.21922767162323
0.07071167975664139 -0.0647505596280098 1.2074370384216309
0.16360928118228912 -0.02863769419491291 0.21059541404247284
0.1760464310646057 0.14770416915416718 1.141589641571045
0.16146068274974823 -0.018165281042456627 0.2468222826719284
0.18861865997314453 -0.1306862086057663 0.2566681206226349
0.13266795873641968 0.05350949615240097 1.3262492418289185
0.06373301148414612 -0.03811609372496605 1.4382455348968506
0.07099008560180664 -0.03785065934062004 1.4070603847503662
0.061842482537031174 -0.035987574607133865 1.438889980316162
0.08569619059562683 -0.036652348935604095 1.3869733810424805
0.06850104033946991 -0.17523784935474396 1.2171351909637451
0.05426117777824402 -0.18551577627658844 1.2113651037216187
0.1634751856327057 0.07058337330818176 1.2397222518920898
0.19318115711212158 0.0999290719628334 1.1837965250015259
0.1883968710899353 0.09531214833259583 1.1507039070129395
0.07479166984558105 -0.05243159458041191 1.2378313541412354
