-0.06848560273647308 0.24075113236904144 1.187820315361023
-0.11350628733634949 -0.018592605367302895 0.8417757749557495
-0.1243257150053978 -0.21755920350551605 0.3005220293998718
-0.10619699954986572 -0.027965962886810303 1.2187175750732422
-0.08769780397415161 -0.03971486911177635 1.1426937580108643
-0.12004553526639938 -0.17891135811805725 0.43777236342430115
-0.1314513385295868 -0.025015773251652718 1.7506163120269775
-0.13487310707569122 -0.06120498478412628 1.7444370985031128
-0.08986684679985046 -0.09983702003955841 1.7547502517700195
-0.10290059447288513 -0.14183562994003296 1.711890697479248
-0.11621779203414917 -0.13061444461345673 1.6108081340789795
-0.10126902908086777 -0.16833005845546722 0.33374840021133423
-0.054987430572509766 -0.14323897659778595 0.7469545602798462
-0.07627084851264954 -0.1855221688747406 0.26784127950668335
-0.09315568208694458 -0.2122734636068344 0.2724156677722931
-0.10838696360588074 -0.13279445469379425 0.20324543118476868
-0.056483782827854156 0.06550157070159912 0.9661746621131897
-0.08440837264060974 -0.010998811572790146 1.7999368906021118
-0.09589210897684097 -0.026933275163173676 1.7865644693374634
0.029559871181845665 0.17260703444480896 1.16594398021698
-0.0708899050951004 0.17043934762477875 1.1744085550308228
0.009790265001356602 0.1475006639957428 1.2302138805389404
0.015427504666149616 -0.03896941989660263 1.261965036392212
0.012682594358921051 0.23850682377815247 1.221524953842163
0.01750091463327408 0.20088213682174683 1.0451488494873047
0.08032657206058502 0.262618750333786 1.1320996284484863
0.024416988715529442 0.1016617864370346 1.674283742904663
0.056300241500139236 0.1951477825641632 1.0512566566467285
0.048551045358181 -0.21819241344928741 0.905209481716156
0.06856899708509445 0.015429232269525528 0.2719997763633728
0.08835519850254059 0.024055756628513336 0.21959732472896576
0.04999414458870888 -0.11528909206390381 0.6859717965126038
0.04026205092668533 0.018987348303198814 1.068542242050171
0.06960052996873856 -0.023508071899414062 0.5649614334106445
0.08773969113826752 0.1257539689540863 1.306410551071167
0.0802263617515564 -0.10776542127132416 1.4157642126083374
0.05818314477801323 0.08920430392026901 1.6369386911392212
0.05709211900830269 0.014565221965312958 1.6088438034057617
0.06135500967502594 0.03382456302642822 1.5788764953613281
0.03381873667240143 -0.024362608790397644 1.8324600458145142
0.08363880217075348 -0.12043039500713348 1.3436850309371948
0.1313437521457672 0.017215237021446228 0.5064477324485779
0.09744513034820557 0.029008865356445312 0.5062921643257141
0.1230463758111 0.05947031453251839 0.36725813150405884
0.14476194977760315 0.06344148516654968 0.34080344438552856
0.09570187330245972 -0.058530692011117935 1.5281825065612793
0.08050785213708878 -0.06964576989412308 1.5376094579696655
0.09999077022075653 -0.0694480910897255 1.518439769744873
0.12169802933931351 -0.04741951450705528 0.7543421387672424
0.12995953857898712 -0.07727424800395966 0.6206028461456299
0.12598958611488342 0.029585354030132294 0.9565650224685669
0.12005878984928131 -0.06564956158399582 1.0874950885772705
0.11594608426094055 -0.12102258950471878 1.0805444717407227
0.12260322272777557 -0.1469721645116806 1.024557113647461
0.09855920076370239 -0.018189605325460434 1.649261474609375
0.10920844972133636 -0.024203253909945488 1.561862587928772
0.10152900218963623 -0.1674811840057373 1.2331295013427734
0.12329460680484772 0.05597751587629318 1.548279047012329
0.11569978296756744 0.02598029375076294 1.5891801118850708
0.17610330879688263 0.09945162385702133 0.1087336391210556
0.18660390377044678 0.06175582855939865 0.10397438704967499
0.13364717364311218 0.04031660780310631 1.512930154800415
0.13993777334690094 0.05795468017458916 1.4793510437011719
0.1450222134590149 0.054744649678468704 1.437161922454834
0.14666780829429626 0.07492838054895401 1.4214766025543213
0.10911404341459274 -0.24852532148361206 1.1549253463745117
0.172336608171463 -0.1528509557247162 0.8541219830513
0.13160620629787445 -0.22244590520858765 1.1708920001983643
0.12885503470897675 -0.24606728553771973 1.151655912399292
0.20309071242809296 -0.10985055565834045 0.8705809116363525
0.20300114154815674 -0.08814763277769089 0.8526381850242615
0.2118072807788849 -0.053118690848350525 0.8614211082458496
-0.20204082131385803 -0.11642678081989288 1.1731805801391602
-0.15481193363666534 -0.1275162696838379 1.2607824802398682
-0.1593133807182312 -0.12156110256910324 1.2408941984176636
-0.15093551576137543 -0.11806154251098633 1.2509198188781738
-0.14953255653381348 -0.11382387578487396 1.2682993412017822
-0.2042650431394577 -0.0003278292715549469 0.8539233803749084
-0.12588122487068176 -0.07696738094091415 1.2979485988616943
-0.14141492545604706 -0.06527731567621231 1.0826389789581299
-0.13777467608451843 0.07288257032632828 1.5607242584228516
-0.1298292577266693 -0.09746192395687103 1.2028833627700806
-0.13066360354423523 -0.08551746606826782 1.1538176536560059
-0.11485008895397186 0.08509476482868195 1.4544944763183594
-0.11049919575452805 0.09084502607584 1.4100130796432495
-0.12469273060560226 -0.14292410016059875 1.0509717464447021
-0.09110509604215622 -0.1700838804244995 1.0087404251098633
-0.12260162830352783 -0.04551180824637413 0.7640193104743958
-0.0674913078546524 0.20789746940135956 1.2656298875808716
-0.08190211653709412 0.10855008661746979 1.6522340774536133
-0.10057219862937927 -0.1266980767250061 0.05272562801837921
-0.11258946359157562 -0.117580346763134 0.040353693068027496
-0.08858264237642288 0.025427035987377167 0.8593273758888245
-0.009097754955291748 0.09814119338989258 0.8503926992416382
-0.06298141926527023 -0.01890183798968792 0.8381186723709106
0.011636174283921719 0.10714539140462875 1.3339886665344238
-0.02952508069574833 -0.09466040134429932 0.7673435211181641
-0.0437353253364563 -0.154525488615036 1.6298130750656128
-0.014649908989667892 0.01815667375922203 0.8708294630050659
-0.007536948658525944 -0.023038510233163834 0.8493141531944275
0.010159818455576897 -0.11645260453224182 0.8520415425300598
-0.07923714816570282 -0.16859672963619232 0.8577311635017395
-0.0024343542754650116 -0.22701378166675568 0.8499172925949097
0.023529650643467903 -0.1072353720664978 0.825151801109314
-0.005542755592614412 -0.16291919350624084 0.8618966341018677
0.007184343412518501 0.004451155662536621 1.5020512342453003
0.02127886936068535 -0.034284550696611404 0.8428871035575867
0.021097835153341293 -0.04825066775083542 0.8231305480003357
0.015728261321783066 0.018229752779006958 1.5805513858795166
0.021554017439484596 0.01992025226354599 1.5529266595840454
0.0331110954284668 -0.12131539732217789 0.8412457704544067
0.12427808344364166 0.06214424595236778 0.8473608493804932
0.07210798561573029 0.0441993847489357 0.277420312166214
0.044819895178079605 -0.03464227169752121 0.8092054128646851
0.07452496141195297 0.16951657831668854 1.2019932270050049
0.10661172866821289 -0.018409810960292816 0.38724207878112793
0.09778770804405212 0.019359402358531952 0.3315444588661194
0.1153712347149849 -0.0063492171466350555 0.34039342403411865
0.11105906218290329 -0.03065541386604309 0.2836366593837738
0.10334447026252747 0.06744194030761719 1.5185714960098267
0.07248350232839584 -0.014903559349477291 0.8434752225875854
0.10059979557991028 -0.035737015306949615 0.8224766254425049
0.0993177592754364 -0.07781792432069778 1.2524160146713257
0.13367041945457458 -0.040319934487342834 0.4293101131916046
0.09464196860790253 0.036800045520067215 1.6243469715118408
0.08613104373216629 -0.04066640883684158 1.311073899269104
0.14337129890918732 -0.007133468985557556 0.34373217821121216
0.09869444370269775 0.23227185010910034 1.1934607028961182
0.10215973109006882 -0.04941561818122864 1.229032278060913
0.15051759779453278 0.07905681431293488 0.2373473346233368
0.14174923300743103 0.24318893253803253 1.1093566417694092
0.13819457590579987 0.08430388569831848 0.27654120326042175
0.15207920968532562 -0.02867155894637108 0.25458085536956787
0.13920550048351288 0.11245846748352051 1.320307970046997
0.11491885781288147 -0.07121757417917252 1.477230429649353
0.12513479590415955 -0.06390410661697388 1.4392879009246826
0.11435739696025848 -0.0732174888253212 1.471954584121704
0.14350026845932007 -0.04438025876879692 1.4196054935455322
0.12179466336965561 -0.19338440895080566 1.217085838317871
0.10813247412443161 -0.2038881778717041 1.2093323469161987
0.15893249213695526 0.14952021837234497 1.2234115600585938
0.17253242433071136 0.1908622533082962 1.1553268432617188
0.17030376195907593 0.18431684374809265 1.1209750175476074
0.1398574858903885 -0.05223023518919945 1.256495714187622
0.1323338747024536 -0.0944322943687439 1.2606409788131714
0.15864874422550201 -0.17697100341320038 0.8656980395317078
0.14006005227565765 -0.11203604936599731 1.2640235424041748
0.1612895280122757 -0.11614256352186203 1.153751015663147
0.16069653630256653 -0.03240993618965149 1.155869722366333
0.16143278777599335 -0.08589214086532593 1.1310906410217285
0.24211153388023376 -0.12303198873996735 1.1608574390411377
0.25244081020355225 -0.05520695820450783 1.0442765951156616
0.2516259551048279 -0.12394868582487106 1.0765495300292969
-0.13043014705181122 -0.24055275321006775 1.146723985671997
-0.13657629489898682 -0.17258024215698242 1.2041337490081787
-0.1430559754371643 -0.16186100244522095 1.2224284410476685
-0.12002218514680862 -0.22316543757915497 1.1495201587677002
-0.13262546062469482 0.0849912092089653 1.4841655492782593
-0.13951371610164642 0.07815121114253998 1.4660568237304688
-0.14474661648273468 0.09781373292207718 1.4222040176391602
-0.15388035774230957 -0.026923026889562607 1.7138460874557495
-0.15431910753250122 -0.06738913804292679 1.6282079219818115
-0.15865783393383026 -0.16967487335205078 0.32679322361946106
-0.13015474379062653 -0.06837455183267593 0.8439648151397705
-0.12892334163188934 -0.09477412700653076 0.8278993964195251
-0.1334056258201599 0.22648043930530548 0.9762217402458191
-0.08987584710121155 -0.14133474230766296 1.2565126419067383
-0.11466819047927856 -0.03347102552652359 0.8129249811172485
-0.10559088736772537 -0.03960004448890686 1.7670732736587524
-0.08847202360630035 -0.12471805512905121 1.137375831604004
-0.05263605713844299 -0.18695801496505737 1.1330204010009766
-0.07041037082672119 0.19623923301696777 1.0941962003707886
0.009619364514946938 0.19565239548683167 1.0899295806884766
-0.06464813649654388 -0.021416615694761276 1.160505771636963
-0.05139460042119026 -0.1132514625787735 0.8464217185974121
-0.045940279960632324 -0.18899761140346527 1.0686790943145752
-0.05245351418852806 0.019374005496501923 1.059593915939331
-0.04008162394165993 -0.14397551119327545 1.7269760370254517
0.01966148428618908 -0.09671660512685776 0.7594374418258667
-0.04875712841749191 0.11990183591842651 1.3057162761688232
0.0826537236571312 0.06752835214138031 0.07428605109453201
0.12533153593540192 0.264958918094635 1.038132667541504
0.08749686181545258 0.19577832520008087 1.1122685670852661
0.05932396650314331 0.28059202432632446 1.0502928495407104
0.09332802891731262 0.09174501150846481 0.8564178347587585
0.15054555237293243 0.13178688287734985 0.107846200466156
0.11489953100681305 -0.03749484568834305 0.8442638516426086
0.13833390176296234 -0.022443009540438652 0.388685405254364
0.11786709725856781 -0.10022895783185959 1.393211841583252
0.11682340502738953 -0.1087397113442421 1.3078007698059082
0.19565299153327942 0.0015313904732465744 0.8570604920387268
0.20332996547222137 -0.0487942099571228 0.9196537733078003
0.25641852617263794 -0.09483195096254349 1.0494201183319092
-0.24961651861667633 -0.12676267325878143 1.1153677701950073
-0.20467956364154816 -0.08715181052684784 0.9210850596427917
-0.2194555699825287 -0.07553212344646454 0.8631870746612549
-0.1465785950422287 0.07859301567077637 1.4185727834701538
-0.14940597116947174 0.1292341947555542 1.2605640888214111
-0.13791298866271973 -0.015123236924409866 1.544203281402588
-0.13670653104782104 -0.05938650295138359 1.0486019849777222
-0.13837982714176178 -0.08699136972427368 1.0911129713058472
-0.1373281329870224 -0.010270342230796814 1.5451421737670898
-0.13607269525527954 -0.024526439607143402 1.529897928237915
-0.13548116385936737 -0.01974922977387905 1.5379904508590698
-0.13626708090305328 -0.01814250275492668 1.543118953704834
-0.14096806943416595 -0.032889474183321 1.53142511844635
-0.14186006784439087 -0.22765479981899261 0.1729719340801239
-0.1483856439590454 -0.10531596839427948 1.683290958404541
-0.032454341650009155 -0.019780483096837997 1.2162898778915405
-0.09512579441070557 -0.2463645040988922 0.06415500491857529
-0.04521535336971283 -0.03342990577220917 1.257027506828308
-0.004513968247920275 -0.02254365012049675 1.1708070039749146
-0.0448903888463974 0.09466086328029633 0.9273922443389893
-0.03908565640449524 -0.04557902365922928 1.7841651439666748
-0.03809613361954689 -0.10686859488487244 0.7038159370422363
-0.022018026560544968 0.1299968957901001 1.2650392055511475
0.012451611459255219 -0.19203653931617737 1.0171594619750977
-0.023871740326285362 -0.19683286547660828 1.2271723747253418
0.02038494497537613 0.17643123865127563 1.1352181434631348
0.09132799506187439 0.06051655113697052 0.21806995570659637
0.07393830269575119 -0.17569482326507568 0.9939049482345581
0.1215219497680664 -0.16944900155067444 0.9683457016944885
0.07764764875173569 0.039138734340667725 1.547471046447754
0.07531517744064331 -0.1643752157688141 1.1759898662567139
0.04155168682336807 -0.02884470857679844 1.1669702529907227
0.09650671482086182 -0.019151370972394943 1.0811362266540527
0.08118381351232529 0.062196675688028336 0.9536188244819641
0.14571474492549896 0.048202961683273315 0.06012360006570816
0.11994145810604095 0.05665232241153717 0.05686865374445915
0.17775972187519073 0.062012284994125366 0.06526757776737213
0.1738608181476593 -0.0069693028926849365 0.24191761016845703
0.11130765080451965 -0.07135695964097977 1.4723105430603027
0.11155207455158234 -0.0692083016037941 1.4702343940734863
0.10142660140991211 -0.07752451300621033 1.3265933990478516
0.11651945114135742 -0.0993647500872612 1.2999870777130127
0.18509748578071594 0.21408425271511078 1.0476775169372559
0.18174605071544647 0.19902107119560242 0.9966251254081726
0.19272072613239288 0.20672963559627533 0.9938136339187622
0.26626667380332947 -0.044723596423864365 1.0442025661468506
0.27081233263015747 -0.10781414806842804 1.0216188430786133
0.28655052185058594 -0.12812833487987518 1.009949803352356
-0.22792547941207886 -0.060177553445100784 1.0442923307418823
-0.14409537613391876 -0.2032201886177063 1.186590313911438
-0.13144329190254211 -0.17190095782279968 0.35566776990890503
-0.09163656085729599 0.21723151206970215 0.9497709274291992
-0.09827402234077454 -0.14346051216125488 1.0877047777175903
-0.03347698971629143 -0.04085688665509224 0.8404113054275513
-0.05261414498090744 -0.03407508134841919 0.8030984401702881
-0.04420274868607521 -0.08618538081645966 0.8115933537483215
-0.002859771251678467 0.018064508214592934 1.1048325300216675
0.027119584381580353 -0.2084484100341797 0.8373010754585266
0.0916827842593193 0.017787709832191467 0.8604570627212524
0.10677417367696762 0.19908446073532104 1.0727958679199219
0.1032186895608902 0.0011158213019371033 1.5644229650497437
0.1137329488992691 0.02706039696931839 1.5395581722259521
0.19119133055210114 -0.11660376936197281 0.919338583946228
-0.14593631029129028 -0.2121676802635193 1.1527949571609497
-0.14263007044792175 0.039969317615032196 1.576874017715454
-0.06556778401136398 0.22506210207939148 0.9993461966514587
-0.12403099983930588 0.07050847262144089 1.6078954935073853
-0.09458062052726746 0.030604172497987747 1.597707748413086
-0.05803374946117401 0.022539474070072174 1.5749502182006836
0.041886258870363235 -0.19180527329444885 1.0711427927017212
0.06443861126899719 -0.15473365783691406 1.2630500793457031
0.11369123309850693 0.011071190237998962 0.17628054320812225
0.10344377160072327 -0.12921221554279327 1.2222379446029663
0.11063559353351593 -0.11136718839406967 1.1702876091003418
0.12814480066299438 0.0762643963098526 1.4405014514923096
0.11071545630693436 0.10538405179977417 1.444778323173523
0.1134098619222641 -0.06326790153980255 1.1809895038604736
0.11777453869581223 -0.07457563281059265 0.8293627500534058
0.08928471058607101 -0.18521511554718018 1.2337373495101929
0.14152473211288452 0.1261075735092163 1.345165491104126
-0.1299402117729187 0.1166311725974083 1.352006435394287
-0.1250481754541397 -0.09569665044546127 0.3568277060985565
0.03624420240521431 -0.09215110540390015 0.7176194190979004
0.02065034583210945 -0.14248037338256836 1.7061786651611328
-0.14932683110237122 0.2118348479270935 1.0529201030731201
-0.1426648646593094 -0.11766064167022705 1.2726895809173584
-0.0871277004480362 -0.13056987524032593 0.39967045187950134
0.013356040231883526 0.13552092015743256 1.4795202016830444
0.0986207127571106 0.047319576144218445 0.06071029603481293
0.0981576144695282 -0.06581738591194153 1.5239388942718506
0.1000518649816513 -0.06835316866636276 1.5196155309677124
0.10798196494579315 -0.06816837936639786 1.426108956336975
0.16605226695537567 0.013187065720558167 0.21761870384216309
0.1710316687822342 0.048345282673835754 0.2146255522966385
0.16455629467964172 -0.12700462341308594 1.2013494968414307
-0.18030360341072083 -0.16036060452461243 0.9288471341133118
-0.1395610272884369 0.09797323495149612 1.385859489440918
-0.1370314657688141 0.09634649753570557 1.3866324424743652
-0.14343997836112976 0.09336443245410919 1.3866902589797974
-0.08748821914196014 -0.17045408487319946 0.2019447237253189
-0.033099282532930374 -0.09540382027626038 0.8436570167541504
0.08942167460918427 0.03973705321550369 0.17357231676578522
0.20222105085849762 -0.140000581741333 1.1530654430389404
0.08163731545209885 -0.08998527377843857 1.6623847484588623
0.1355939656496048 -0.09588789194822311 0.7781497240066528
0.1431713104248047 0.07700847089290619 1.3993788957595825
0.1463904082775116 0.10295766592025757 1.3598378896713257
0.08790380507707596 0.11118783801794052 0.08839502185583115
0.20774537324905396 -0.49667173624038696 0.9781591892242432
0.20489159226417542 -0.45618122816085815 0.965360701084137
0.20352058112621307 -0.47189414501190186 0.9665865302085876
0.19735173881053925 -0.4747159481048584 0.9723319411277771
0.2005961835384369 -0.4960137605667114 0.9721643924713135
0.20916002988815308 -0.48448646068573 0.9869276881217957
0.23673444986343384 -0.3319476246833801 0.9890718460083008
0.21864444017410278 -0.33534109592437744 0.9788917899131775
0.2285529524087906 -0.35528281331062317 0.9848437309265137
0.2264365404844284 -0.3649888038635254 0.9848423600196838
0.24600185453891754 -0.15621311962604523 0.9468410015106201
0.24173493683338165 -0.1775110960006714 0.9609704613685608
0.23550289869308472 -0.16734695434570312 0.9344553351402283
0.21858340501785278 -0.3465230464935303 0.9448868632316589
0.21887829899787903 -0.36113008856773376 0.9533251523971558
0.22831186652183533 -0.39604806900024414 1.0041403770446777
0.2283090054988861 -0.3787612020969391 0.9901614189147949
0.22647041082382202 -0.2062528282403946 0.9111060500144958
0.23449131846427917 -0.21436291933059692 0.936854362487793
0.25327610969543457 -0.2632637619972229 0.9912369251251221
0.2435675859451294 -0.2521558403968811 0.9880341291427612
0.22293616831302643 -0.46899837255477905 0.9970515370368958
0.20980513095855713 -0.4479818344116211 0.9547856450080872
0.2454727292060852 -0.1674766093492508 0.9280202984809875
0.23940056562423706 -0.1717262864112854 0.9257276654243469
0.3061579763889313 0.022828981280326843 1.037067174911499
0.29671046137809753 0.00947985053062439 1.0326049327850342
0.29613301157951355 0.02500580996274948 1.0170948505401611
0.22723107039928436 -0.41924384236335754 0.9913051128387451
0.22359180450439453 -0.4444725215435028 0.9957376718521118
0.24242785573005676 -0.17048858106136322 0.9201104640960693
0.24217019975185394 -0.16492071747779846 0.9090725183486938
0.19603657722473145 -0.5073927640914917 0.9305131435394287
0.19088730216026306 -0.5255590677261353 0.9343082904815674
0.3050570487976074 0.03160479664802551 1.032477617263794
0.3045947551727295 0.017754003405570984 1.0415267944335938
0.30007222294807434 0.03352376073598862 1.0280876159667969
0.30270305275917053 0.024473629891872406 1.0157479047775269
0.20151428878307343 -0.5616459250450134 0.9778032302856445
0.2068239003419876 -0.5839830040931702 0.9841031432151794
0.19321252405643463 -0.5845814943313599 0.9674222469329834
0.23175841569900513 -0.2818058133125305 0.9283633232116699
0.23156599700450897 -0.30317091941833496 0.9237527847290039
0.2210179716348648 -0.32014501094818115 0.9227923154830933
0.2217538207769394 -0.3217630386352539 0.9109228253364563
0.30923357605934143 0.017140261828899384 1.0475503206253052
0.3036434054374695 0.038331471383571625 1.0261790752410889
0.23782643675804138 -0.4188529849052429 1.0061761140823364
0.24262851476669312 -0.41981297731399536 1.0036901235580444
0.23280897736549377 -0.4341849684715271 1.0033037662506104
0.24009616672992706 -0.4531368017196655 1.005289912223816
0.23786556720733643 -0.2382616251707077 0.9218718409538269
0.23362088203430176 -0.25337761640548706 0.916737973690033
0.23293066024780273 -0.25964587926864624 0.9180529117584229
0.30748823285102844 0.034425489604473114 1.030220627784729
0.314052551984787 0.01254967600107193 1.0442036390304565
0.3025953769683838 0.023100361227989197 1.0161384344100952
0.2415783554315567 -0.13225245475769043 0.8851462006568909
0.23982253670692444 -0.1410282552242279 0.8765482902526855
0.23947852849960327 -0.15822598338127136 0.8982318043708801
0.2427053302526474 -0.1468217670917511 0.889136016368866
0.2370253950357437 -0.14066612720489502 0.8891919851303101
0.2172621488571167 -0.34264206886291504 0.9057905077934265
0.22212371230125427 -0.3235231041908264 0.9060266017913818
0.2172776311635971 -0.3292123079299927 0.8942955732345581
0.21829767525196075 -0.3391497731208801 0.8892695307731628
0.3110349476337433 0.014667518436908722 1.0220987796783447
0.2083497792482376 -0.5946686267852783 0.990609347820282
0.20794568955898285 -0.5898405313491821 0.970706582069397
0.21003484725952148 -0.5979830026626587 0.9843562245368958
0.20834530889987946 -0.6053929924964905 0.9853143095970154
0.20332986116409302 -0.5821784138679504 0.9624210000038147
0.2688874304294586 -0.15942570567131042 0.9361261129379272
0.2537889778614044 -0.16869452595710754 0.920875072479248
0.20430372655391693 -0.4861244857311249 0.9206348061561584
0.20534034073352814 -0.5140625238418579 0.9244506359100342
0.20363815128803253 -0.5390782356262207 0.936108410358429
0.2681134045124054 -0.24902291595935822 0.9916656017303467
0.25975513458251953 -0.26806432008743286 0.9881027936935425
0.2663573622703552 -0.2790490388870239 0.982819139957428
0.25229859352111816 -0.41127464175224304 1.0081498622894287
0.24224339425563812 -0.41971033811569214 1.0000824928283691
0.23401999473571777 -0.47344982624053955 1.0010592937469482
0.2452738732099533 -0.3812311589717865 0.999030351638794
0.21907711029052734 -0.4653506577014923 0.9430866241455078
0.21250703930854797 -0.501295804977417 0.9379485845565796
0.27082982659339905 -0.2494121789932251 0.9846246242523193
0.25200939178466797 -0.38965311646461487 0.9799113869667053
0.250752329826355 -0.3738957643508911 0.9712189435958862
0.2484661489725113 -0.40763309597969055 0.9798470139503479
0.21631357073783875 -0.5524681806564331 0.9656934142112732
0.21893028914928436 -0.5422600507736206 0.9563684463500977
0.2285231649875641 -0.3729962110519409 0.9276493191719055
0.2445809543132782 -0.37800920009613037 0.9450564980506897
0.2338193655014038 -0.39295005798339844 0.9435687065124512
0.23995128273963928 -0.3939511775970459 0.9539138674736023
0.2588256299495697 -0.32371756434440613 0.9808251261711121
0.25452640652656555 -0.3573704659938812 0.9742783308029175
0.23655292391777039 -0.47046229243278503 0.9758164882659912
0.23261114954948425 -0.4883159399032593 0.9716166257858276
0.22679877281188965 -0.4994368255138397 0.9778282046318054
0.2336130440235138 -0.45618054270744324 0.9522954821586609
0.23218190670013428 -0.46398448944091797 0.947580873966217
0.24240894615650177 -0.3332822024822235 0.9394568204879761
0.24365393817424774 -0.34906429052352905 0.9354773163795471
0.24219250679016113 -0.32248368859291077 0.9267117977142334
0.24030593037605286 -0.34017980098724365 0.9289838075637817
0.24161022901535034 -0.3611886501312256 0.9375771284103394
0.2507108449935913 -0.3160504698753357 0.9490077495574951
0.2606259882450104 -0.29916930198669434 0.9569326043128967
0.2456309050321579 -0.2868266999721527 0.9345952868461609
0.25196024775505066 -0.30169612169265747 0.947210431098938
0.2328106015920639 -0.4730270504951477 0.9547985792160034
0.23197442293167114 -0.4949195086956024 0.9560309648513794
0.2264270931482315 -0.48539069294929504 0.9516465663909912
0.23879443109035492 -0.486061155796051 0.9521140456199646
0.2762080132961273 -0.1783367097377777 0.9466535449028015
0.19891740381717682 -0.44357994198799133 0.9843626022338867
0.19149266183376312 -0.4535599946975708 0.9734583497047424
0.2140667587518692 -0.37779325246810913 0.9794040322303772
0.21456359326839447 -0.374124675989151 0.9749362468719482
0.20943498611450195 -0.3910367488861084 0.9864324331283569
0.21114234626293182 -0.3782064914703369 0.9707471132278442
0.2059888243675232 -0.39408862590789795 0.9752515554428101
0.21718445420265198 -0.33889704942703247 0.9642685651779175
0.21645499765872955 -0.3544579744338989 0.9596201181411743
0.22418619692325592 -0.3169218897819519 0.9650787115097046
0.22194510698318481 -0.3898676633834839 0.9880390167236328
0.20440296828746796 -0.46897080540657043 0.9396458864212036
0.19961358606815338 -0.484237939119339 0.9684937000274658
0.21570941805839539 -0.3724740147590637 0.9525322914123535
0.20208007097244263 -0.514634907245636 0.9673036336898804
0.19386525452136993 -0.5333386659622192 0.9643242955207825
0.1938231885433197 -0.5172371864318848 0.9614787697792053
0.19914975762367249 -0.5517125725746155 0.9725508093833923
0.2540205717086792 -0.15110819041728973 0.9655256867408752
0.26954081654548645 -0.20985402166843414 1.024308681488037
0.26298826932907104 -0.21947237849235535 1.0134412050247192
0.2691654562950134 -0.22560974955558777 1.0178247690200806
0.2335565686225891 -0.23984161019325256 0.9352453947067261
0.2930593192577362 0.02168738842010498 1.0058153867721558
0.3045084774494171 -0.005834713578224182 1.0443639755249023
0.30010297894477844 -0.017313964664936066 1.0366411209106445
0.2950763702392578 -0.012554861605167389 1.031144380569458
0.24589946866035461 -0.3392576277256012 0.9912006258964539
0.2272167205810547 -0.48676180839538574 1.0107231140136719
0.19677269458770752 -0.5574665665626526 0.9504355788230896
0.28110507130622864 -0.04677508398890495 0.9916234612464905
0.2760393023490906 -0.07758601009845734 0.972312331199646
0.25659069418907166 -0.31514573097229004 1.0003700256347656
0.24936263263225555 -0.32111385464668274 0.9920909404754639
0.24153761565685272 -0.3653108477592468 0.9892991781234741
0.19909819960594177 -0.5634940266609192 0.9540117979049683
0.20776039361953735 -0.5989677906036377 0.9936326742172241
0.2029542326927185 -0.6029981374740601 0.9971500635147095
0.20294630527496338 -0.5987958312034607 0.9788828492164612
0.26557210087776184 -0.12275829911231995 0.9664536714553833
0.268392413854599 -0.1500921994447708 0.9619852900505066
0.24775008857250214 -0.36716771125793457 0.9878412485122681
0.24667325615882874 -0.15444308519363403 0.9403090476989746
0.19627420604228973 -0.5331317186355591 0.9331631660461426
0.2873397171497345 -0.17327794432640076 1.0440833568572998
0.29042646288871765 -0.17283304035663605 1.044661283493042
0.28497302532196045 -0.1803004890680313 1.027717113494873
0.28976142406463623 -0.19246625900268555 1.03330659866333
0.2894100248813629 -0.20533844828605652 1.038757085800171
0.27254626154899597 -0.17096880078315735 1.0120141506195068
0.2816500663757324 -0.18046197295188904 1.0124499797821045
0.2103574126958847 -0.607183039188385 0.9997177720069885
0.22900213301181793 -0.3877849578857422 0.9309889674186707
0.22749607264995575 -0.3970867991447449 0.9384617209434509
0.2205285280942917 -0.40073469281196594 0.9366551041603088
0.21934376657009125 -0.36314207315444946 0.9252423048019409
0.2882322371006012 -0.1898515820503235 1.035078763961792
0.29319849610328674 -0.1988413780927658 1.0335829257965088
0.2530694603919983 -0.17379751801490784 0.9113573431968689
0.29659831523895264 -0.18067435920238495 1.0347483158111572
0.2917468249797821 -0.1890653669834137 1.0267903804779053
0.2550886273384094 -0.4039229154586792 1.0033866167068481
0.2429230660200119 -0.16843970119953156 0.8831328749656677
0.23771268129348755 -0.16688430309295654 0.8811303377151489
0.2368801087141037 -0.17709551751613617 0.8649035692214966
0.23556110262870789 -0.1901186853647232 0.8687725067138672
0.27376067638397217 -0.15469802916049957 0.9571703672409058
0.28870806097984314 -0.20923376083374023 1.015586495399475
0.24277807772159576 -0.420900821685791 0.9872345328330994
0.2439345270395279 -0.4391384422779083 0.984286904335022
0.2523882985115051 -0.18229791522026062 0.9043395519256592
0.24772728979587555 -0.19546090066432953 0.9014084339141846
0.24501287937164307 -0.18585175275802612 0.8906192779541016
0.24308645725250244 -0.4397146701812744 0.9749104976654053
0.2481483817100525 -0.421486496925354 0.9719392657279968
0.23496468365192413 -0.42638537287712097 0.9609073996543884
0.24295373260974884 -0.40414416790008545 0.9635077714920044
0.21860095858573914 -0.5154461860656738 0.9408873915672302
0.21811816096305847 -0.5211981534957886 0.9515513181686401
0.2628365457057953 -0.18844735622406006 0.922379732131958
0.28254398703575134 -0.19605959951877594 0.966071605682373
0.2693469524383545 -0.22091084718704224 0.9601125717163086
0.27585992217063904 -0.2115708887577057 0.9509140849113464
0.2723749876022339 -0.23808404803276062 0.9554367065429688
0.2644228935241699 -0.24775269627571106 0.9435750246047974
0.24678580462932587 -0.4467560648918152 0.9589707255363464
0.24306541681289673 -0.4373745620250702 0.9554219245910645
0.24475987255573273 -0.4731011390686035 0.9658944606781006
0.26039448380470276 -0.37012720108032227 0.9626988768577576
0.2517232894897461 -0.3990565240383148 0.9662626385688782
0.25015848875045776 -0.3770208954811096 0.9628750085830688
0.25714433193206787 -0.3866487443447113 0.9551606178283691
0.25838881731033325 -0.3942670226097107 0.9625227451324463
0.25940173864364624 -0.38074660301208496 0.9624166488647461
0.2536947727203369 -0.3998643159866333 0.956559419631958
0.2409713864326477 -0.48485997319221497 0.9595332145690918
0.24402424693107605 -0.4738287329673767 0.9518175721168518
0.19396330416202545 -0.46276211738586426 0.9887981414794922
0.20102447271347046 -0.4774765372276306 0.9806259274482727
0.1974044293165207 -0.46004000306129456 0.9685641527175903
0.1910640299320221 -0.4836459159851074 0.974308431148529
0.2554943859577179 -0.20291712880134583 1.009299635887146
0.24205592274665833 -0.18040205538272858 0.945854902267456
0.23624344170093536 -0.19410516321659088 0.9366685152053833
0.2514052093029022 -0.1656726598739624 0.9886578321456909
0.21411725878715515 -0.4539349675178528 0.9885725975036621
0.214399516582489 -0.4234549403190613 0.9646775722503662
0.2324112057685852 -0.2351500689983368 0.9567915201187134
0.23277205228805542 -0.24558767676353455 0.9449455142021179
0.2505306601524353 -0.21615952253341675 0.9983323812484741
0.2474289834499359 -0.239911288022995 0.9902318716049194
0.21261551976203918 -0.41432052850723267 0.96534264087677
0.21576008200645447 -0.46840304136276245 0.991757869720459
0.22935907542705536 -0.27035820484161377 0.9478661417961121
0.22845472395420074 -0.3091789484024048 0.9559422731399536
0.22673173248767853 -0.2881834805011749 0.9423401951789856
0.21755707263946533 -0.39549076557159424 0.9614336490631104
0.2050783336162567 -0.5378786325454712 0.982123851776123
0.19699044525623322 -0.5761021971702576 0.9776372909545898
0.19127680361270905 -0.5639182329177856 0.9576659202575684
0.27499139308929443 -0.20472314953804016 1.0327939987182617
0.2690887153148651 -0.23709776997566223 1.0218547582626343
0.25263866782188416 -0.28101846575737 0.9903544783592224
0.24964596331119537 -0.30729544162750244 0.9938528537750244
0.22395475208759308 -0.30113494396209717 0.9320625066757202
0.27244848012924194 -0.25294968485832214 1.025446891784668
0.26602840423583984 -0.23440322279930115 0.9988950490951538
0.2605082094669342 -0.2466570883989334 0.9956154823303223
0.2234264463186264 -0.5076462626457214 0.9991017580032349
0.21627916395664215 -0.5260748267173767 0.9899985790252686
0.2173006534576416 -0.40239471197128296 0.946319043636322
0.2784160077571869 -0.09987883269786835 0.9981921911239624
0.2805350422859192 -0.08540923148393631 1.0037819147109985
0.220600888133049 -0.3277391791343689 0.9072123765945435
0.2588953673839569 -0.29583731293678284 0.9894290566444397
0.26086658239364624 -0.3137058615684509 1.003642201423645
0.22681209444999695 -0.5019246935844421 1.0048580169677734
0.22733207046985626 -0.5005273222923279 0.9997925758361816
0.22368307411670685 -0.5169798135757446 0.9938955903053284
0.24262839555740356 -0.19733789563179016 0.8981269001960754
0.2367325723171234 -0.2132529616355896 0.8957802057266235
0.23252809047698975 -0.21378405392169952 0.8976078033447266
0.23658496141433716 -0.1920468956232071 0.8941647410392761
0.241017684340477 -0.19080226123332977 0.8939350843429565
0.23109576106071472 -0.19105498492717743 0.8748616576194763
0.23995859920978546 -0.22726985812187195 0.9169541001319885
0.22290709614753723 -0.19032005965709686 0.8755736351013184
0.22372666001319885 -0.2039502114057541 0.8631875514984131
0.27303722500801086 -0.16046199202537537 0.9864919781684875
0.27472710609436035 -0.1693221628665924 0.990996241569519
0.26480239629745483 -0.1515321135520935 0.9581854343414307
0.2837761640548706 -0.211343914270401 1.0284318923950195
0.2742127776145935 -0.2195029854774475 1.01566481590271
0.251216322183609 -0.41367989778518677 1.019117832183838
0.2523505389690399 -0.41042017936706543 1.0197385549545288
0.24320925772190094 -0.40579575300216675 1.0099163055419922
0.22639450430870056 -0.1917795091867447 0.8598986864089966
0.23083381354808807 -0.17680594325065613 0.8654308319091797
0.24061256647109985 -0.231166809797287 0.9122151732444763
0.21797676384449005 -0.4515238106250763 0.9420400261878967
0.2074548900127411 -0.47162604331970215 0.93240886926651
0.2805544435977936 -0.18941029906272888 1.0104063749313354
0.28025639057159424 -0.14519335329532623 0.9885872602462769
0.22891674935817719 -0.4850010573863983 0.9846657514572144
0.22734074294567108 -0.3279857933521271 0.9120607376098633
0.3018328845500946 -0.018864236772060394 0.9973499774932861
0.2947980463504791 -0.03257949650287628 0.9906919002532959
0.22811631858348846 -0.33545562624931335 0.9122503995895386
0.28537219762802124 -0.13510718941688538 0.9777927398681641
0.28164494037628174 -0.1536310315132141 0.9775776267051697
0.27694180607795715 -0.1510501354932785 0.9669439792633057
0.2354324460029602 -0.44731760025024414 0.9581252932548523
0.2704979181289673 -0.16820359230041504 0.9323926568031311
0.24535638093948364 -0.3102159798145294 0.9348871111869812
0.2840850055217743 -0.17172187566757202 0.9726938009262085
0.28285861015319824 -0.19131016731262207 0.9703179597854614
0.2875440716743469 -0.19551578164100647 0.9944890737533569
0.2821751832962036 -0.20311248302459717 0.9759393930435181
0.28160926699638367 -0.15966036915779114 0.962894856929779
0.2781747579574585 -0.16331827640533447 0.9491272568702698
0.2506258487701416 -0.44795089960098267 0.9661911725997925
0.21327446401119232 -0.3464619815349579 0.9801734685897827
0.21419459581375122 -0.35145097970962524 0.9771533012390137
0.21632297337055206 -0.3626900911331177 0.979934573173523
0.2115035355091095 -0.34678658843040466 0.9732957482337952
0.21318121254444122 -0.36779189109802246 0.9785718321800232
0.20562852919101715 -0.4261544346809387 0.9830033779144287
0.21422281861305237 -0.437167763710022 0.9858824610710144
0.2179187536239624 -0.3739027976989746 0.9705031514167786
0.21598045527935028 -0.38058435916900635 0.9616267085075378
0.2155325561761856 -0.40176302194595337 0.9720025062561035
0.21230919659137726 -0.4153050184249878 0.9855138063430786
0.235746830701828 -0.2209290862083435 0.9600405693054199
0.2626475393772125 -0.20303484797477722 1.0193085670471191
0.2620588541030884 -0.18499833345413208 1.0128726959228516
0.26099681854248047 -0.1352197825908661 0.9896697402000427
0.2604336738586426 -0.12029819935560226 0.9803412556648254
0.2158859819173813 -0.3664894104003906 0.9348095059394836
0.22118408977985382 -0.31786447763442993 0.9334121346473694
0.21510185301303864 -0.3421963155269623 0.9031648635864258
0.21669016778469086 -0.33756136894226074 0.9330369234085083
0.29716914892196655 -0.024336528033018112 1.0363340377807617
0.2983255386352539 0.009367667138576508 1.019176959991455
0.294495552778244 -0.005194872617721558 1.0217270851135254
0.2916512191295624 -0.006217606365680695 1.0120034217834473
0.28588277101516724 -0.018800996243953705 1.0062588453292847
0.2708277702331543 -0.08056604117155075 0.9765229225158691
0.266502320766449 -0.10206849128007889 0.9691391587257385
0.28092271089553833 -0.17702850699424744 1.0382537841796875
0.24268940091133118 -0.41409727931022644 1.0215976238250732
0.22907491028308868 -0.45255419611930847 1.0060820579528809
0.20166955888271332 -0.48793739080429077 0.9197068810462952
0.19681307673454285 -0.48361027240753174 0.9250686764717102
0.2346777468919754 -0.16930970549583435 0.8744285106658936
0.22628651559352875 -0.1755731701850891 0.8699195384979248
0.2889116108417511 -0.08071503788232803 0.9989583492279053
0.2864872217178345 -0.10463036596775055 0.9948655366897583
0.24980777502059937 -0.4135785698890686 1.024351954460144
0.23189011216163635 -0.29072755575180054 0.9261144399642944
0.2365996390581131 -0.30741268396377563 0.9283376932144165
0.25967809557914734 -0.3049337565898895 0.9896854758262634
0.25857144594192505 -0.32564815878868103 0.9901546239852905
0.25404396653175354 -0.34310370683670044 0.9882394075393677
0.25911208987236023 -0.22105641663074493 0.9215864539146423
0.29808303713798523 -0.048799991607666016 1.0019980669021606
0.29390937089920044 -0.05544135347008705 0.9899476766586304
0.21794138848781586 -0.5330508947372437 0.9548349380493164
0.2716876268386841 -0.24810120463371277 0.9729540348052979
0.26754507422447205 -0.2643721103668213 0.9631525278091431
0.26638638973236084 -0.22069723904132843 0.9401124715805054
0.25505825877189636 -0.2131272703409195 0.9138469099998474
0.2500486671924591 -0.2397942841053009 0.9236718416213989
0.2834135591983795 -0.2197892963886261 0.9720807671546936
0.28456100821495056 -0.21697953343391418 0.9885636568069458
0.28067728877067566 -0.22874268889427185 0.9842191934585571
0.2762009799480438 -0.23117123544216156 0.9666160345077515
0.2503918707370758 -0.1969027817249298 0.9825837016105652
0.24699150025844574 -0.16809110343456268 0.9724100232124329
0.2432456761598587 -0.18470321595668793 0.9800143837928772
0.2421332150697708 -0.1889188587665558 0.9669418931007385
0.20831933617591858 -0.44955766201019287 0.9670909643173218
0.23428352177143097 -0.18449008464813232 0.9356495141983032
0.21613028645515442 -0.4927555024623871 0.9883250594139099
0.22978168725967407 -0.25213462114334106 0.9413402080535889
0.2825264036655426 -0.04239949211478233 1.0126428604125977
0.27904805541038513 -0.05352354422211647 1.003528118133545
0.2771904170513153 -0.046135496348142624 0.9928112030029297
0.2615970969200134 -0.22500985860824585 1.002362608909607
0.26492661237716675 -0.24318616092205048 1.018909215927124
0.26144710183143616 -0.23526835441589355 1.010344386100769
0.23324881494045258 -0.19866743683815002 0.902122974395752
0.2238825559616089 -0.19479826092720032 0.8623003959655762
0.2210976481437683 -0.42346900701522827 0.9435943961143494
0.2131485939025879 -0.4377869963645935 0.941119909286499
0.20955334603786469 -0.4469258189201355 0.9417933225631714
0.27043721079826355 -0.16798114776611328 0.9910292625427246
0.2770722210407257 -0.24931851029396057 1.0217965841293335
0.27002865076065063 -0.25414347648620605 1.0167189836502075
0.26800984144210815 -0.24298372864723206 1.0092812776565552
0.2599044442176819 -0.23476457595825195 0.9946239590644836
0.19883517920970917 -0.5144272446632385 0.925409734249115
0.2046874463558197 -0.5547875165939331 0.944892942905426
0.298198938369751 -0.006486915051937103 1.0122153759002686
0.29683831334114075 0.01685916632413864 0.9936456680297852
0.29989367723464966 0.011233344674110413 1.0089192390441895
0.2988259494304657 -0.0011815279722213745 1.0051542520523071
0.2939260005950928 -0.006303757429122925 0.9940384030342102
0.29305005073547363 0.003513336181640625 0.9899782538414001
0.2884797155857086 -0.00825287401676178 0.9880553483963013
0.23897606134414673 -0.24233973026275635 0.9186674952507019
0.2882829010486603 -0.024527065455913544 0.9814344048500061
0.2913212478160858 -0.07623594999313354 0.9779748916625977
0.28015321493148804 -0.0916081890463829 0.9725720286369324
0.29130586981773376 -0.10781636089086533 0.9837842583656311
0.28155454993247986 -0.16823634505271912 0.9821518659591675
0.2875729501247406 -0.1810426265001297 0.9938871264457703
0.2545745372772217 -0.21059012413024902 0.9037795066833496
0.26560530066490173 -0.30230337381362915 0.9651824831962585
0.26292017102241516 -0.2784782648086548 0.9505839347839355
0.25003597140312195 -0.4320479929447174 0.9653027057647705
0.2632424831390381 -0.3294167220592499 0.9618644714355469
0.26179730892181396 -0.351814329624176 0.9608842730522156
0.2571127116680145 -0.3405688405036926 0.9618400931358337
0.2594410479068756 -0.37175846099853516 0.9555993676185608
0.22724319994449615 -0.30409830808639526 0.9804190993309021
0.22526541352272034 -0.31345877051353455 0.9758976697921753
0.23819728195667267 -0.27933743596076965 0.9875953793525696
0.22896967828273773 -0.3001377284526825 0.9687210321426392
0.20147773623466492 -0.5011541247367859 0.9487438797950745
0.2586930990219116 -0.12956508994102478 0.9723690152168274
0.25904330611228943 -0.14819011092185974 0.9702150225639343
0.2574091851711273 -0.1494062840938568 0.9850229620933533
0.26911547780036926 -0.09608832001686096 0.9937617778778076
0.27333056926727295 -0.10924316942691803 0.9950753450393677
0.2325349748134613 -0.4097636938095093 1.0094637870788574
0.23244863748550415 -0.41273006796836853 1.0036424398422241
0.24143515527248383 -0.38898855447769165 1.0038059949874878
0.20955100655555725 -0.4592527151107788 0.9369288682937622
0.23682984709739685 -0.13355624675750732 0.8841326832771301
0.23070675134658813 -0.15047687292099 0.8802333474159241
0.29311609268188477 0.02533935010433197 1.0021196603775024
0.29113683104515076 0.01834440976381302 0.9977394342422485
0.3069732189178467 -0.04578728601336479 1.036827564239502
0.3002125918865204 -0.0451074056327343 1.0344866514205933
0.21836668252944946 -0.5279513001441956 0.9855868816375732
0.21651576459407806 -0.5460167527198792 0.9727336168289185
0.22300677001476288 -0.5172103047370911 0.9602346420288086
0.23864148557186127 -0.2737862467765808 0.9190245866775513
0.3081699013710022 -0.009022131562232971 1.0210161209106445
0.3116898238658905 -0.011346183717250824 1.030139446258545
0.3094678521156311 -0.02960934489965439 1.018418550491333
0.2864024341106415 -0.21545273065567017 1.0019505023956299
0.25176534056663513 -0.4078899323940277 0.9663838148117065
0.26579126715660095 -0.18093633651733398 0.9268906116485596
0.2673521637916565 -0.1973334401845932 0.9299917221069336
0.20478633046150208 -0.42836448550224304 0.9768008589744568
0.1985003650188446 -0.43620431423187256 0.9781049489974976
0.25372856855392456 -0.18560658395290375 0.9968741536140442
0.23442550003528595 -0.24620097875595093 0.9606125950813293
0.22892576456069946 -0.27045637369155884 0.969504714012146
0.26452314853668213 -0.1609160602092743 0.9877014756202698
0.2821303904056549 -0.008534654974937439 0.9943744540214539
0.28054556250572205 -0.022258222103118896 0.9883125424385071
0.27919164299964905 -0.02206060290336609 0.9846801161766052
0.2977067530155182 -0.03848809748888016 1.0415291786193848
0.29284805059432983 -0.04290107637643814 1.039340853691101
0.2917294204235077 -0.03684217482805252 1.0219916105270386
0.2091030478477478 -0.5427227020263672 0.9797908663749695
0.21523818373680115 -0.34615612030029297 0.9171496629714966
0.21244089305400848 -0.33667027950286865 0.89620041847229
0.2904188334941864 0.011015117168426514 0.9923880696296692
0.23484286665916443 -0.46192774176597595 1.0051733255386353
0.22809337079524994 -0.48614200949668884 1.0098659992218018
0.2772829830646515 -0.1289503276348114 0.9917114973068237
0.27264243364334106 -0.14832238852977753 0.9940907955169678
0.22710910439491272 -0.1901269555091858 0.858613133430481
0.3018683195114136 -0.023993074893951416 1.0318167209625244
0.3005097508430481 0.007244199514389038 1.0205856561660767
0.3016815483570099 -0.0030144304037094116 1.0164220333099365
0.24618837237358093 -0.1359485387802124 0.8814666867256165
0.24749600887298584 -0.1657637506723404 0.8981245160102844
0.2963799834251404 -0.06701906770467758 0.9943230152130127
0.2288810759782791 -0.35248321294784546 0.915435791015625
0.2237628996372223 -0.3335527777671814 0.8950750231742859
0.26297488808631897 -0.31687304377555847 1.0015965700149536
0.24919897317886353 -0.3681085705757141 0.9510132074356079
0.24953705072402954 -0.37318000197410583 0.9557492733001709
0.2522789537906647 -0.3276834487915039 0.9501946568489075
0.25057628750801086 -0.34011322259902954 0.952167272567749
0.23701122403144836 -0.2451402246952057 0.9766891002655029
0.24258966743946075 -0.29081815481185913 0.9922431707382202
0.23710371553897858 -0.3150408864021301 0.9874228239059448
0.22270295023918152 -0.38143497705459595 0.9326651096343994
0.23507380485534668 -0.1618436723947525 0.8957692384719849
0.22821490466594696 -0.16796092689037323 0.8835479021072388
0.23111450672149658 -0.18817295134067535 0.900631308555603
0.27489086985588074 -0.23433971405029297 1.0206304788589478
0.2684239149093628 -0.23132801055908203 1.0022579431533813
0.23176729679107666 -0.48572978377342224 1.0105458498001099
0.3041495382785797 -0.02308715507388115 1.0113856792449951
0.2882886826992035 -0.11844603717327118 0.9890956282615662
0.27905407547950745 -0.12246659398078918 0.9674297571182251
0.2517174780368805 -0.20494285225868225 0.995140790939331
0.24366922676563263 -0.21401453018188477 0.9831528067588806
0.24001626670360565 -0.22543653845787048 0.9825150370597839
0.24144256114959717 -0.2065671980381012 0.9713063836097717
0.2504522204399109 -0.15303385257720947 0.9717791676521301
0.27079036831855774 -0.07723768055438995 0.9875460863113403
0.27927446365356445 -0.18872453272342682 1.0347312688827515
0.27954795956611633 -0.18103323876857758 1.0309840440750122
0.21921424567699432 -0.4209798574447632 0.9431459903717041
0.2764439284801483 -0.22477775812149048 0.9981356859207153
0.27124184370040894 -0.23307232558727264 0.9897400736808777
0.25796571373939514 -0.17125758528709412 0.9187909364700317
0.26472315192222595 -0.30941468477249146 0.9899018406867981
0.2557119131088257 -0.3180087208747864 0.9862602949142456
0.2632123529911041 -0.2500085234642029 0.9413359761238098
0.24326561391353607 -0.3874768018722534 0.9540249109268188
0.23663145303726196 -0.2040051817893982 0.9446640610694885
0.21364617347717285 -0.4230474829673767 0.9512456059455872
0.2730904519557953 -0.12492430955171585 0.9948306083679199
0.29496413469314575 0.01409575343132019 1.0141230821609497
0.30821549892425537 -0.007062390446662903 1.0464998483657837
0.2944968342781067 -0.04548022896051407 1.0208898782730103
0.28997573256492615 -0.05466226860880852 1.0133672952651978
0.29530811309814453 -0.06634218245744705 1.002959966659546
0.2062174677848816 -0.5619494915008545 0.9811949729919434
0.21264922618865967 -0.5849536657333374 0.9815237522125244
0.2974082827568054 -0.04222268611192703 1.0186140537261963
0.20895297825336456 -0.5682029724121094 0.9589816927909851
