0.17051614820957184 -0.08681993186473846 1.324609398841858
0.13107454776763916 -0.12003394216299057 1.3730946779251099
0.1677989959716797 -0.05680963397026062 1.2904714345932007
0.15198150277137756 -0.05459282547235489 1.2713825702667236
0.1864445060491562 -0.1470400094985962 1.217475175857544
0.19126781821250916 -0.09892638772726059 1.2728872299194336
0.19058609008789062 -0.04041845723986626 1.2186676263809204
0.19250370562076569 -0.010274246335029602 1.1378929615020752
0.22689858078956604 -0.01215817779302597 1.148679494857788
0.23280993103981018 -0.05635317787528038 1.1895545721054077
0.22997558116912842 -0.11708136647939682 1.195476770401001
0.23602110147476196 -0.008621156215667725 1.090329885482788
0.301910400390625 -0.0840269923210144 1.1088851690292358
0.2918612062931061 -0.048782698810100555 1.1013011932373047
0.26688480377197266 -0.017418906092643738 1.084412693977356
0.2826172709465027 -0.14098526537418365 1.0777994394302368
0.282147616147995 -0.08198042213916779 1.058708906173706
0.2673478126525879 -0.05560530349612236 1.0545941591262817
0.3377845585346222 -0.07581017911434174 0.909833550453186
0.2746623158454895 -0.11219415068626404 1.0509060621261597
0.2791110575199127 -0.1202111467719078 1.016653060913086
0.2991141974925995 -0.05166501924395561 0.9669373035430908
0.2704813480377197 -0.09640084207057953 0.9951671957969666
0.28325456380844116 -0.1276141107082367 0.9869294762611389
0.2999721169471741 -0.0955628752708435 0.9538013935089111
0.32109662890434265 -0.08773895353078842 0.9440819025039673
0.2993065416812897 -0.14094404876232147 0.9455220699310303
0.3114975094795227 -0.11185675859451294 0.9390525817871094
0.30529358983039856 -0.12660245597362518 0.9488780498504639
0.3330026865005493 -0.07573816925287247 0.8883935213088989
0.3151102364063263 -0.13437023758888245 0.9266946315765381
0.31017500162124634 -0.07772566378116608 0.9127936363220215
0.3350276052951813 -0.10929909348487854 0.8942504525184631
0.34619659185409546 -0.09423144906759262 0.8983694911003113
-0.28016990423202515 0.002902209060266614 1.0030624866485596
-0.2755444347858429 -0.06851275265216827 0.9850901961326599
-0.25564268231391907 -0.047879546880722046 0.9907410144805908
-0.2984842360019684 -0.10517105460166931 1.0171568393707275
-0.2055390328168869 -0.00241698045283556 1.0264530181884766
-0.259240984916687 -0.1061844602227211 1.0152490139007568
-0.16406597197055817 -0.03181452304124832 1.2308260202407837
-0.16778579354286194 -0.09550905227661133 1.1958625316619873
-0.18084920942783356 -0.10453528165817261 0.9602069854736328
-0.1878504902124405 -0.01932513155043125 0.9264709949493408
-0.13696205615997314 0.04896591231226921 0.9237562417984009
-0.15558257699012756 0.09270042181015015 1.2279729843139648
-0.15537360310554504 0.0860280692577362 1.158061146736145
-0.16109594702720642 0.11174814403057098 1.1174819469451904
-0.1637139618396759 -0.014812945388257504 0.9607124328613281
-0.20379625260829926 0.00946836918592453 1.774437665939331
-0.13946306705474854 -0.04198446124792099 1.3759474754333496
-0.15298640727996826 -0.027886297553777695 1.2973377704620361
-0.09003119170665741 0.11025871336460114 1.0051953792572021
-0.13205355405807495 0.10005800426006317 0.9127775430679321
-0.1673622727394104 0.055558133870363235 0.09764300286769867
-0.17258918285369873 0.0021217800676822662 0.05943649634718895
-0.17460918426513672 0.003129035234451294 1.7564318180084229
-0.15986838936805725 0.004951663315296173 1.69594144821167
-0.12578031420707703 -0.16684666275978088 1.2541184425354004
-0.11944344639778137 -0.18258428573608398 1.2235608100891113
-0.12234503775835037 -0.20288413763046265 1.2161210775375366
-0.14004527032375336 0.06013960391283035 1.3731869459152222
-0.1285599321126938 0.05312098562717438 1.367761254310608
-0.10649760067462921 -0.16673579812049866 1.2746819257736206
-0.13407613337039948 -0.0778714194893837 1.223639726638794
-0.14952316880226135 0.004777822643518448 0.15259766578674316
-0.15197481215000153 0.03834223747253418 0.17870277166366577
-0.09396834671497345 0.07962106168270111 1.2200798988342285
-0.14241816103458405 -0.07403046637773514 1.4878263473510742
-0.1427009552717209 -0.06980330497026443 1.4614155292510986
-0.12846487760543823 -0.06962715834379196 1.4392176866531372
-0.14246007800102234 -0.06559430062770844 1.4366050958633423
-0.14205001294612885 -0.08301380276679993 1.4227640628814697
-0.13129107654094696 -0.11499372124671936 0.7727298140525818
-0.14495545625686646 -0.07652664184570312 0.7645101547241211
-0.09348765015602112 0.17324486374855042 0.9999747276306152
-0.09238261729478836 0.17578573524951935 1.0571885108947754
-0.09811770915985107 -0.15864640474319458 1.273560643196106
-0.12611553072929382 -0.11032291501760483 0.8526254892349243
-0.140659362077713 0.12078431993722916 0.11422691494226456
-0.1425275206565857 0.12720757722854614 0.07002003490924835
-0.13960276544094086 -0.19028730690479279 0.8491189479827881
-0.1079387217760086 0.1453215628862381 1.1872401237487793
-0.13493461906909943 -0.13071902096271515 1.685700535774231
-0.1207243949174881 -0.016042888164520264 1.570804476737976
-0.10744839161634445 0.0728769302368164 1.5183675289154053
-0.09700536727905273 0.04240017384290695 1.587409496307373
-0.11952533572912216 0.034333594143390656 1.5617146492004395
-0.11623424291610718 0.04556103050708771 1.4646849632263184
-0.06205460801720619 0.11212535947561264 1.5502088069915771
-0.10352396219968796 -0.061205826699733734 1.5250067710876465
-0.09655815362930298 0.04437491297721863 0.9786648750305176
-0.1307217925786972 0.02551519125699997 1.8606148958206177
-0.14385253190994263 0.014818891882896423 1.8575799465179443
-0.14308050274848938 0.004321172833442688 1.846214771270752
-0.023938724771142006 0.040702056139707565 1.444964051246643
-0.10248906910419464 0.08572968095541 1.4165483713150024
-0.07209606468677521 0.05819693207740784 0.031468965113162994
-0.05943182855844498 0.13155433535575867 1.3363182544708252
-0.09409653395414352 -0.13512112200260162 1.5902345180511475
-0.08819787204265594 -0.041891466826200485 0.3751108646392822
-0.05936174467206001 0.04028690978884697 1.5215771198272705
-0.07124505192041397 -0.010945592075586319 1.5179321765899658
-0.047811903059482574 0.10670587420463562 1.458693265914917
-0.03969921916723251 0.05312483385205269 0.8600666522979736
-0.08936518430709839 0.03111579827964306 0.34372377395629883
-0.04126337915658951 0.13417887687683105 0.9015798568725586
-0.03501606360077858 0.04238083213567734 1.0434160232543945
-0.07748430222272873 -0.18382026255130768 1.269768476486206
-0.07787377387285233 -0.16631536185741425 1.1688843965530396
-0.07542332261800766 0.010707331821322441 0.3150797188282013
-0.05396378040313721 0.011942815035581589 0.2527187168598175
-0.08282965421676636 0.05915340408682823 0.26215866208076477
-0.05747462809085846 0.02555793896317482 1.548974871635437
-0.044996850192546844 -0.12051886320114136 0.6751260757446289
-0.06800751388072968 -0.04649214446544647 0.6417397856712341
-0.031222200021147728 0.19262051582336426 1.041099190711975
-0.033013857901096344 0.1759164035320282 0.9467886686325073
-0.0257561095058918 -0.20028075575828552 1.1922975778579712
-0.06390514969825745 0.061811402440071106 0.12174847722053528
-0.03029581531882286 0.11863011866807938 0.9494010210037231
-0.03132535517215729 0.09679045528173447 0.9985091686248779
0.013496531173586845 0.029203003272414207 1.5312979221343994
-0.06213563680648804 -0.13739490509033203 1.4161324501037598
0.0021519483998417854 0.14626756310462952 1.3070180416107178
0.028519727289676666 0.03734084591269493 1.4307985305786133
0.007808562368154526 0.01926475018262863 1.5408272743225098
0.03457152098417282 0.12224993109703064 0.9595097899436951
0.04682433605194092 0.1058385819196701 0.9090501070022583
0.0036597326397895813 -0.15183603763580322 1.4090793132781982
0.014843516051769257 0.04315457493066788 1.0379106998443604
-0.002945004729554057 -0.20449566841125488 1.1250108480453491
0.08149398863315582 0.12766176462173462 1.3329821825027466
0.031142547726631165 -0.02699122205376625 1.3234758377075195
0.06471440196037292 0.099836066365242 1.4662679433822632
0.035192251205444336 0.04340063035488129 1.4781370162963867
0.044963546097278595 -0.02956809103488922 1.2303731441497803
0.04342275485396385 0.09911701083183289 0.920912504196167
0.025125490501523018 -0.017842352390289307 1.8013488054275513
0.04757487401366234 -0.2670239806175232 0.09885141998529434
0.05427037551999092 -0.3008178472518921 0.06829365342855453
0.04690857604146004 -0.17583805322647095 0.08063115179538727
0.001049235463142395 -0.16291609406471252 1.6969109773635864
0.048437923192977905 -0.10280085355043411 0.7059945464134216
0.10207823663949966 0.03784690052270889 1.445601463317871
0.06108495965600014 -0.08457861840724945 1.5320911407470703
0.10538359731435776 -0.0894516110420227 1.4613529443740845
0.05551309883594513 -0.04791872948408127 1.4365787506103516
0.06692942976951599 -0.1392812430858612 0.39487510919570923
0.06786616891622543 -0.2439633011817932 0.2495139241218567
0.08727439492940903 -0.14623306691646576 0.20608827471733093
0.10897950083017349 0.12265606969594955 0.9648281335830688
0.09452871978282928 0.14818096160888672 0.9201467037200928
0.08168207854032516 -0.1773872971534729 0.7541282176971436
0.08514246344566345 -0.11106421798467636 0.6488758325576782
0.02967637963593006 -0.07273110747337341 1.7951650619506836
0.07558746635913849 -0.08238586783409119 1.7497938871383667
0.08118985593318939 -0.21210551261901855 0.565930962562561
0.04419919103384018 -0.005608074367046356 1.8109360933303833
0.07440062612295151 -0.02534538134932518 1.7619283199310303
0.0882195234298706 -0.08717338740825653 1.1539747714996338
0.09128044545650482 -0.07488927245140076 1.122866153717041
0.0856410413980484 -0.15189659595489502 1.1063902378082275
0.06355097889900208 -0.133818581700325 1.6889081001281738
0.07531479001045227 -0.0713217481970787 1.5636361837387085
0.06852603703737259 -0.11669426411390305 1.5717653036117554
0.15565866231918335 0.10435213893651962 0.920815646648407
0.09764984250068665 -0.13306036591529846 1.3113231658935547
0.10691141337156296 -0.19723880290985107 1.259163498878479
0.10188239812850952 -0.11372406780719757 1.2607123851776123
0.13232336938381195 -0.1510259509086609 0.14256945252418518
0.10918480157852173 -0.2514142692089081 0.16862718760967255
0.12787605822086334 -0.2478850930929184 0.14968030154705048
0.08992914855480194 0.0012712180614471436 1.7810276746749878
0.10878380388021469 -0.15400540828704834 1.3064634799957275
0.1437913030385971 -0.14434558153152466 0.43160438537597656
0.12086978554725647 -0.1897430121898651 0.49401289224624634
0.14632996916770935 -0.16540661454200745 0.376177042722702
0.1216435581445694 -0.1105203628540039 1.4525083303451538
0.1072218120098114 -0.10375188291072845 1.4476922750473022
0.12935471534729004 -0.0785992294549942 1.4105361700057983
0.12396453320980072 0.07027211040258408 0.9117398262023926
0.122548907995224 -0.11342746019363403 0.8513759970664978
0.15982629358768463 -0.1702881157398224 0.2456747144460678
0.16497354209423065 -0.20248936116695404 0.2556040287017822
0.14087405800819397 -0.06873036921024323 1.4055382013320923
0.17018821835517883 0.06797018647193909 1.2480107545852661
0.17468293011188507 0.09773581475019455 1.2139424085617065
0.1124269887804985 -0.2552124857902527 1.1434403657913208
0.1669255942106247 -0.05265941843390465 0.9824364185333252
0.1694234311580658 -0.11108670383691788 0.976036787033081
0.15018002688884735 -0.03388749808073044 1.215805172920227
0.20470668375492096 -0.1040922999382019 1.0680595636367798
0.20097824931144714 -0.05240776762366295 1.064086675643921
0.23885639011859894 -0.1580239236354828 1.1150352954864502
-0.25470393896102905 -0.0066410256549716 0.9810081720352173
-0.2743236720561981 -0.07182005047798157 0.9456839561462402
-0.21061544120311737 -0.105880007147789 1.0920134782791138
-0.2395276129245758 -0.12455183267593384 1.137951374053955
-0.17287307977676392 -0.07055128365755081 1.1219345331192017
-0.16536709666252136 -0.024829119443893433 1.1531271934509277
-0.19381335377693176 -0.1569325029850006 0.8637088537216187
-0.16372615098953247 0.10619387030601501 0.9593539237976074
-0.161837637424469 0.10226549208164215 1.0773974657058716
-0.11245402693748474 -0.2592693865299225 1.1099467277526855
-0.14163359999656677 -0.1683952808380127 0.9623701572418213
-0.17225053906440735 0.005487419664859772 0.2594657838344574
-0.15143971145153046 -0.04391682893037796 0.26108071208000183
-0.12324406951665878 -0.0013632556656375527 0.49302974343299866
-0.1509772539138794 -0.19705377519130707 0.8543909788131714
-0.1246880292892456 -0.07609416544437408 0.6110581159591675
-0.12237034738063812 -0.11409524083137512 0.6694796085357666
-0.11376628279685974 -0.048600561916828156 0.6780285835266113
-0.10613459348678589 -0.015532230958342552 1.1143536567687988
-0.10479824990034103 -0.08128996193408966 1.1405675411224365
-0.07011152803897858 0.17200815677642822 1.1403226852416992
-0.11455510556697845 -0.018095245584845543 0.8486275672912598
-0.10765548795461655 -0.05992082506418228 0.2732395529747009
-0.10955353081226349 -0.03455277532339096 1.2258620262145996
-0.09186623990535736 -0.041128721088171005 1.14997136592865
-0.10896404087543488 -0.07525281608104706 0.41578009724617004
-0.13285303115844727 -0.007034074515104294 1.7780827283859253
-0.13307419419288635 -0.0459473542869091 1.7734720706939697
-0.08578866720199585 -0.08323559910058975 1.79093599319458
-0.10023941844701767 -0.12940245866775513 1.753771185874939
-0.11697918176651001 -0.13323478400707245 1.646136999130249
-0.08866757154464722 -0.02657163143157959 0.31999462842941284
-0.05073364078998566 -0.12428068369626999 0.731018602848053
-0.058102045208215714 -0.017447050660848618 0.25022438168525696
-0.07787945866584778 -0.046229153871536255 0.24584463238716125
-0.08510138094425201 0.05724119395017624 0.21483507752418518
-0.05665946379303932 0.06741582602262497 0.9720553159713745
-0.08266755938529968 0.014810997992753983 1.8248487710952759
-0.09617268294095993 -0.0011412426829338074 1.8123968839645386
0.03288755938410759 0.09913254529237747 1.1362996101379395
-0.07166261225938797 0.0993206799030304 1.1381518840789795
0.010953962802886963 0.08646844327449799 1.2026251554489136
0.013418739661574364 -0.04240703582763672 1.2703744173049927
0.01632973738014698 0.1763436645269394 1.1769533157348633
0.01784016564488411 0.10350100696086884 1.0030426979064941
0.08359508961439133 0.1883031725883484 1.0792524814605713
0.02406838722527027 0.11318379640579224 1.6733758449554443
0.06021779030561447 0.09707139432430267 1.010657787322998
0.04522757977247238 -0.21596255898475647 0.9138181209564209
0.03918948769569397 -0.20263366401195526 0.26440995931625366
0.054359402507543564 -0.2159843146800995 0.2077847421169281
0.03865716606378555 -0.17030677199363708 0.709650993347168
0.040758416056632996 0.017922064289450645 1.074055790901184
0.05626201629638672 -0.12745076417922974 0.5687286853790283
0.09517992287874222 0.07090155780315399 1.2821929454803467
0.0813220739364624 -0.13390326499938965 1.431402325630188
0.06003211438655853 0.09362242370843887 1.638435959815979
0.05867661535739899 0.016279377043247223 1.6251955032348633
0.0626734048128128 0.031517885625362396 1.5921242237091064
0.04163778945803642 0.008270155638456345 1.861310601234436
0.08142261207103729 -0.14510780572891235 1.3571970462799072
0.11756560206413269 -0.11262218654155731 0.4950248599052429
0.08546969294548035 -0.09856601059436798 0.4907170534133911
0.10585833340883255 -0.12426356971263885 0.3421204686164856
0.12767410278320312 -0.13327868282794952 0.3126593232154846
0.10105166584253311 -0.06451170146465302 1.5542702674865723
0.08790040016174316 -0.07501877844333649 1.5653544664382935
0.10208763182163239 -0.07189951837062836 1.5467673540115356
0.1191970631480217 -0.08448739349842072 0.7484255433082581
0.11775793880224228 -0.1610264927148819 0.6361973285675049
0.12883666157722473 0.03315337747335434 0.9544947147369385
0.12221850454807281 -0.06601621955633163 1.094766616821289
0.11699047684669495 -0.12245742231607437 1.0868632793426514
0.12477919459342957 -0.14548435807228088 1.0295963287353516
0.10097827017307281 -0.010774146765470505 1.6748011112213135
0.11390012502670288 -0.02710195817053318 1.58530592918396
0.09777133166790009 -0.18224242329597473 1.2434945106506348
0.12528416514396667 0.04650168865919113 1.5571353435516357
0.11597751826047897 0.02066630870103836 1.6049597263336182
0.15316985547542572 -0.1754777431488037 0.04757727310061455
0.15790049731731415 -0.2478751838207245 0.05771428346633911
0.13780364394187927 0.02320944145321846 1.5210939645767212
0.1426919847726822 0.036615338176488876 1.4844410419464111
0.15095609426498413 0.027695491909980774 1.438476800918579
0.15121537446975708 0.0427602156996727 1.4173201322555542
0.10498683154582977 -0.2623382806777954 1.1618258953094482
0.17420560121536255 -0.15140175819396973 0.8614606261253357
0.12536941468715668 -0.23533877730369568 1.1788511276245117
0.12157173454761505 -0.2614314556121826 1.1620814800262451
0.2056482434272766 -0.10642901062965393 0.8718652129173279
0.20517562329769135 -0.08811994642019272 0.8501633405685425
0.21605175733566284 -0.05230216309428215 0.8539746999740601
-0.19877740740776062 -0.12292501330375671 1.1653039455413818
-0.1547456830739975 -0.13760489225387573 1.264627456665039
-0.1594761312007904 -0.1345621645450592 1.2432641983032227
-0.15174977481365204 -0.12736670672893524 1.2545462846755981
-0.14927539229393005 -0.12633368372917175 1.2729852199554443
-0.2030012160539627 0.0009716823697090149 0.8589049577713013
-0.12891128659248352 -0.08837087452411652 1.3058698177337646
-0.14518426358699799 -0.06598615646362305 1.0903849601745605
-0.1449219286441803 0.0656997561454773 1.5621705055236816
-0.13169580698013306 -0.10405486822128296 1.2112854719161987
-0.13695606589317322 -0.08982628583908081 1.1590259075164795
-0.12231140583753586 0.0577123761177063 1.4466763734817505
-0.1158146783709526 0.05161932110786438 1.3960422277450562
-0.12667259573936462 -0.14598500728607178 1.0552656650543213
-0.09272947162389755 -0.1717858910560608 1.0134395360946655
-0.12344394624233246 -0.03133333846926689 0.7672280669212341
-0.06536586582660675 0.15272773802280426 1.2273497581481934
-0.08452156186103821 0.11448672413825989 1.6481844186782837
-0.06396728754043579 0.11695902794599533 0.0714067742228508
-0.07765842974185944 0.13091027736663818 0.0644565150141716
-0.08658125251531601 0.02571226842701435 0.8663389086723328
-0.008251475170254707 0.09822367131710052 0.8534412384033203
-0.06386088579893112 -0.01935547962784767 0.8439004421234131
0.01322151068598032 0.058682866394519806 1.3153131008148193
-0.02770969457924366 -0.0818314254283905 0.7631714344024658
-0.03986719250679016 -0.1550384759902954 1.6680811643600464
-0.012424994260072708 0.01856245845556259 0.874874472618103
-0.006615077145397663 -0.022690845653414726 0.8538814187049866
0.011204732581973076 -0.11482757329940796 0.8591902852058411
-0.07852508127689362 -0.1675635129213333 0.8624274134635925
-0.0033288653939962387 -0.22621381282806396 0.8580609560012817
0.022948717698454857 -0.11031396687030792 0.8345270156860352
-0.005782539956271648 -0.16119658946990967 0.8688619136810303
0.0049920398741960526 -0.003340359777212143 1.516903042793274
0.02215268276631832 -0.03550238907337189 0.8447047472000122
0.023600293323397636 -0.053552597761154175 0.8196623921394348
0.016280200332403183 0.016619019210338593 1.5953282117843628
0.02122400887310505 0.018177270889282227 1.5663597583770752
0.03391449898481369 -0.1215914785861969 0.8485927581787109
0.12886010110378265 0.05895136296749115 0.8380709886550903
0.04597656428813934 -0.17260652780532837 0.2605551481246948
0.045473288744688034 -0.045206546783447266 0.8005326986312866
0.08076443523168564 0.10141579806804657 1.1688995361328125
0.08119760453701019 -0.19186338782310486 0.3873857855796814
0.0742722600698471 -0.1795496642589569 0.3227018117904663
0.08918707072734833 -0.20182938873767853 0.3415805697441101
0.07923763245344162 -0.2482527494430542 0.2916939854621887
0.10529671609401703 0.0546438954770565 1.5232168436050415
0.07602646946907043 -0.01647414267063141 0.8381751775741577
0.10233956575393677 -0.04526127129793167 0.8100250959396362
0.10052382200956345 -0.08297383785247803 1.2640162706375122
0.1109386533498764 -0.20147377252578735 0.4383232295513153
0.09745168685913086 0.04273082688450813 1.6384639739990234
0.08836624026298523 -0.04978496953845024 1.3235844373703003
0.11974522471427917 -0.20432111620903015 0.3425557613372803
0.10286810249090195 0.1693437397480011 1.1516541242599487
0.10418225079774857 -0.05338626727461815 1.238559603691101
0.1301945447921753 -0.14968357980251312 0.2072727382183075
0.14788180589675903 0.1629098653793335 1.0571939945220947
0.11717820167541504 -0.13645073771476746 0.24421426653862
0.12009155750274658 -0.25943446159362793 0.2625097632408142
0.14708387851715088 0.05953317880630493 1.305513620376587
0.11646957695484161 -0.09391707181930542 1.4957815408706665
0.1272827833890915 -0.08714952319860458 1.4599556922912598
0.11674585938453674 -0.09300541877746582 1.4935340881347656
0.14224985241889954 -0.06788109987974167 1.4409630298614502
0.11844058334827423 -0.2072446644306183 1.2260733842849731
0.10393927246332169 -0.22015514969825745 1.2175045013427734
0.17060895264148712 0.08241439610719681 1.1957370042800903
0.18819257616996765 0.11542956531047821 1.1190037727355957
0.18218734860420227 0.10558436810970306 1.0825320482254028
0.1384570151567459 -0.07331804931163788 1.2668269872665405
0.12579649686813354 -0.12017190456390381 1.2680327892303467
0.1600295454263687 -0.17456203699111938 0.8760133981704712
0.13985675573349 -0.1406468152999878 1.2713068723678589
0.15952029824256897 -0.14521950483322144 1.1559062004089355
0.1468471884727478 -0.061290960758924484 1.1618092060089111
0.15514589846134186 -0.1115761250257492 1.1314682960510254
0.2455470710992813 -0.1411479264497757 1.1570006608963013
0.2428041249513626 -0.06659704446792603 1.0349732637405396
0.2504800260066986 -0.14295054972171783 1.068326711654663
-0.12289382517337799 -0.25084808468818665 1.1520675420761108
-0.13047750294208527 -0.18325278162956238 1.2096309661865234
-0.14074037969112396 -0.17249161005020142 1.2285102605819702
-0.11166466772556305 -0.23429082334041595 1.1566075086593628
-0.13956433534622192 0.06305628269910812 1.4807112216949463
-0.14572396874427795 0.04936593770980835 1.4634957313537598
-0.15114672482013702 0.06585472077131271 1.4126882553100586
-0.15665024518966675 -0.016606464982032776 1.7396701574325562
-0.15409624576568604 -0.06307156383991241 1.6549112796783447
-0.14549599587917328 -0.025048933923244476 0.31474587321281433
-0.13141517341136932 -0.06873561441898346 0.8425211906433105
-0.12955084443092346 -0.0940203070640564 0.8227590322494507
-0.14903399348258972 0.12211169302463531 0.927727997303009
-0.08956101536750793 -0.14997756481170654 1.2662131786346436
-0.11565674096345901 -0.030227502807974815 0.8186458349227905
-0.10306315869092941 -0.022485636174678802 1.7944934368133545
-0.09040654450654984 -0.12886862456798553 1.144416093826294
-0.052464086562395096 -0.1906806230545044 1.1396077871322632
-0.07439093291759491 0.110538050532341 1.0512281656265259
0.01206282339990139 0.10750581324100494 1.0487760305404663
-0.06913100928068161 -0.023059425875544548 1.1664221286773682
-0.05207999050617218 -0.11372165381908417 0.8513911962509155
-0.04584381356835365 -0.1916862428188324 1.075286865234375
-0.0535266138613224 0.0214853473007679 1.0661323070526123
-0.032306890934705734 -0.13073952496051788 1.769120216369629
0.015248499810695648 -0.1219421923160553 0.771321177482605
-0.04870835691690445 0.06801655888557434 1.2807048559188843
0.055453237146139145 -0.24776576459407806 0.01902410015463829
0.12449940294027328 0.17397913336753845 0.9826228618621826
0.09315712749958038 0.11383873224258423 1.0699348449707031
0.05913184583187103 0.18977102637290955 0.9945239424705505
0.09632424265146255 0.09001147747039795 0.848688006401062
0.1287233531475067 -0.12766152620315552 0.029658444225788116
0.118718221783638 -0.03867544233798981 0.8360462784767151
0.11363469064235687 -0.19758710265159607 0.3932388722896576
0.12688389420509338 -0.12597449123859406 1.4094030857086182
0.11760756373405457 -0.13558527827262878 1.319931149482727
0.20162437856197357 -9.971484541893005e-05 0.8436213731765747
0.20823824405670166 -0.04037580266594887 0.9116611480712891
0.25011521577835083 -0.10826630145311356 1.0402553081512451
-0.2463458925485611 -0.12585672736167908 1.0959086418151855
-0.2034938484430313 -0.0891309306025505 0.9215804934501648
-0.21825850009918213 -0.0761088877916336 0.8626730442047119
-0.1519295871257782 0.04591507092118263 1.4115221500396729
-0.1510460525751114 0.0700809583067894 1.2358040809631348
-0.14260609447956085 -0.021825969219207764 1.5599439144134521
-0.1412258744239807 -0.0603790283203125 1.0558443069458008
-0.1412358582019806 -0.08841466903686523 1.0971543788909912
-0.1418740302324295 -0.017083995044231415 1.5601803064346313
-0.1385415941476822 -0.03379061818122864 1.5480282306671143
-0.13912828266620636 -0.025570720434188843 1.5556222200393677
-0.13976259529590607 -0.026249490678310394 1.5598663091659546
-0.14433501660823822 -0.04384832829236984 1.5498377084732056
-0.1216917559504509 -0.015100795775651932 0.1481523960828781
-0.15000231564044952 -0.09445620328187943 1.719918131828308
-0.03620339184999466 -0.021939875558018684 1.2240339517593384
-0.06524181365966797 0.008557379245758057 0.05599617213010788
-0.048727840185165405 -0.03690333291888237 1.2665156126022339
-0.0069620790891349316 -0.02369510382413864 1.1774930953979492
-0.04440968483686447 0.09441464394330978 0.9330687522888184
-0.036595702171325684 -0.02592262625694275 1.8135261535644531
-0.03449322283267975 -0.07905063033103943 0.6951119899749756
-0.02110452577471733 0.07246220856904984 1.2408075332641602
0.013174260035157204 -0.19442081451416016 1.0212219953536987
-0.023892449215054512 -0.20462539792060852 1.2378603219985962
0.02585795149207115 0.0969139114022255 1.1000254154205322
0.0604671947658062 -0.17068001627922058 0.19612769782543182
0.0742025077342987 -0.17506274580955505 1.0006613731384277
0.12265230715274811 -0.16618609428405762 0.9728916883468628
0.08041155338287354 0.0306917205452919 1.5561013221740723
0.077545166015625 -0.1685156226158142 1.1849128007888794
0.03979805111885071 -0.03003835305571556 1.1751257181167603
0.09934911876916885 -0.02044956386089325 1.0870084762573242
0.0830218493938446 0.06528015434741974 0.9566341042518616
0.11824353039264679 -0.3294898271560669 0.01973876543343067
0.09497726708650589 -0.3137214183807373 0.004094056785106659
0.14855539798736572 -0.30038559436798096 0.011572029441595078
0.14210128784179688 -0.24727588891983032 0.23677223920822144
0.11413689702749252 -0.0910840556025505 1.4908366203308105
0.11673685908317566 -0.0915236622095108 1.4914230108261108
0.10088921338319778 -0.09454383701086044 1.3397687673568726
0.1142912283539772 -0.12339227646589279 1.3119465112686157
0.19207701086997986 0.130268394947052 0.9986488223075867
0.18789134919643402 0.10131844878196716 0.9505718946456909
0.19890177249908447 0.10879972577095032 0.9480535984039307
0.25034409761428833 -0.05325210466980934 1.0387870073318481
0.26198363304138184 -0.12122230976819992 1.009959101676941
0.28540441393852234 -0.14074385166168213 0.9919251203536987
-0.20946356654167175 -0.04793380945920944 1.022560477256775
-0.1402047872543335 -0.21482150256633759 1.1927849054336548
-0.11848859488964081 -0.038084786385297775 0.34314021468162537
-0.10295841842889786 0.10517056286334991 0.9020853042602539
-0.10045743733644485 -0.1449466198682785 1.0931637287139893
-0.03440549224615097 -0.040908537805080414 0.8462558388710022
-0.052267495542764664 -0.029360853135585785 0.8078997731208801
-0.04420887678861618 -0.08286015689373016 0.8109543919563293
-0.0039143324829638 0.016636833548545837 1.111245036125183
0.02634251117706299 -0.20855870842933655 0.8478984832763672
0.09567415714263916 0.01742035523056984 0.8540624380111694
0.11181001365184784 0.11141255497932434 1.0289357900619507
0.10609406232833862 -0.0046486034989356995 1.5825140476226807
0.1157040148973465 0.01711209863424301 1.5541789531707764
0.19370359182357788 -0.10701998323202133 0.9207497239112854
-0.13960100710391998 -0.22280016541481018 1.1583789587020874
-0.1483115702867508 0.03477215766906738 1.5853327512741089
-0.07008525729179382 0.12200655043125153 0.9535670876502991
-0.12776650488376617 0.06937027722597122 1.612527847290039
-0.09781386703252792 0.03021405264735222 1.6077197790145874
-0.06163869798183441 0.021347522735595703 1.586480736732483
0.042499251663684845 -0.19294622540473938 1.077457070350647
0.06305012106895447 -0.1625957190990448 1.2739100456237793
0.07334715873003006 -0.24772599339485168 0.1645873486995697
0.10460670292377472 -0.1352970004081726 1.2325215339660645
0.11358988285064697 -0.11398385465145111 1.178902506828308
0.13241124153137207 0.049032267183065414 1.4379634857177734
0.11305081844329834 0.07913955301046371 1.4357311725616455
0.11652973294258118 -0.0672498494386673 1.1887245178222656
0.1193835660815239 -0.0810672789812088 0.8282943964004517
0.08501895517110825 -0.20220261812210083 1.2454040050506592
0.1475675404071808 0.07738291472196579 1.326672911643982
-0.1368904709815979 0.07248984277248383 1.3324819803237915
-0.10975072532892227 0.03180279955267906 0.37123310565948486
0.02859484776854515 -0.13559839129447937 0.7316438555717468
0.027310512959957123 -0.13230660557746887 1.7494583129882812
-0.16187797486782074 0.12357529997825623 1.0080451965332031
-0.1432970017194748 -0.12952491641044617 1.279470682144165
-0.07201921194791794 -0.014492657966911793 0.39595943689346313
0.00950750894844532 0.11184562742710114 1.4593799114227295
0.06851374357938766 -0.3117503225803375 0.02231268584728241
0.1046990156173706 -0.07157456874847412 1.547708511352539
0.10266390442848206 -0.07035180926322937 1.5445095300674438
0.1120791807770729 -0.09069446474313736 1.4455636739730835
0.13494442403316498 -0.23767229914665222 0.20303896069526672
0.14685098826885223 -0.19855494797229767 0.18528379499912262
0.16198186576366425 -0.15630388259887695 1.2038220167160034
-0.17673280835151672 -0.16400110721588135 0.9273843765258789
-0.1435234397649765 0.05780145525932312 1.370945930480957
-0.14206993579864502 0.055611833930015564 1.3724279403686523
-0.14857174456119537 0.05323563888669014 1.3723915815353394
-0.06690692156553268 0.019980136305093765 0.1963808536529541
-0.03304985165596008 -0.09516428411006927 0.8485274314880371
0.049717679619789124 -0.21153829991817474 0.15737800300121307
0.20128558576107025 -0.16153833270072937 1.1517002582550049
0.08969414979219437 -0.08360076695680618 1.6965713500976562
0.1319272667169571 -0.11921314895153046 0.7866719961166382
0.1497851461172104 0.042035605758428574 1.3925931453704834
0.15011119842529297 0.05824267491698265 1.347152829170227
0.060758959501981735 -0.15829846262931824 0.0188404843211174
0.2632969617843628 -0.533836305141449 0.9496325254440308
0.24809616804122925 -0.4980618953704834 0.9356232285499573
0.2528993487358093 -0.5076022148132324 0.9346020221710205
0.24301770329475403 -0.5099294781684875 0.9457220435142517
0.2534647285938263 -0.5314627885818481 0.940009593963623
0.2608622908592224 -0.5268625020980835 0.9552604556083679
0.26304271817207336 -0.3573536276817322 0.9633529186248779
0.24490118026733398 -0.36361145973205566 0.9578559994697571
0.2645260691642761 -0.38579699397087097 0.9600275754928589
0.2595595419406891 -0.397500604391098 0.9608566164970398
0.23785720765590668 -0.1722283512353897 0.9316256046295166
0.23793350160121918 -0.18906524777412415 0.9467751979827881
0.2349109649658203 -0.18326233327388763 0.921256422996521
0.24213261902332306 -0.3727206587791443 0.9203715920448303
0.24714107811450958 -0.3918161690235138 0.9316198229789734
0.27306699752807617 -0.4267314374446869 0.9767378568649292
0.26898011565208435 -0.41076451539993286 0.9673550724983215
0.22872191667556763 -0.220485121011734 0.8955549597740173
0.23475196957588196 -0.23270750045776367 0.9193166494369507
0.2671584486961365 -0.2814149260520935 0.9704976677894592
0.2578716576099396 -0.27396801114082336 0.9673725962638855
0.2753250300884247 -0.5062245726585388 0.9669427275657654
0.2564096450805664 -0.48124030232429504 0.9277921319007874
0.24105653166770935 -0.17918670177459717 0.9101990461349487
0.23592542111873627 -0.18488100171089172 0.9055683612823486
0.2781943082809448 0.02261778712272644 1.0293071269989014
0.2766945958137512 0.00834132730960846 1.0254939794540405
0.2673107087612152 0.027110837399959564 1.0093994140625
0.2669278085231781 -0.4529419243335724 0.9637795090675354
0.27025553584098816 -0.4808392822742462 0.9634029865264893
0.24232853949069977 -0.1826750934123993 0.9022454023361206
0.23654155433177948 -0.17898692190647125 0.8922452926635742
0.24930347502231598 -0.5490691065788269 0.8963857293128967
0.25091469287872314 -0.567477822303772 0.8985040187835693
0.279956191778183 0.037710241973400116 1.024627685546875
0.28104349970817566 0.02217177301645279 1.0337108373641968
0.2726828455924988 0.03916221857070923 1.0206676721572876
0.2712740898132324 0.03177206963300705 1.0079847574234009
0.2701471149921417 -0.6089328527450562 0.9437224864959717
0.28062278032302856 -0.6321890950202942 0.9509217143058777
0.26910877227783203 -0.6329816579818726 0.9328170418739319
0.2422620952129364 -0.3042878210544586 0.9062379598617554
0.24999211728572845 -0.3249380886554718 0.9017499685287476
0.23928435146808624 -0.3470788300037384 0.8958226442337036
0.24829427897930145 -0.3423490524291992 0.8885398507118225
0.2872373163700104 0.017654381692409515 1.0374799966812134
0.275174617767334 0.043057143688201904 1.0164446830749512
0.28675901889801025 -0.4495563507080078 0.9777156710624695
0.2898142337799072 -0.4496125876903534 0.9782131314277649
0.2802902162075043 -0.46832358837127686 0.9749952554702759
0.28790587186813354 -0.48706698417663574 0.9746374487876892
0.2437250316143036 -0.257715106010437 0.9026935696601868
0.24246208369731903 -0.2742859125137329 0.895715594291687
0.2393699735403061 -0.2786789834499359 0.8998260498046875
0.2822270691394806 0.04031433165073395 1.019454836845398
0.29019349813461304 0.01371292769908905 1.0333284139633179
0.2798181176185608 0.023923054337501526 1.0073530673980713
0.22671769559383392 -0.14316514134407043 0.8680668473243713
0.22568657994270325 -0.1495177447795868 0.859483003616333
0.23459960520267487 -0.16566725075244904 0.8816795945167542
0.23190844058990479 -0.15816301107406616 0.8714070916175842
0.2248256802558899 -0.15428097546100616 0.8714568018913269
0.2506009638309479 -0.37057363986968994 0.8796026706695557
0.2439887821674347 -0.3503507077693939 0.8804299831390381
0.24115535616874695 -0.3556029200553894 0.8675004243850708
0.23841385543346405 -0.3618088960647583 0.8671001195907593
0.284057080745697 0.01940259337425232 1.015339970588684
0.2874925434589386 -0.637954831123352 0.9536206126213074
0.2761283814907074 -0.6343991160392761 0.9339157342910767
0.28792905807495117 -0.648273766040802 0.946910560131073
0.28206488490104675 -0.6536396741867065 0.9497928023338318
0.2740035355091095 -0.6261217594146729 0.9233027100563049
0.26585549116134644 -0.1675681173801422 0.9182650446891785
0.2506641447544098 -0.1788538694381714 0.9041262865066528
0.2583213448524475 -0.5263777375221252 0.8869667649269104
0.2534855604171753 -0.5553576946258545 0.8924273252487183
0.26521018147468567 -0.5803807973861694 0.9015688300132751
0.2843738794326782 -0.26897716522216797 0.9677667617797852
0.2821478545665741 -0.2907181978225708 0.9648315906524658
0.2855713665485382 -0.2980957627296448 0.957162082195282
0.2920691668987274 -0.4405421018600464 0.9785919785499573
0.2889585793018341 -0.4495723843574524 0.9712038040161133
0.2935996651649475 -0.5086385011672974 0.9680214524269104
0.28270888328552246 -0.4102064371109009 0.9711312055587769
0.27121517062187195 -0.5021134614944458 0.9090458750724792
0.2676175832748413 -0.5375280380249023 0.9027483463287354
0.2866073548793793 -0.26685744524002075 0.9610090255737305
0.2864972949028015 -0.4177477955818176 0.9480692744255066
0.29213520884513855 -0.39887818694114685 0.9445986151695251
0.2909758687019348 -0.43581968545913696 0.9493962526321411
0.27900049090385437 -0.5955329537391663 0.9301694631576538
0.28191685676574707 -0.5821097493171692 0.921419084072113
0.2614591717720032 -0.39831864833831787 0.9020941853523254
0.2796112596988678 -0.40318992733955383 0.9135138392448425
0.27168765664100647 -0.4230986535549164 0.9157661199569702
0.2813500761985779 -0.42600589990615845 0.9245214462280273
0.2867636978626251 -0.3430277705192566 0.9505988359451294
0.28205791115760803 -0.38303112983703613 0.9478468894958496
0.2871881127357483 -0.5021443367004395 0.9469687938690186
0.29040196537971497 -0.5249577760696411 0.938310980796814
0.285321444272995 -0.5303930044174194 0.9459702372550964
0.2834379971027374 -0.4873132109642029 0.9226623773574829
0.2819989025592804 -0.49656540155410767 0.9159890413284302
0.2705020010471344 -0.3583603501319885 0.9111524820327759
0.27118098735809326 -0.37480032444000244 0.9091695547103882
0.26603934168815613 -0.3421783149242401 0.9002519845962524
0.26556891202926636 -0.3659510314464569 0.9022518396377563
0.2671511769294739 -0.3872787654399872 0.9100161790847778
0.2787321209907532 -0.3356552720069885 0.924441933631897
0.28250810503959656 -0.32156267762184143 0.9308338165283203
0.26604118943214417 -0.30626654624938965 0.9087910056114197
0.27447304129600525 -0.32064738869667053 0.9194515943527222
0.2807992100715637 -0.5080429315567017 0.9201589226722717
0.2865216135978699 -0.5293372869491577 0.9213470220565796
0.2807431221008301 -0.5172469019889832 0.9207019805908203
0.2986138164997101 -0.5207210779190063 0.9189092516899109
0.2801074683666229 -0.18878662586212158 0.9249861240386963
0.24514111876487732 -0.480475515127182 0.9577699899673462
0.24164888262748718 -0.4938391447067261 0.9466524124145508
0.2513061761856079 -0.4061357378959656 0.9548742175102234
0.2463711053133011 -0.4049624800682068 0.9514580368995667
0.24685102701187134 -0.42571794986724854 0.9607035517692566
0.2406759262084961 -0.41275420784950256 0.9473006725311279
0.24592043459415436 -0.4275592863559723 0.9547723531723022
0.24879904091358185 -0.3660637140274048 0.937382161617279
0.24671496450901031 -0.3768101930618286 0.9364796876907349
0.24626989662647247 -0.3420823812484741 0.9404308795928955
0.25474122166633606 -0.4261997938156128 0.9592811465263367
0.249704048037529 -0.5071744322776794 0.9089882373809814
0.2510932683944702 -0.526819109916687 0.9366747140884399
0.24704036116600037 -0.40398505330085754 0.9268338084220886
0.256381094455719 -0.5544204711914062 0.9400119781494141
0.2585816979408264 -0.5782754421234131 0.9329582452774048
0.2545963227748871 -0.5601804852485657 0.9306833744049072
0.26044732332229614 -0.5990700125694275 0.9401559829711914
0.2508419156074524 -0.16465122997760773 0.9488102793693542
0.2816433608531952 -0.22957906126976013 1.0043432712554932
0.27390167117118835 -0.2349577099084854 0.9958102703094482
0.2844820022583008 -0.23919227719306946 0.9999097585678101
0.24210499227046967 -0.2557838559150696 0.9138768911361694
0.2653735876083374 0.019037358462810516 0.9989936351776123
0.2823600471019745 -0.004978567361831665 1.0356125831604004
0.2798976004123688 -0.019114505499601364 1.0270814895629883
0.27281031012535095 -0.016048051416873932 1.0215164422988892
0.2765435576438904 -0.3649532198905945 0.9641703367233276
0.2852148711681366 -0.5242937207221985 0.9763013124465942
0.2611844539642334 -0.5987091660499573 0.916871964931488
0.2583794891834259 -0.05216129124164581 0.9800583124160767
0.26317572593688965 -0.0825321301817894 0.9607043266296387
0.2788715660572052 -0.3390774726867676 0.9753457903862
0.27330899238586426 -0.3457484841346741 0.9672494530677795
0.27257004380226135 -0.39151322841644287 0.9631887674331665
0.2631227672100067 -0.607134997844696 0.9157711863517761
0.2813664376735687 -0.6424815654754639 0.9572288393974304
0.27970314025878906 -0.6551578044891357 0.9592151641845703
0.274560809135437 -0.6444852352142334 0.9410771727561951
0.25723138451576233 -0.13499338924884796 0.9529411792755127
0.26230740547180176 -0.160708948969841 0.9453198909759521
0.2825162708759308 -0.3906451463699341 0.959511935710907
0.24322950839996338 -0.1658821552991867 0.9268990755081177
0.25654304027557373 -0.5759766697883606 0.8996865749359131
0.29629385471343994 -0.18609341979026794 1.0263569355010986
0.2980567216873169 -0.183600515127182 1.0242258310317993
0.29119178652763367 -0.19380265474319458 1.0104237794876099
0.2971153259277344 -0.20431795716285706 1.0160771608352661
0.3015659749507904 -0.21783152222633362 1.0165441036224365
0.2746780812740326 -0.19011402130126953 0.9910473823547363
0.2875734865665436 -0.19123011827468872 0.992053747177124
0.2836504280567169 -0.6562376022338867 0.9601213932037354
0.26044371724128723 -0.41385453939437866 0.905333936214447
0.259033203125 -0.4284883141517639 0.9086459279060364
0.2565229833126068 -0.43359169363975525 0.9092430472373962
0.250992089509964 -0.3903807997703552 0.8958085775375366
0.3019349277019501 -0.19974133372306824 1.0149378776550293
0.302374005317688 -0.21647152304649353 1.0131944417953491
0.2461167275905609 -0.18343469500541687 0.8915190696716309
0.30179399251937866 -0.1921507865190506 1.015814185142517
0.2982980012893677 -0.1968800276517868 1.0057775974273682
0.288551390171051 -0.43049028515815735 0.9723628759384155
0.2368270754814148 -0.1835487335920334 0.8650891780853271
0.23328827321529388 -0.1798192709684372 0.8611960411071777
0.22644436359405518 -0.18920134007930756 0.8464343547821045
0.22923554480075836 -0.20511843264102936 0.8502824306488037
0.2743057310581207 -0.16445690393447876 0.9405086040496826
0.29824215173721313 -0.22415415942668915 0.995664119720459
0.2862352728843689 -0.451485812664032 0.9542816281318665
0.2861465513706207 -0.4754001796245575 0.9556270241737366
0.24856901168823242 -0.19511933624744415 0.8843815326690674
0.2533033788204193 -0.20791880786418915 0.8820425271987915
0.23808129131793976 -0.19930554926395416 0.8720084428787231
0.2902029752731323 -0.47311753034591675 0.9466114044189453
0.2908565402030945 -0.4497683644294739 0.9401774406433105
0.2832243740558624 -0.45563820004463196 0.9273542761802673
0.28377631306648254 -0.4338204860687256 0.9283573627471924
0.269037663936615 -0.5536593794822693 0.9088978171348572
0.27931633591651917 -0.5571988821029663 0.9141069650650024
0.2635527551174164 -0.20062784850597382 0.9007688760757446
0.28379613161087036 -0.210584819316864 0.9460188150405884
0.28442251682281494 -0.23735608160495758 0.9354576468467712
0.27895569801330566 -0.2248641699552536 0.9283327460289001
0.28140881657600403 -0.2542431652545929 0.9347589015960693
0.2767432928085327 -0.2628057599067688 0.922822117805481
0.28875306248664856 -0.47711947560310364 0.9285797476768494
0.29328927397727966 -0.4652787148952484 0.9250373840332031
0.2973969578742981 -0.510079026222229 0.9324074983596802
0.2999512851238251 -0.39446181058883667 0.9326924681663513
0.2959720194339752 -0.4268648624420166 0.9369649291038513
0.28981348872184753 -0.40058839321136475 0.9347155690193176
0.2871640622615814 -0.41030454635620117 0.9235942959785461
0.29263362288475037 -0.42264097929000854 0.9311524629592896
0.28822505474090576 -0.40691864490509033 0.9353712797164917
0.2946925759315491 -0.4276893734931946 0.9295629858970642
0.2980693280696869 -0.5211791396141052 0.9255198240280151
0.2933734655380249 -0.5103732943534851 0.9177358150482178
0.2478886991739273 -0.5034551024436951 0.9606888890266418
0.24507495760917664 -0.5223655104637146 0.9549940824508667
0.24505147337913513 -0.49818286299705505 0.9420806765556335
0.24745304882526398 -0.5216413140296936 0.946328341960907
0.2642695903778076 -0.21960026025772095 0.9926773309707642
0.23615242540836334 -0.19573821127414703 0.9301353693008423
0.2314370572566986 -0.21046900749206543 0.921605110168457
0.24946242570877075 -0.18315693736076355 0.9727705121040344
0.2639560103416443 -0.48687976598739624 0.957673192024231
0.2552149295806885 -0.46130838990211487 0.9376559257507324
0.24367424845695496 -0.25531333684921265 0.9400700330734253
0.2407049983739853 -0.2610809803009033 0.9249253273010254
0.25842511653900146 -0.23687855899333954 0.9805985689163208
0.26324227452278137 -0.25764334201812744 0.9734369516372681
0.2550165355205536 -0.45118439197540283 0.9387636184692383
0.26956596970558167 -0.5038495063781738 0.9589002728462219
0.24995793402194977 -0.29147109389305115 0.9280052185058594
0.24709074199199677 -0.3309062123298645 0.9345797300338745
0.24446171522140503 -0.3124513626098633 0.9190362095832825
0.24975690245628357 -0.4258846640586853 0.9332740306854248
0.26890265941619873 -0.5835603475570679 0.9474433660507202
0.26856791973114014 -0.6211832761764526 0.9426435828208923
0.263714998960495 -0.6125738620758057 0.9250723719596863
0.2814213037490845 -0.21809841692447662 1.0168664455413818
0.2845318019390106 -0.25402921438217163 1.0018789768218994
0.2685833275318146 -0.3025938868522644 0.9691322445869446
0.2728153169155121 -0.32875877618789673 0.9703439474105835
0.24324914813041687 -0.3272092342376709 0.9098637104034424
0.2899687886238098 -0.2706024646759033 1.0061227083206177
0.27201220393180847 -0.2465478777885437 0.979878842830658
0.27100980281829834 -0.264495313167572 0.9745922088623047
0.28213897347450256 -0.5442428588867188 0.9683470726013184
0.27834194898605347 -0.5712144374847412 0.9554604291915894
0.25428909063339233 -0.4351066052913666 0.9162701964378357
0.26898545026779175 -0.10725816339254379 0.9851047396659851
0.26574280858039856 -0.09111594408750534 0.9903135895729065
0.24003712832927704 -0.3528527617454529 0.8822118043899536
0.28183144330978394 -0.31997233629226685 0.96580570936203
0.2877545654773712 -0.33838051557540894 0.9764530658721924
0.28264477849006653 -0.5396934151649475 0.9701663255691528
0.2860197424888611 -0.5431952476501465 0.9670807719230652
0.2815978229045868 -0.55767822265625 0.9616193771362305
0.2401704490184784 -0.2121056318283081 0.8798058032989502
0.24009564518928528 -0.23123258352279663 0.8759856224060059
0.23043440282344818 -0.23061135411262512 0.8783320784568787
0.2294662743806839 -0.20959240198135376 0.8769983053207397
0.2374625951051712 -0.20434966683387756 0.8730587959289551
0.2281988114118576 -0.20581088960170746 0.8567204475402832
0.24226100742816925 -0.2458551675081253 0.8956155776977539
0.22121265530586243 -0.20410040020942688 0.8556454181671143
0.21995744109153748 -0.21405741572380066 0.8424569368362427
0.27567219734191895 -0.1716061681509018 0.9685463905334473
0.27952632308006287 -0.18017831444740295 0.9694927930831909
0.2579260766506195 -0.16476237773895264 0.9403650760650635
0.29107654094696045 -0.2247641235589981 1.0068140029907227
0.2880585193634033 -0.23423385620117188 0.9964785575866699
0.2964039444923401 -0.4458923935890198 0.9910566806793213
0.29478129744529724 -0.4413769543170929 0.9926047325134277
0.28738871216773987 -0.43402785062789917 0.9811115860939026
0.22709637880325317 -0.20649388432502747 0.8409323692321777
0.22303403913974762 -0.1905696541070938 0.8467698097229004
0.24264352023601532 -0.24584585428237915 0.8916876316070557
0.2602909803390503 -0.48513275384902954 0.9085966944694519
0.2569431960582733 -0.5059210062026978 0.9000744223594666
0.2956086993217468 -0.199995756149292 0.9880082607269287
0.2764230966567993 -0.15451492369174957 0.9700014591217041
0.2848244905471802 -0.5244238376617432 0.9516649842262268
0.24926532804965973 -0.3518826365470886 0.8839312791824341
0.2787242829799652 -0.016417942941188812 0.98529052734375
0.27870413661003113 -0.03153195232152939 0.9797784090042114
0.2550637722015381 -0.35580262541770935 0.8882648944854736
0.2801024913787842 -0.14109665155410767 0.9589664340019226
0.2822245657444 -0.16185685992240906 0.9587648510932922
0.27414700388908386 -0.15886430442333221 0.9482171535491943
0.2849085330963135 -0.47533124685287476 0.9264238476753235
0.2659960985183716 -0.17903748154640198 0.9105608463287354
