-0.32428327202796936 0.021132715046405792 0.7763625979423523
-0.318845272064209 -0.002328038215637207 0.7313856482505798
-0.30291712284088135 -0.027917321771383286 0.7390799522399902
-0.4038792550563812 0.09791650623083115 1.0532180070877075
-0.23283717036247253 -0.11309763789176941 0.6227250099182129
-0.20085179805755615 -0.1280595064163208 0.5441755652427673
-0.4377836585044861 0.08565908670425415 1.161786437034607
-0.4335266351699829 0.0897902175784111 1.0795823335647583
-0.3868522346019745 0.08804640173912048 1.0298582315444946
-0.45852482318878174 0.09820248186588287 1.181244969367981
-0.44347500801086426 0.1413382589817047 1.117114543914795
-0.3039681911468506 -0.059272173792123795 0.8226926326751709
-0.48010632395744324 0.1571969985961914 1.3159496784210205
-0.4364481568336487 0.1289985477924347 1.2599977254867554
-0.19183431565761566 -0.011595070362091064 0.6706315279006958
-0.16406460106372833 -0.021967362612485886 0.5855462551116943
-0.265042245388031 0.021752648055553436 0.8074544072151184
-0.1423519104719162 -0.04892624542117119 0.5782522559165955
-0.3085815906524658 0.029435593634843826 0.978209376335144
-0.31010758876800537 0.002385929226875305 0.9106667041778564
-0.2664533257484436 0.021122988313436508 0.873762845993042
-0.2587757110595703 0.022622838616371155 0.9229409694671631
-0.2527090311050415 0.043130822479724884 0.9260966181755066
-0.30203914642333984 0.03189577907323837 1.0019292831420898
-0.4355747103691101 0.10365361720323563 1.382563829421997
-0.4631829857826233 0.14785338938236237 1.4067916870117188
-0.27347469329833984 0.05980387330055237 1.0252810716629028
-0.3598588705062866 0.10203219950199127 1.1844795942306519
-0.3704230785369873 0.06847561150789261 1.1620675325393677
-0.41708725690841675 0.10145232081413269 1.4948432445526123
-0.4013919532299042 0.09516125917434692 1.3743572235107422
-0.4370275139808655 0.13802173733711243 1.4721205234527588
-0.29994508624076843 0.058640576899051666 1.1148194074630737
-0.3004859983921051 0.08535632491111755 1.129897117614746
-0.28574103116989136 0.05627039074897766 1.0790517330169678
-0.27703267335891724 0.06382861733436584 1.0720398426055908
-0.35111314058303833 0.11896605044603348 1.3189330101013184
-0.31563711166381836 0.10658003389835358 1.2590022087097168
-0.31609871983528137 0.08076511323451996 1.4315414428710938
-0.2063772976398468 0.060512199997901917 1.0790995359420776
-0.370583713054657 0.12484575808048248 1.5135008096694946
-0.2463146150112152 0.06290239095687866 1.4117599725723267
-0.2790175676345825 0.10528630018234253 1.4034281969070435
-0.22892895340919495 0.057651910930871964 1.3442013263702393
-0.2136908918619156 0.08726787567138672 1.3394300937652588
-0.1838790476322174 0.07104500383138657 1.2530863285064697
-0.15456704795360565 0.05125077813863754 1.2200260162353516
0.187022864818573 -0.016444329172372818 1.1877219676971436
0.1650272011756897 -0.033729374408721924 1.1983129978179932
0.19711528718471527 -0.03394667059183121 1.1522417068481445
0.21495321393013 -0.016009332612156868 1.3245829343795776
0.17966516315937042 -0.04382187873125076 1.252974271774292
0.19355836510658264 -0.02033119648694992 1.2610764503479004
0.24314963817596436 -0.027903571724891663 1.2122634649276733
0.24788887798786163 -0.05888495594263077 1.2031354904174805
0.2565757632255554 -0.03941204398870468 1.116870641708374
0.2686532437801361 -0.04587605968117714 1.0889005661010742
0.2507839798927307 -0.0529898926615715 1.1190109252929688
0.26812463998794556 -0.05787334591150284 1.097796082496643
0.2961899936199188 -0.048538483679294586 1.1035765409469604
0.2557884454727173 -0.013956855051219463 1.4751042127609253
0.2473827600479126 -0.043860793113708496 1.4374617338180542
0.33489322662353516 -0.05801552161574364 1.0830458402633667
0.3104041814804077 -0.07797248661518097 1.0936015844345093
0.2925671935081482 -0.05769398808479309 1.1090683937072754
0.32208937406539917 -0.06514599919319153 1.0770957469940186
0.3539758026599884 -0.07489407062530518 1.043959379196167
0.277187705039978 -0.05873672664165497 1.3470771312713623
0.38107773661613464 -0.06805270910263062 1.1712584495544434
0.3224855065345764 -0.08967624604701996 1.1132525205612183
0.33278343081474304 -0.06794708222150803 1.1270655393600464
0.3605899214744568 -0.05257416516542435 1.3049882650375366
0.3554908037185669 -0.08741309493780136 1.1631441116333008
0.40034744143486023 -0.0847037062048912 1.0853769779205322
0.390659898519516 -0.06997113674879074 1.132752537727356
0.38467100262641907 -0.08524630218744278 1.1036242246627808
0.38015180826187134 -0.11002256721258163 1.1299604177474976
0.3720024824142456 -0.05529826879501343 1.3496073484420776
0.3904939293861389 -0.07340972870588303 1.2370061874389648
0.36619460582733154 -0.09580092132091522 1.2568955421447754
0.3595559597015381 -0.07148495316505432 1.4824697971343994
0.4140581786632538 -0.09056739509105682 1.125722885131836
0.39121055603027344 -0.04878731817007065 1.4574129581451416
0.40304410457611084 -0.07121254503726959 1.3970513343811035
0.40728920698165894 -0.08666832745075226 1.4463075399398804
0.4759281277656555 -0.15665927529335022 0.9282354116439819
0.43199843168258667 -0.10488490760326385 1.379748821258545
0.4599553346633911 -0.11105082929134369 1.337301254272461
0.45217907428741455 -0.08203670382499695 1.291032314300537
0.451951265335083 -0.13124477863311768 1.1935240030288696
0.4662975072860718 -0.1005256250500679 1.1937904357910156
0.4772513806819916 -0.08588092774152756 1.3003308773040771
0.48818615078926086 -0.09973596036434174 1.2374688386917114
0.5091336369514465 -0.12288541346788406 1.1745007038116455
0.5128986835479736 -0.08836335688829422 1.3251292705535889
0.5103909373283386 -0.11581512540578842 1.2976082563400269
0.4977228343486786 -0.269806444644928 0.781165361404419
0.520135223865509 -0.29182398319244385 0.6441102623939514
0.564708948135376 -0.24582409858703613 0.6330392360687256
0.5312342047691345 -0.2449248731136322 0.6657089591026306
0.5380117297172546 -0.18686988949775696 0.9825931191444397
0.5410270690917969 -0.18604081869125366 0.9411548376083374
0.5536521673202515 -0.12613365054130554 1.1667982339859009
0.6097736954689026 -0.18916353583335876 0.670333743095398
0.5948123931884766 -0.1864931285381317 0.7392829060554504
0.6185275316238403 -0.19359396398067474 0.9339125752449036
0.6381984353065491 -0.22026927769184113 0.8374245762825012
0.5890526175498962 -0.21326306462287903 0.847053587436676
0.6134577989578247 -0.23504936695098877 0.8581219911575317
-0.3674662113189697 0.013972058892250061 0.6939157843589783
-0.3641325831413269 -0.002879280596971512 0.7067403793334961
-0.4794585108757019 0.13987961411476135 1.0491280555725098
-0.4754110276699066 0.1516123116016388 1.059029221534729
-0.4492185115814209 0.12882542610168457 1.0134923458099365
-0.3948923945426941 0.08162684738636017 0.9223142266273499
-0.3927499055862427 0.07930341362953186 0.9721267223358154
-0.3928491473197937 0.04641927033662796 0.8808927536010742
-0.3536109924316406 0.05550868436694145 0.8883395791053772
-0.4098888039588928 0.06298432499170303 1.0227290391921997
-0.4710974097251892 0.11861208081245422 1.182673692703247
-0.45990848541259766 0.11569339036941528 1.1440523862838745
-0.22298258543014526 -0.0023770518600940704 0.712295651435852
-0.25564369559288025 0.002844754606485367 0.6539371609687805
-0.1997370719909668 -0.01594126597046852 0.5929639935493469
-0.44549885392189026 0.1336018443107605 1.1905262470245361
-0.4885193109512329 0.127909854054451 1.2308013439178467
-0.2926679253578186 -0.03321210294961929 0.781491756439209
-0.2818627953529358 -0.04457777366042137 0.7665692567825317
-0.21269826591014862 -0.07942773401737213 0.6088408827781677
-0.19200707972049713 -0.10684563219547272 0.5651544332504272
-0.31077563762664795 0.04386139288544655 0.899940550327301
-0.5121158957481384 0.15016378462314606 1.3341751098632812
-0.32813403010368347 0.05052482336759567 0.9412299394607544
-0.2859228253364563 0.04654697701334953 0.8726192712783813
-0.35600200295448303 0.027431488037109375 0.9701892137527466
-0.347806453704834 0.01972510665655136 0.9477366209030151
-0.3001561760902405 0.05436548590660095 0.9622821807861328
-0.3777480721473694 0.054535623639822006 1.0592784881591797
-0.256639689207077 0.020104311406612396 0.8300676345825195
-0.2288091480731964 -0.003277938812971115 0.7660355567932129
-0.40740251541137695 0.10753341019153595 1.1282058954238892
-0.35020726919174194 0.07859963178634644 1.0764737129211426
-0.3490417003631592 0.049929991364479065 1.0402692556381226
-0.4720877408981323 0.13631871342658997 1.3981409072875977
-0.43701067566871643 0.08552282303571701 1.2094831466674805
-0.3501521050930023 0.05861568823456764 1.1251208782196045
-0.4639688730239868 0.12315808236598969 1.459277629852295
-0.3931064009666443 0.13324403762817383 1.3619046211242676
-0.39903712272644043 0.08785741031169891 1.249842643737793
-0.28504708409309387 0.06746469438076019 1.068640947341919
-0.31169450283050537 0.05094592273235321 1.0815322399139404
-0.38045474886894226 0.11671841144561768 1.2503734827041626
-0.3416884243488312 0.10426852107048035 1.1924786567687988
-0.3547004163265228 0.12404054403305054 1.432376742362976
-0.3308715224266052 0.07756731659173965 1.2593194246292114
-0.2791626751422882 0.05783163383603096 1.1818339824676514
-0.2645578384399414 0.08036596328020096 1.1780585050582886
-0.24590975046157837 0.06836429238319397 1.1140131950378418
-0.24985970556735992 0.05168947950005531 1.2155585289001465
-0.22440704703330994 0.07028397917747498 1.1239407062530518
-0.32143473625183105 0.11489531397819519 1.346804141998291
-0.28432515263557434 0.07569211721420288 1.3151293992996216
-0.18598239123821259 0.05642241984605789 1.1202595233917236
-0.17087528109550476 0.057858437299728394 1.1459022760391235
-0.20712000131607056 0.08033213764429092 1.4122167825698853
-0.19784769415855408 0.043646227568387985 1.2586774826049805
0.22121062874794006 -0.05034942924976349 1.1351045370101929
0.17039579153060913 -0.006714658811688423 1.4068440198898315
0.2831229865550995 -0.03389841318130493 1.1713844537734985
0.27075088024139404 -0.05614757537841797 1.1642645597457886
0.27798211574554443 -0.03851890563964844 1.1047614812850952
0.3104993402957916 -0.044307030737400055 1.276555061340332
0.3098720908164978 -0.07523404061794281 1.198312759399414
0.3652336299419403 -0.0677272155880928 1.0489004850387573
0.34625211358070374 -0.040078237652778625 1.4207005500793457
0.3711951971054077 -0.10471655428409576 1.1588141918182373
0.43048784136772156 -0.07583007961511612 1.3617990016937256
0.49125710129737854 -0.16487832367420197 0.8398279547691345
0.5088270902633667 -0.15900513529777527 0.8206408023834229
0.5123218297958374 -0.17599517107009888 0.7091273069381714
0.518756091594696 -0.18097911775112152 0.6355149745941162
0.5064860582351685 -0.1969333291053772 0.6503251791000366
0.4934006929397583 -0.1219344362616539 1.11142897605896
0.5325563549995422 -0.1671372950077057 0.7146914601325989
0.5325087904930115 -0.17342138290405273 0.6407573223114014
0.47774538397789 -0.20852360129356384 0.8948979377746582
0.4722682535648346 -0.21859095990657806 0.9458446502685547
0.45671942830085754 -0.23638367652893066 0.9160910248756409
0.48556584119796753 -0.22537542879581451 0.8469738364219666
0.5598168969154358 -0.17413127422332764 0.7394092082977295
0.5613943934440613 -0.18860751390457153 0.6577663421630859
0.5421397089958191 -0.17288967967033386 0.9072750210762024
0.4972008764743805 -0.2153633087873459 0.8896149396896362
0.5201722383499146 -0.23658934235572815 0.8355267643928528
0.4879247844219208 -0.23386603593826294 0.8969271183013916
0.49887460470199585 -0.26482057571411133 0.8263840079307556
0.5045827031135559 -0.19637566804885864 0.962943971157074
0.542839527130127 -0.2124505639076233 0.9116047620773315
0.5486682653427124 -0.2539360821247101 0.6745203137397766
0.5282399654388428 -0.28134655952453613 0.6180188655853271
0.580798327922821 -0.2148558795452118 0.6233518123626709
0.5514624714851379 -0.1686556190252304 0.9813751578330994
0.5599102973937988 -0.19815397262573242 0.771227240562439
0.527555525302887 -0.2668714225292206 0.7434428334236145
0.5537720918655396 -0.26117628812789917 0.7347710132598877
0.5843533277511597 -0.25572264194488525 0.6534304618835449
0.5993073582649231 -0.18816496431827545 0.9142352342605591
0.6179788112640381 -0.18918339908123016 0.8802410960197449
0.618781328201294 -0.22715163230895996 0.7098954319953918
0.6131415963172913 -0.23879514634609222 0.7306095361709595
0.5503495335578918 -0.14560729265213013 1.0805435180664062
0.6399863958358765 -0.15016742050647736 1.0316146612167358
0.6010828018188477 -0.16669946908950806 1.0265352725982666
0.6056703329086304 -0.1312427818775177 1.2172155380249023
0.6009311676025391 -0.13270191848278046 1.1729239225387573
0.597379744052887 -0.12911096215248108 1.1683976650238037
0.5973014235496521 -0.14804743230342865 1.1554570198059082
0.6297945380210876 -0.14660006761550903 1.0894197225570679
0.6186459064483643 -0.15190453827381134 1.1085697412490845
-0.4178832173347473 0.0894075483083725 0.8549631834030151
-0.417285680770874 0.06800251454114914 0.8711093068122864
-0.41281265020370483 0.04358191788196564 0.8423773050308228
-0.2129177451133728 -0.059635140001773834 0.5798478126525879
-0.20407359302043915 -0.10702808201313019 0.5487151145935059
-0.2787843346595764 -0.04269580915570259 0.7625659704208374
-0.28040382266044617 -0.05299219489097595 0.7077335119247437
-0.2908029854297638 -0.07660676538944244 0.7498524188995361
-0.2607629597187042 -0.0864587128162384 0.6399285793304443
-0.2292202115058899 -0.07292365282773972 0.6507235765457153
-0.21759282052516937 -0.10147497057914734 0.6224755644798279
-0.33303236961364746 0.0006813220679759979 0.8994345664978027
-0.31089961528778076 -0.031960103660821915 0.8557944297790527
-0.32041478157043457 -0.014868713915348053 0.8523669242858887
-0.24757970869541168 -0.08791366219520569 0.6884542107582092
-0.24090713262557983 -0.06554191559553146 0.6885502338409424
-0.2817261219024658 -0.06207891181111336 0.7824891805648804
-0.26897022128105164 -0.048822902143001556 0.7360607385635376
-0.36960405111312866 0.08487479388713837 1.0370324850082397
-0.26458558440208435 0.035555433481931686 0.8916524052619934
-0.23891687393188477 0.025219641625881195 0.9364558458328247
-0.23637816309928894 0.04516569525003433 0.9319829940795898
-0.33537718653678894 0.04695596918463707 1.075413703918457
-0.27156537771224976 0.04610009118914604 1.0235120058059692
-0.24600383639335632 0.05093630030751228 0.965998649597168
-0.24369795620441437 0.03145643696188927 0.9593253135681152
-0.3236316740512848 0.08130089193582535 1.313286304473877
-0.24940374493598938 0.06398335099220276 1.0574308633804321
-0.24703942239284515 0.041031613945961 1.1037323474884033
-0.22502648830413818 0.06521037966012955 1.0643727779388428
-0.1913187950849533 0.04121413826942444 1.1126610040664673
-0.19972068071365356 0.058774180710315704 1.0819813013076782
-0.16380171477794647 0.046488262712955475 1.1745535135269165
0.41813695430755615 -0.0946335718035698 1.0399291515350342
0.40953460335731506 -0.06400219351053238 1.521332859992981
0.4849666655063629 -0.1333959996700287 1.00041925907135
0.4402126669883728 -0.10035830736160278 0.9834000468254089
0.45341962575912476 -0.1405106782913208 0.9779441356658936
0.46367132663726807 -0.12799517810344696 0.9714802503585815
0.44747650623321533 -0.10283613204956055 1.1739099025726318
0.4568251371383667 -0.1749069094657898 1.0004818439483643
0.47003379464149475 -0.189346045255661 0.9452635645866394
0.45203709602355957 -0.2102409452199936 0.9683695435523987
0.4580031931400299 -0.21009649336338043 0.9397245049476624
0.47536495327949524 -0.19938239455223083 0.8870742917060852
0.5088694095611572 -0.21877028048038483 0.6889508962631226
0.520128607749939 -0.22568458318710327 0.6380977630615234
0.5491765141487122 -0.21714918315410614 0.6257383823394775
0.5075333118438721 -0.1607791781425476 0.9807156920433044
0.5181875824928284 -0.16333043575286865 0.9445673823356628
0.49431663751602173 -0.21461039781570435 0.9183660745620728
0.4846011698246002 -0.2235340029001236 0.8797209858894348
0.4700472056865692 -0.24873438477516174 0.8482518792152405
0.4777511954307556 -0.1313534528017044 1.28458833694458
0.5620165467262268 -0.18488135933876038 0.9124047756195068
0.5859783887863159 -0.20242801308631897 0.8655610084533691
0.5548858046531677 -0.1792198270559311 1.036757469177246
0.6019735336303711 -0.265204519033432 0.6929230093955994
0.6106557846069336 -0.2291741520166397 0.6583282351493835
0.580177366733551 -0.21495434641838074 0.8947772979736328
0.5847792625427246 -0.22889280319213867 0.8439812660217285
0.6662904620170593 -0.17908163368701935 1.0201387405395508
0.617841362953186 -0.21349292993545532 0.9818400144577026
0.6368461847305298 -0.19556057453155518 0.9763468503952026
0.6452345848083496 -0.2276097536087036 0.8471595644950867
0.650321900844574 -0.21139560639858246 0.8576850295066833
-0.4629380702972412 0.12976109981536865 1.01805579662323
-0.2224029302597046 -0.051132217049598694 0.5239149332046509
-0.3397368788719177 -0.00400664284825325 0.8347121477127075
-0.31953510642051697 -0.026827968657016754 0.8094989061355591
-0.35900700092315674 0.028134074062108994 0.8762819170951843
-0.4790131449699402 0.12927797436714172 1.3230664730072021
-0.34079045057296753 0.06135707348585129 0.9124836921691895
-0.3283708095550537 0.041194867342710495 0.8863794803619385
-0.1720333993434906 -0.06691966205835342 0.5652427077293396
-0.15956364572048187 -0.04200807213783264 0.5610783696174622
-0.29654181003570557 -0.016421567648649216 0.857784628868103
-0.2803526222705841 -0.03843970224261284 0.8053980469703674
-0.2940215468406677 -0.03406032919883728 0.8473338484764099
-0.4607541859149933 0.10699015855789185 1.2779695987701416
-0.4098791778087616 0.1134561076760292 1.178525686264038
-0.21294689178466797 0.07586953788995743 1.1808202266693115
0.14472121000289917 -0.017384938895702362 1.2247389554977417
0.1302207112312317 -0.028906647115945816 1.2321109771728516
0.22638775408267975 -0.05635341256856918 1.1715573072433472
0.2315462827682495 -0.042099982500076294 1.1017351150512695
0.30041682720184326 -0.044253092259168625 1.2113324403762817
0.3553515374660492 -0.07167042791843414 1.0948996543884277
0.34575754404067993 -0.08487214148044586 1.0805513858795166
0.4034443497657776 -0.10644800961017609 1.2227579355239868
0.42430564761161804 -0.11437733471393585 1.30101478099823
0.4382114112377167 -0.1361735612154007 1.1186702251434326
0.4651376008987427 -0.24157115817070007 0.8533900380134583
0.5013990998268127 -0.23708242177963257 0.8037840127944946
0.4879438579082489 -0.2623158097267151 0.7616235613822937
0.510037362575531 -0.24602143466472626 0.7100053429603577
0.5100686550140381 -0.17532947659492493 1.042995810508728
0.5345774292945862 -0.28991079330444336 0.6394328474998474
-0.40584224462509155 0.0532233864068985 0.86691814661026
-0.2115427553653717 -0.02983934059739113 0.7163475155830383
-0.18517598509788513 -0.044295936822891235 0.6658147573471069
-0.48910561203956604 0.13295581936836243 1.4276885986328125
-0.24600903689861298 0.0594816580414772 1.0460119247436523
-0.23323339223861694 0.05646175518631935 1.0169950723648071
-0.22118902206420898 0.050270672887563705 1.046911597251892
-0.18429963290691376 0.057853154838085175 1.090692400932312
-0.14142566919326782 0.03748629242181778 1.243044376373291
-0.14872987568378448 0.02009592205286026 1.2433395385742188
0.35052216053009033 -0.08231878280639648 1.3538070917129517
0.3769482672214508 -0.08921437710523605 1.400641679763794
0.5069571137428284 -0.14910605549812317 1.0104254484176636
0.5032153129577637 -0.14663656055927277 0.936545193195343
0.4647124707698822 -0.15475685894489288 1.1149473190307617
0.482721745967865 -0.2073243111371994 0.8316464424133301
0.5275619029998779 -0.1653289645910263 1.0833061933517456
0.5201364159584045 -0.14862129092216492 1.1702020168304443
0.596419095993042 -0.19019940495491028 1.0073139667510986
0.5943002700805664 -0.20385125279426575 0.9451065063476562
0.5979049205780029 -0.24850289523601532 0.7799452543258667
0.5501114130020142 -0.2634615898132324 0.6983973979949951
0.6125398278236389 -0.2275305837392807 0.7700884342193604
-0.22123757004737854 -0.06949599087238312 0.5494284629821777
-0.18145008385181427 -0.04891934245824814 0.5505586862564087
-0.2809118628501892 -0.043633684515953064 0.7573394775390625
-0.22080186009407043 -0.07061950862407684 0.6114470958709717
-0.18233299255371094 -0.06800929456949234 0.60944002866745
-0.2832900583744049 0.017451990395784378 0.9134325385093689
-0.2309480905532837 0.05195750668644905 1.190459966659546
-0.21738409996032715 0.052108872681856155 1.1379852294921875
-0.2154301106929779 0.06075788289308548 1.1107454299926758
-0.19968003034591675 0.039384499192237854 1.1858532428741455
-0.17115196585655212 0.026450879871845245 1.120836853981018
-0.16679373383522034 0.04205452650785446 1.1094970703125
0.2356027513742447 -0.02594134211540222 1.1076934337615967
0.4425274729728699 -0.1488070785999298 1.0475819110870361
0.4731382429599762 -0.18215347826480865 1.040820598602295
0.4828152060508728 -0.19710934162139893 0.9984532594680786
0.5689732432365417 -0.24357612431049347 0.830562949180603
-0.2823010981082916 -0.027881573885679245 0.6171654462814331
-0.27185556292533875 -0.052598293870687485 0.5859718918800354
-0.26603344082832336 -0.042389750480651855 0.580116868019104
-0.3087281286716461 0.033315692096948624 0.7997787594795227
-0.2634763717651367 -0.02743886411190033 0.7766265273094177
-0.27907657623291016 -0.028941622003912926 0.8274515867233276
-0.16807976365089417 0.031997956335544586 1.204896092414856
-0.1396646499633789 0.029273957014083862 1.3126676082611084
-0.12856681644916534 0.03293105214834213 1.3014204502105713
0.131512850522995 -0.03768123686313629 1.2441236972808838
0.19761894643306732 -0.012779317796230316 1.605549693107605
0.35252347588539124 -0.030003301799297333 1.543065071105957
0.37428900599479675 -0.050692345947027206 1.5585830211639404
0.4218817949295044 -0.06692496687173843 1.4885514974594116
0.5632914304733276 -0.12257017940282822 1.2408589124679565
0.5885209441184998 -0.11973263323307037 1.2744237184524536
0.58622145652771 -0.10549332946538925 1.2170413732528687
0.588188886642456 -0.1320941001176834 1.2001538276672363
0.6163983345031738 -0.11875448375940323 1.2166664600372314
-0.4549960494041443 0.11073864996433258 0.9487671256065369
-0.43516647815704346 0.12024393677711487 0.9340295195579529
-0.5114052891731262 0.16011753678321838 1.1938579082489014
-0.49084973335266113 0.16194218397140503 1.1798371076583862
-0.21984721720218658 -0.016520516946911812 0.5689135789871216
-0.20164163410663605 -0.03283744677901268 0.5300318598747253
-0.2533884346485138 -0.06779657304286957 0.6490347981452942
-0.2885477840900421 0.01819479465484619 0.7547034621238708
-0.3531649112701416 0.07374231517314911 0.9620256423950195
-0.4863811731338501 0.13907600939273834 1.4773480892181396
0.23513998091220856 -0.03301641717553139 1.1717617511749268
0.2650250196456909 -0.02527952939271927 1.3888987302780151
0.3711589574813843 -0.07694457471370697 1.1098886728286743
0.3633209466934204 -0.055946484208106995 1.235463261604309
0.40648704767227173 -0.10160596668720245 1.0413894653320312
0.4220302999019623 -0.11686205118894577 0.9908646941184998
0.4116154909133911 -0.13208983838558197 1.0699456930160522
0.5008410215377808 -0.18388639390468597 0.7885628342628479
0.5050956010818481 -0.19826453924179077 0.7790985107421875
0.5083299279212952 -0.2419562041759491 0.841535747051239
0.5823653936386108 -0.1748759001493454 1.0062651634216309
0.6044250130653381 -0.1938500851392746 0.7919217944145203
-0.24059158563613892 -0.05793532729148865 0.5548713207244873
-0.19554245471954346 -0.058134421706199646 0.5206229090690613
-0.21939685940742493 0.06969942152500153 1.0198472738265991
-0.19256246089935303 0.06899424642324448 1.11002779006958
-0.1707407534122467 0.03795379400253296 1.162843942642212
0.5791110992431641 -0.18741843104362488 0.8270658850669861
0.5968696475028992 -0.23767493665218353 0.5989992618560791
0.60204017162323 -0.24159981310367584 0.612955629825592
-0.30753660202026367 -0.031050629913806915 0.7925049662590027
-0.23486438393592834 -0.02849787473678589 0.7273262739181519
-0.21757572889328003 -0.05182615667581558 0.686205267906189
0.4530602991580963 -0.08493930101394653 1.4124959707260132
0.6109212040901184 -0.21833571791648865 0.6055969595909119
0.6242520809173584 -0.2185562252998352 0.9097808599472046
-0.23192204535007477 0.08471324294805527 1.2552133798599243
0.6118454337120056 -0.18745318055152893 0.9974477887153625
-0.24311372637748718 -0.003582227975130081 0.8012068271636963
0.5109580159187317 -0.2703644633293152 0.6562034487724304
0.5983631610870361 -0.18279723823070526 0.987034797668457
-0.29763031005859375 -0.05720387399196625 0.7593783140182495
-0.3535154461860657 -0.1116718202829361 0.9535958766937256
-0.3602263331413269 -0.10810515284538269 0.9635469913482666
-0.3425855040550232 -0.1309078484773636 0.962115466594696
-0.35264888405799866 -0.12809552252292633 0.9708660840988159
-0.32931947708129883 -0.08651747554540634 1.0213731527328491
-0.335713654756546 -0.09943649917840958 1.000148057937622
-0.32553690671920776 -0.08980592340230942 0.9710855484008789
-0.322357714176178 -0.06264051049947739 1.0037353038787842
-0.326692134141922 -0.11587905138731003 1.0034395456314087
-0.3300304114818573 -0.14217866957187653 0.9919588565826416
-0.3121544122695923 -0.058382488787174225 1.0803415775299072
-0.31106558442115784 -0.14215613901615143 0.9948448538780212
-0.32343873381614685 -0.10897377878427505 0.9958068132400513
-0.31390145421028137 -0.1268291175365448 1.0301344394683838
-0.3126458525657654 -0.10368263721466064 1.025583267211914
-0.30033251643180847 -0.046629779040813446 1.0520515441894531
-0.3064119517803192 -0.09415736049413681 1.024171233177185
-0.30609145760536194 -0.10242082178592682 1.0486371517181396
-0.30908873677253723 -0.08140517771244049 1.0770323276519775
-0.32319408655166626 -0.045195046812295914 1.111532211303711
-0.3184313178062439 -0.09422885626554489 1.1047097444534302
-0.2880927324295044 0.0016094786114990711 1.1390595436096191
-0.29505491256713867 -0.009236639365553856 1.0971726179122925
-0.31353145837783813 -0.04719986766576767 1.1455076932907104
-0.26424139738082886 -0.006502667907625437 1.0869085788726807
-0.27057796716690063 -0.03389953821897507 1.1955959796905518
-0.2887532413005829 -0.09153300523757935 1.1525052785873413
-0.26336538791656494 0.010471584275364876 1.130181908607483
-0.23497217893600464 0.0016594398766756058 1.1407287120819092
-0.23720194399356842 0.006602594628930092 1.196567177772522
-0.21475669741630554 0.006413143128156662 1.1958403587341309
-0.21276675164699554 -0.047666892409324646 1.2645572423934937
-0.2532106935977936 -0.07506344467401505 1.1977989673614502
-0.20552390813827515 0.009408913552761078 1.2393059730529785
-0.23379360139369965 -0.016809219494462013 1.2447272539138794
-0.19453835487365723 0.004381764680147171 1.2770016193389893
-0.18071991205215454 0.0009260140359401703 1.3121039867401123
-0.1766311526298523 -0.045693278312683105 1.3165783882141113
-0.20867697894573212 -0.08545119315385818 1.2224664688110352
-0.1785142570734024 0.03568638116121292 1.6944621801376343
-0.11988718062639236 0.0901043713092804 1.3818066120147705
-0.12828005850315094 0.06573926657438278 0.8589707612991333
-0.1738836169242859 0.015905657783150673 0.8663569688796997
-0.15011253952980042 -0.07672421634197235 0.8702449798583984
-0.1933252215385437 -0.10463997721672058 0.8616412878036499
-0.16048137843608856 0.051618438214063644 1.6071152687072754
-0.18729636073112488 0.025160405784845352 1.7150822877883911
-0.15447448194026947 0.03073783963918686 1.6678072214126587
-0.1340642124414444 0.06181509047746658 1.623537302017212
-0.14429858326911926 0.043351490050554276 1.571710228919983
-0.1154899150133133 -0.003675546497106552 1.0274498462677002
-0.15372881293296814 -0.049714889377355576 0.9906414747238159
-0.16050919890403748 -0.11718781292438507 0.9770964980125427
-0.14397534728050232 0.02613092213869095 1.506110668182373
-0.2759624421596527 -0.0673116147518158 0.05422308295965195
-0.2908669710159302 -0.12941071391105652 0.023414229974150658
-0.29572728276252747 -0.15273718535900116 0.04228302463889122
-0.14976386725902557 -0.03661404550075531 1.3642104864120483
-0.13878880441188812 0.004236329346895218 1.3145849704742432
-0.13401557505130768 -0.021245643496513367 1.2943685054779053
-0.15844440460205078 -0.04717627167701721 1.351967692375183
-0.14213162660598755 -0.0893048644065857 1.3064802885055542
-0.2164500206708908 -0.03218110278248787 0.47089290618896484
-0.21623212099075317 -0.06020186096429825 0.3863014280796051
-0.2288273572921753 -0.0075249020010232925 0.3260052502155304
-0.23502692580223083 -0.03501328080892563 0.35296282172203064
-0.147597998380661 0.0406433530151844 1.6379450559616089
-0.13672655820846558 -0.06028394773602486 1.2621006965637207
-0.14068147540092468 -0.06811947375535965 1.2211589813232422
-0.14381159842014313 -0.09258583933115005 1.2501232624053955
-0.16722045838832855 -0.10543592274188995 1.249733567237854
-0.22391998767852783 0.0025292010977864265 0.2513176202774048
-0.14723344147205353 -0.03627055510878563 1.4989250898361206
-0.12999367713928223 0.031631749123334885 1.5068235397338867
-0.13939648866653442 0.002232469618320465 1.4982601404190063
-0.18641367554664612 -0.06932184100151062 0.5692734122276306
-0.10280449688434601 0.020131200551986694 1.7273478507995605
-0.12833724915981293 -0.11203137785196304 1.1891026496887207
-0.11660394072532654 -0.04001484811306 1.1422138214111328
-0.13087695837020874 -0.1267867535352707 0.7385705709457397
-0.10249071568250656 0.06958043575286865 1.682941198348999
-0.12889927625656128 -0.06627942621707916 1.374253749847412
-0.10190816968679428 -0.11967596411705017 0.8448007106781006
-0.13739889860153198 -0.13087788224220276 0.8659417629241943
-0.1224592924118042 -0.19634497165679932 0.9056606292724609
-0.10515275597572327 -0.2124577760696411 0.8446015119552612
-0.2688715159893036 -0.19007617235183716 0.06148833781480789
-0.06676369905471802 0.08565503358840942 1.682876706123352
-0.09658736735582352 0.029969900846481323 1.7124754190444946
-0.14583325386047363 -0.013066466897726059 1.414659857749939
-0.12905532121658325 -0.038083113729953766 1.457693338394165
-0.19477301836013794 0.013259302824735641 0.32040759921073914
-0.22156654298305511 -0.01065926905721426 0.20366156101226807
-0.25878891348838806 -0.1855262666940689 0.10404664278030396
-0.2257368564605713 -0.002624310553073883 0.05932873487472534
-0.10886594653129578 -0.017895150929689407 1.2999534606933594
-0.16716301441192627 -0.09549545496702194 0.5421828031539917
-0.2239617258310318 -0.15190303325653076 0.0022948849946260452
-0.26406538486480713 -0.15283969044685364 -0.0007074965396896005
-0.0967717245221138 0.021627996116876602 1.521546483039856
-0.10442712157964706 -0.006004445254802704 1.4789093732833862
-0.032959092408418655 -0.21439823508262634 0.8989992141723633
-0.07783828675746918 0.08851107954978943 0.8577337861061096
-0.2211124300956726 -0.11320804804563522 0.2632782459259033
-0.1982460618019104 -0.1093219518661499 0.18726123869419098
-0.2043546736240387 -0.010706234723329544 0.10260895639657974
-0.09434281289577484 -0.01726270094513893 1.2662091255187988
-0.10379341244697571 -0.035543058067560196 1.226227045059204
-0.0778006985783577 -0.13529811799526215 1.287346601486206
-0.13470454514026642 -0.028204400092363358 0.6621921062469482
-0.11416584998369217 -0.12889857590198517 0.7316294312477112
-0.07180256396532059 -0.11941642314195633 0.8071448802947998
-0.18895761668682098 -0.11701501160860062 0.15337061882019043
-0.21176762878894806 -0.18010933697223663 0.06793173402547836
-0.12429355084896088 -0.08873523771762848 1.449417233467102
-0.09270167350769043 -0.009858759120106697 1.3339937925338745
-0.06450475007295609 -0.014549363404512405 1.2730952501296997
-0.13675302267074585 -0.09702333807945251 0.5648902654647827
-0.11571594327688217 -0.0777425765991211 0.5645626783370972
-0.15294218063354492 0.01839558780193329 0.5078812837600708
-0.09841334819793701 -0.07608290016651154 1.4208256006240845
-0.07099698483943939 -0.04016537219285965 1.4073022603988647
-0.09908492863178253 0.004355419427156448 1.3736939430236816
-0.12690262496471405 -0.01921735145151615 0.5135297179222107
-0.05479766055941582 0.040060125291347504 1.7187156677246094
-0.12087227404117584 -0.13050773739814758 1.5756430625915527
-0.03904018923640251 -0.18805457651615143 0.9741520881652832
-0.07656408846378326 -0.050090666860342026 1.4199788570404053
-0.05739708989858627 -0.07886996865272522 1.404414176940918
-0.07705533504486084 -0.06263579428195953 1.3981455564498901
-0.07024677097797394 -0.13000735640525818 1.510810136795044
-0.10543261468410492 -0.11893647164106369 1.460376262664795
-0.05056420713663101 -0.02142859436571598 1.4311736822128296
-0.09792614728212357 -0.042688895016908646 0.6331182718276978
-0.01610303670167923 -0.005694262683391571 1.7354447841644287
-0.02277246117591858 0.09482339769601822 1.65559983253479
-0.06037120148539543 -0.14599087834358215 1.4613698720932007
-0.07248559594154358 -0.12046560645103455 1.4184012413024902
-0.03486640751361847 -0.03132907301187515 1.4073154926300049
-0.0469183474779129 -0.12648749351501465 1.4200767278671265
-0.006747551262378693 -0.014144863933324814 1.3863524198532104
-0.025471864268183708 -0.029080230742692947 1.2653591632843018
-0.010806966572999954 0.046123094856739044 1.7162789106369019
-0.01715364120900631 -0.03271270543336868 1.4339985847473145
-0.023264646530151367 -0.07374927401542664 1.4189398288726807
0.01890571229159832 0.058725401759147644 1.6816513538360596
-0.004515469074249268 0.003339804708957672 1.720187783241272
-0.019463352859020233 -0.06587255746126175 1.4089860916137695
0.010104827582836151 -0.09608784317970276 1.4420093297958374
-0.012530429288744926 -0.047193534672260284 1.413827657699585
0.07299917936325073 -0.09128738939762115 0.5853347778320312
0.015188734978437424 -0.011030182242393494 1.4664733409881592
0.10900858044624329 -0.1124032586812973 0.5018976926803589
-0.008870611898601055 -0.17353522777557373 1.2472617626190186
0.04358835518360138 -0.060444898903369904 1.2431379556655884
0.04477732628583908 -0.07984843850135803 1.1355345249176025
0.1406242996454239 -0.15830011665821075 0.06749231368303299
0.15666528046131134 -0.1533747911453247 0.04508432373404503
0.12717075645923615 -0.01794528216123581 0.06795886158943176
0.005229201167821884 -0.1581219732761383 1.23442804813385
-0.003674723207950592 -0.19385933876037598 1.1596877574920654
0.06808365136384964 -0.14061883091926575 0.7241918444633484
0.12359052896499634 -0.07488498091697693 0.0422590896487236
0.04190577566623688 -0.005903217941522598 1.6802735328674316
-0.005807820707559586 -0.14408208429813385 1.5826886892318726
-0.00688011571764946 -0.1263113021850586 1.5013763904571533
-0.007274173200130463 -0.12597674131393433 1.4590542316436768
0.09480153024196625 -0.16220521926879883 0.8712385892868042
0.0891299918293953 -0.017114557325839996 1.708383560180664
0.020595179870724678 -0.012454595416784286 1.515223741531372
0.0180671326816082 -0.033399928361177444 1.4862604141235352
0.1310008019208908 -0.027578337118029594 0.31905966997146606
0.123509481549263 -0.020718500018119812 0.2563984990119934
0.14004284143447876 -0.010767757892608643 0.04862726107239723
0.03400979936122894 -0.0202413871884346 1.7615687847137451
0.05009348690509796 -0.03559889271855354 1.3844326734542847
0.09596488624811172 -0.21937915682792664 0.8582671880722046
0.0850282683968544 -0.13272657990455627 0.8574849367141724
0.1266096532344818 -0.19619876146316528 0.8590545654296875
0.09290139377117157 -0.03969816118478775 0.7456021904945374
0.1821059137582779 -0.15370772778987885 0.05799831449985504
0.05295897647738457 -0.016628790646791458 1.6909828186035156
0.03135564550757408 -0.16654300689697266 1.1290879249572754
0.03243197128176689 -0.1481136679649353 1.2502853870391846
0.03188180923461914 -0.16485726833343506 1.247686505317688
0.1242443174123764 -0.19052478671073914 0.9259508848190308
0.03762033209204674 -0.08501797914505005 1.5235846042633057
0.04911881312727928 -0.012891564518213272 1.5277016162872314
0.044805340468883514 -0.037797629833221436 1.5120413303375244
0.04956120252609253 -0.053111493587493896 1.5075434446334839
0.055076878517866135 -0.06572874635457993 1.4843063354492188
0.1326686441898346 -0.06604965031147003 0.6434320211410522
0.13047124445438385 -0.131242573261261 0.6625094413757324
0.05860138684511185 -0.07374271005392075 1.367784857749939
0.06520628184080124 -0.03104478493332863 1.3083953857421875
0.03553976118564606 -0.031361036002635956 1.3277747631072998
0.04320704936981201 -0.05025271698832512 1.3028016090393066
0.12109901010990143 -0.11943273991346359 0.8250706195831299
0.18491515517234802 -0.032526083290576935 0.05142681300640106
0.19705693423748016 -0.05797829478979111 0.04841379448771477
0.059835661202669144 -0.023913871496915817 1.6460820436477661
0.07351283729076385 -0.047495290637016296 1.3599741458892822
0.19368544220924377 -0.07533314824104309 0.30456751585006714
0.0856894701719284 -0.008126504719257355 1.6238362789154053
0.0644678920507431 0.018608849495649338 1.6295675039291382
0.07201241701841354 -0.009722962975502014 1.5930604934692383
0.2002045214176178 -0.060314394533634186 0.12621809542179108
0.20684905350208282 -0.11998426914215088 0.05671695992350578
0.19522884488105774 -0.14726419746875763 0.08633352816104889
0.15183591842651367 -0.017368465662002563 0.9650673866271973
0.14784681797027588 -0.017396047711372375 0.866043746471405
0.08599824458360672 -0.032775767147541046 1.7029823064804077
0.16543813049793243 0.0357992947101593 0.8723334670066833
0.17858296632766724 -0.0008759917691349983 0.9347634315490723
0.08728897571563721 -0.04275626689195633 1.3027830123901367
0.09474179148674011 -0.06451909244060516 1.2896780967712402
0.0683441087603569 -0.07619323581457138 1.3382283449172974
0.09596216678619385 -0.054829586297273636 1.2488460540771484
0.08571389317512512 -0.05649518966674805 1.2290842533111572
0.09214447438716888 -0.13096773624420166 1.219807505607605
0.10716274380683899 -0.08897291868925095 1.25070321559906
0.1262410283088684 -0.07113401591777802 1.1839241981506348
0.13705573976039886 -0.08128040283918381 1.1089974641799927
0.16088923811912537 -0.0954267829656601 1.1219258308410645
0.15004728734493256 -0.10641154646873474 1.1741998195648193
0.12098982185125351 -0.1374797821044922 1.1951206922531128
0.1623028665781021 -0.12181125581264496 1.0715956687927246
0.1775554120540619 -0.17887532711029053 1.1266146898269653
0.1852385401725769 -0.16075143218040466 1.1060638427734375
0.1770627498626709 -0.1365182101726532 1.0794785022735596
0.13210953772068024 -0.21276052296161652 1.1138168573379517
0.1562429517507553 -0.1864224672317505 1.0800920724868774
0.1572687178850174 -0.16928943991661072 1.064826488494873
0.18583135306835175 -0.25309616327285767 0.9706765413284302
0.13479365408420563 -0.20039427280426025 1.08133864402771
0.13525034487247467 -0.22008627653121948 1.0533804893493652
0.17375712096691132 -0.20378118753433228 0.9979680180549622
0.13904203474521637 -0.2101309895515442 1.0278114080429077
0.13156621158123016 -0.23555418848991394 1.0324853658676147
0.15417611598968506 -0.23436090350151062 1.0036879777908325
0.16969352960586548 -0.2399444282054901 0.9998228549957275
0.12644584476947784 -0.255144327878952 1.0086724758148193
0.1482265442609787 -0.25269815325737 0.9996247291564941
0.13705658912658691 -0.25172221660614014 1.0084668397903442
0.17886409163475037 -0.25789374113082886 0.9517853260040283
0.1420072764158249 -0.2665027976036072 0.9965277910232544
0.1638728380203247 -0.24095267057418823 0.9653246998786926
0.16385456919670105 -0.2724008560180664 0.9651899337768555
0.17835500836372375 -0.26751255989074707 0.9677099585533142
-0.3002910017967224 -0.03887723758816719 1.0757087469100952
-0.29485464096069336 -0.09184528142213821 1.0620355606079102
-0.28049853444099426 -0.07643071562051773 1.0599231719970703
-0.29998672008514404 -0.10889206826686859 1.0969212055206299
-0.2486225664615631 -0.039644788950681686 1.0719797611236572
-0.27580010890960693 -0.11191026866436005 1.0804153680801392
-0.19508425891399384 -0.014677876606583595 1.2173453569412231
-0.19709794223308563 -0.06587004661560059 1.1927846670150757
-0.17241764068603516 -0.09586682170629501 0.9558930397033691
-0.17651095986366272 -0.014488695189356804 0.9364526271820068
-0.12644490599632263 0.051023006439208984 0.9228174686431885
-0.08096376806497574 0.13066905736923218 1.2540817260742188
-0.07517109811306 0.1295372098684311 1.1968116760253906
-0.07034626603126526 0.15341463685035706 1.1737391948699951
-0.15128841996192932 -0.010825631208717823 0.9570937156677246
-0.18952332437038422 0.020751118659973145 1.6845998764038086
-0.14759071171283722 -0.005992859601974487 1.333482027053833
-0.16708765923976898 -0.003578055649995804 1.2693078517913818
-0.008853813633322716 0.14516285061836243 1.0818912982940674
-0.029773157089948654 0.14960148930549622 1.0052056312561035
-0.2783285975456238 -0.08064649254083633 0.1143973097205162
-0.29673847556114197 -0.13527262210845947 0.06831907480955124
-0.16798906028270721 0.007384084165096283 1.6688429117202759
-0.15345241129398346 0.021475110203027725 1.616180181503296
-0.1555030345916748 -0.1272212564945221 1.224867582321167
-0.15559230744838715 -0.14167243242263794 1.1999808549880981
-0.16058200597763062 -0.16096657514572144 1.194179892539978
-0.0909084901213646 0.09180659800767899 1.359560251235962
-0.08263259381055832 0.08473771810531616 1.356218695640564
-0.13682812452316284 -0.1312669813632965 1.2406922578811646
-0.14430774748325348 -0.06083661690354347 1.1887061595916748
-0.24966265261173248 -0.0993119403719902 0.17829583585262299
-0.25792616605758667 -0.05441369488835335 0.1882554292678833
-0.03529912233352661 0.10903610289096832 1.2484219074249268
-0.15278443694114685 -0.025693990290164948 1.4259053468704224
-0.1508462280035019 -0.019812319427728653 1.4059066772460938
-0.13811461627483368 -0.021941132843494415 1.3888026475906372
-0.15275059640407562 -0.01782222092151642 1.3862920999526978
-0.1535339206457138 -0.03409336134791374 1.3752307891845703
-0.14510659873485565 -0.11096194386482239 0.7854185104370117
-0.15782974660396576 -0.07220462709665298 0.7800922393798828
0.0032549984753131866 0.19844970107078552 1.0948189496994019
0.0001322813332080841 0.19530372321605682 1.1423628330230713
-0.12784604728221893 -0.124736487865448 1.2353163957595825
-0.12501366436481476 -0.1103878989815712 0.858169436454773
-0.2510353922843933 -0.017535250633955002 0.10936035960912704
-0.2561405599117279 -0.01898328959941864 0.0710689127445221
-0.13702094554901123 -0.1846291720867157 0.8454582691192627
-0.031915564090013504 0.16736042499542236 1.2340164184570312
-0.15509919822216034 -0.09948734939098358 1.5739363431930542
-0.12159210443496704 0.008049741387367249 1.5027520656585693
-0.08411959558725357 0.08778071403503418 1.481574535369873
-0.08671020716428757 0.0535968542098999 1.5330986976623535
-0.10753489285707474 0.054387062788009644 1.5079405307769775
-0.0920795202255249 0.0725923478603363 1.429723858833313
-0.04043234512209892 0.10602445155382156 1.5261356830596924
-0.11548163741827011 -0.024904988706111908 1.45467209815979
-0.08457036316394806 0.04378880187869072 0.9679615497589111
-0.13118591904640198 0.012217521667480469 1.7644025087356567
-0.13886290788650513 0.0071464478969573975 1.7577476501464844
-0.14649605751037598 -0.002737589180469513 1.7446672916412354
-0.011974198743700981 0.052617717534303665 1.4261417388916016
-0.060792308300733566 0.10371273756027222 1.403110384941101
-0.194599449634552 -0.08513646572828293 0.03670607507228851
-0.009753269143402576 0.1394241601228714 1.3545023202896118
-0.12313421815633774 -0.10016113519668579 1.4894413948059082
-0.16807812452316284 -0.061060257256031036 0.3894432783126831
-0.05366665497422218 0.05158606544137001 1.479744791984558
-0.07885631173849106 0.013302125036716461 1.4586455821990967
-0.01860382780432701 0.11285766214132309 1.4512648582458496
-0.03242360055446625 0.05007337033748627 0.8521004915237427
-0.1767473667860031 0.0009069775696843863 0.34086132049560547
0.047330573201179504 0.16039632260799408 1.0107152462005615
-0.03015114553272724 0.033073894679546356 1.0284485816955566
-0.11024413257837296 -0.15526917576789856 1.2339646816253662
-0.10513874888420105 -0.15484324097633362 1.1387357711791992
-0.1650594174861908 -0.027396291494369507 0.3180500864982605
-0.15019378066062927 -0.04171589016914368 0.25592514872550964
-0.18071849644184113 0.0070637925527989864 0.25143322348594666
-0.05943792313337326 0.03422102704644203 1.4941736459732056
-0.08517435193061829 -0.10437546670436859 0.6824465990066528
-0.11103586107492447 -0.030647162348031998 0.6542248725891113
0.05099226534366608 0.19707351922988892 1.1355094909667969
0.05708623677492142 0.1918153166770935 1.0569608211517334
-0.06086208298802376 -0.18905895948410034 1.1622536182403564
-0.17756624519824982 -0.06798100471496582 0.11995189636945724
0.04476069286465645 0.14500878751277924 1.0444976091384888
0.033748429268598557 0.12284781038761139 1.0784159898757935
0.005278605967760086 0.02947414107620716 1.4889025688171387
-0.09136962890625 -0.09528359025716782 1.3673487901687622
0.041466157883405685 0.14127680659294128 1.3393020629882812
0.032201360911130905 0.04329236224293709 1.4167733192443848
-0.005002461373806 0.022738467901945114 1.487391471862793
0.09022419899702072 0.13349908590316772 1.055483341217041
0.1076047271490097 0.12278947979211807 1.011467695236206
-0.031434595584869385 -0.11231911927461624 1.362870454788208
0.014170903712511063 0.03048187680542469 1.0266538858413696
-0.034525685012340546 -0.2034071683883667 1.0936334133148193
0.09823498129844666 0.1115834191441536 1.3628686666488647
0.010315963998436928 -0.028655361384153366 1.2812548875808716
0.06617634743452072 0.08499102294445038 1.4575737714767456
0.031678054481744766 0.043189071118831635 1.456333041191101
0.022670183330774307 -0.044731054455041885 1.1961805820465088
0.046031683683395386 0.09184246510267258 0.9163867235183716
-0.010362882167100906 -0.03898856043815613 1.7004270553588867
0.12072651088237762 -0.12493293732404709 0.07467644661664963
0.1140858456492424 -0.13845357298851013 0.0477561354637146
0.11528041958808899 -0.0632907822728157 0.08395525813102722
-0.04802146926522255 -0.14560268819332123 1.5765436887741089
0.0650966539978981 -0.06240121275186539 0.708964467048645
0.0855078175663948 0.027129698544740677 1.4268059730529785
0.020172396674752235 -0.06434760987758636 1.4518671035766602
0.057363059371709824 -0.05231797695159912 1.4023447036743164
0.01943879947066307 -0.02413111925125122 1.3827205896377563
0.11033602803945541 -0.040650736540555954 0.3868570327758789
0.13039059937000275 -0.13032758235931396 0.23232850432395935
0.12897925078868866 -0.0436612144112587 0.1907186210155487
0.14959828555583954 0.11956461519002914 1.062248706817627
0.14624717831611633 0.1444164216518402 1.0339888334274292
0.10173702239990234 -0.14580371975898743 0.7359645366668701
0.1077679842710495 -0.052077047526836395 0.6531063318252563
-0.014085792005062103 -0.08460775017738342 1.6837278604507446
0.026349613443017006 -0.09661989659070969 1.642417311668396
0.12341810017824173 -0.13055184483528137 0.5459683537483215
0.011957341805100441 -0.03279217705130577 1.7142409086227417
0.035465531051158905 -0.04871732369065285 1.6646695137023926
0.05621176213026047 -0.10570863634347916 1.129961609840393
0.0621977373957634 -0.09435198456048965 1.1049500703811646
0.05171998590230942 -0.16431233286857605 1.0858522653579712
0.007947627454996109 -0.13100659847259521 1.5753949880599976
0.03382429480552673 -0.06550005078315735 1.4823106527328491
0.022926954552531242 -0.10507429391145706 1.477324366569519
0.18695460259914398 0.09900393337011337 1.0267547369003296
0.04640740156173706 -0.11103785783052444 1.2777156829833984
0.05297345295548439 -0.17111776769161224 1.2406193017959595
