0.09086643159389496 -0.028893208131194115 1.7752946615219116
0.11389384418725967 -0.18657919764518738 1.2921568155288696
0.1736336201429367 -0.3154830038547516 0.5038087368011475
0.1411965787410736 -0.35397985577583313 0.578464150428772
0.182468980550766 -0.3463895916938782 0.45378580689430237
0.11622095108032227 -0.16337692737579346 1.4464579820632935
0.09892068058252335 -0.15577200055122375 1.4423143863677979
0.1257111132144928 -0.12764683365821838 1.410045862197876
0.12234141677618027 0.07328703254461288 0.8987001180648804
0.11831781268119812 -0.10630208253860474 0.8632466793060303
0.2094460427761078 -0.37240609526634216 0.3281201720237732
0.21375808119773865 -0.40300190448760986 0.3413121700286865
0.13617609441280365 -0.11297141015529633 1.407293677330017
0.16413259506225586 0.027338864281773567 1.2396466732025146
0.16441786289215088 0.05757327005267143 1.2054126262664795
0.1288507729768753 -0.26993900537490845 1.1191023588180542
0.16124001145362854 -0.04096180573105812 0.9750583171844482
0.16300852596759796 -0.09432876110076904 0.9707158803939819
0.1849307119846344 -0.060922082513570786 1.2396984100341797
0.27009445428848267 -0.12240100651979446 1.1087558269500732
0.26683560013771057 -0.06882260739803314 1.109875202178955
0.2891665995121002 -0.17754289507865906 1.1580135822296143
-0.34118685126304626 -0.025295589119195938 1.0372562408447266
-0.36645516753196716 -0.0871071144938469 0.9982247352600098
-0.2751425802707672 -0.12622903287410736 1.113232135772705
-0.28741535544395447 -0.15156342089176178 1.160934329032898
-0.2339525818824768 -0.09015309810638428 1.1388746500015259
-0.22055235505104065 -0.047635357826948166 1.1749460697174072
-0.19670912623405457 -0.15347352623939514 0.869028627872467
-0.197998508810997 0.04831966757774353 0.9654132127761841
-0.18713298439979553 0.04269251599907875 1.0821532011032104
-0.15016335248947144 -0.2697637379169464 1.0766513347625732
-0.13410690426826477 -0.17172178626060486 0.9604202508926392
-0.22637704014778137 0.12157492339611053 0.3241935968399048
-0.20939388871192932 0.07166639715433121 0.30161282420158386
-0.15673001110553741 0.022157693281769753 0.5397794842720032
-0.15554006397724152 -0.193974107503891 0.8554166555404663
-0.15196387469768524 -0.0765538290143013 0.6181297302246094
-0.14341522753238678 -0.1129094809293747 0.673710823059082
-0.13560236990451813 -0.04321572184562683 0.6834962368011475
-0.11593759059906006 -0.029668131843209267 1.1144447326660156
-0.11001614481210709 -0.10034097731113434 1.1355239152908325
-0.09294363856315613 0.11736610531806946 1.1399309635162354
-0.11893868446350098 -0.011823747307062149 0.8531458377838135
-0.16769832372665405 0.04997413605451584 0.3024868667125702
-0.1147143691778183 -0.06218954175710678 1.224426507949829
-0.10229463130235672 -0.05838114023208618 1.1481966972351074
-0.15469975769519806 -0.020391955971717834 0.43454912304878235
-0.1287325918674469 -0.04229442775249481 1.7743241786956787
-0.1293170154094696 -0.0824286937713623 1.7729883193969727
-0.07996222376823425 -0.11541754007339478 1.790846586227417
-0.09467219561338425 -0.1641419529914856 1.7561979293823242
-0.11508071422576904 -0.17636501789093018 1.6491377353668213
-0.1404106616973877 0.06409754604101181 0.358397901058197
-0.0675690770149231 -0.11789248138666153 0.7265837788581848
-0.11611257493495941 0.09863971918821335 0.2906298339366913
-0.13838323950767517 0.07361672818660736 0.2762865722179413
-0.13755260407924652 0.19076289236545563 0.302720308303833
-0.056459344923496246 0.06560306996107101 0.9750069975852966
-0.07684750109910965 -0.017946980893611908 1.8191111087799072
-0.09323303401470184 -0.032663486897945404 1.8063212633132935
0.014457306824624538 0.04913220927119255 1.130845069885254
-0.08736005425453186 0.04240531101822853 1.1363868713378906
-0.0014085706789046526 0.03386294096708298 1.1990056037902832
0.014651622623205185 -0.07138710469007492 1.2684049606323242
-0.0013653971254825592 0.12660397589206696 1.1709998846054077
-0.010806681588292122 0.0542750284075737 0.9996403455734253
0.0579606257379055 0.1433802992105484 1.07241690158844
0.01847962476313114 0.0757351815700531 1.663313627243042
0.030927030369639397 0.04963656887412071 1.0073819160461426
0.046476297080516815 -0.20921072363853455 0.9147052764892578
0.08800380676984787 -0.40193092823028564 0.33926042914390564
0.11196961253881454 -0.4135383069515228 0.2853996753692627
0.04384864494204521 -0.24791046977043152 0.7657961845397949
0.03291720896959305 0.010708057321608067 1.077033281326294
0.0739680677652359 -0.2793138921260834 0.6268705129623413
0.08916950225830078 0.026482632383704185 1.2768605947494507
0.07672348618507385 -0.17975696921348572 1.4187297821044922
0.05339725688099861 0.0554080456495285 1.6289359331130981
0.0543002150952816 -0.022481322288513184 1.6215906143188477
0.05983712151646614 -0.010561443865299225 1.586881399154663
0.04649750143289566 -0.018340546637773514 1.8536795377731323
0.08090443909168243 -0.18397995829582214 1.3404401540756226
0.14244401454925537 -0.2782779932022095 0.5587398409843445
0.11000001430511475 -0.2638210952281952 0.548158586025238
0.14648671448230743 -0.31232479214668274 0.40711116790771484
0.1704024225473404 -0.3257609009742737 0.3829779028892517
0.09964597225189209 -0.10793522745370865 1.5528273582458496
0.08939450234174728 -0.11795499920845032 1.5657265186309814
0.1008031964302063 -0.11530192196369171 1.5463937520980835
0.1284058392047882 -0.14463748037815094 0.7602213621139526
0.12848256528377533 -0.28121137619018555 0.7015883922576904
0.12336437404155731 0.03962507098913193 0.9436133503913879
0.12138847261667252 -0.0720541700720787 1.0913231372833252
0.12046489119529724 -0.127374529838562 1.079937219619751
0.12554222345352173 -0.1388368159532547 1.0220589637756348
0.09953831136226654 -0.04788791760802269 1.6701438426971436
0.11160161346197128 -0.06991346180438995 1.5820999145507812
0.10722849518060684 -0.20666131377220154 1.2242671251296997
0.11957095563411713 -0.0007977671921253204 1.5561811923980713
0.11059272289276123 -0.0200352743268013 1.598806381225586
0.22146761417388916 -0.35120636224746704 0.1456819772720337
0.23347440361976624 -0.41312798857688904 0.13485197722911835
0.13464760780334473 -0.022131159901618958 1.5201753377914429
0.14078742265701294 -0.010973097756505013 1.486161708831787
0.15130342543125153 -0.015165616758167744 1.4374821186065674
0.15312603116035461 0.000255068764090538 1.4176883697509766
0.12145920842885971 -0.27861014008522034 1.1363775730133057
0.16947227716445923 -0.13675260543823242 0.8761215806007385
0.14289438724517822 -0.2525879144668579 1.1559770107269287
0.13706496357917786 -0.27749818563461304 1.1371638774871826
0.20118960738182068 -0.09278112649917603 0.8782402276992798
0.20234782993793488 -0.08277524262666702 0.8544633984565735
0.21445918083190918 -0.04878765344619751 0.8494812250137329
-0.24360501766204834 -0.14796286821365356 1.177321195602417
-0.16756947338581085 -0.1706610471010208 1.254696011543274
-0.17924270033836365 -0.1655784696340561 1.2380460500717163
-0.16784687340259552 -0.15699335932731628 1.2481991052627563
-0.16198313236236572 -0.15959401428699493 1.264683485031128
-0.20246408879756927 0.0063232602551579475 0.8648922443389893
-0.13118313252925873 -0.12338349223136902 1.2964447736740112
-0.15104681253433228 -0.07992016524076462 1.0860192775726318
-0.1489262580871582 0.016423702239990234 1.5581516027450562
-0.13427913188934326 -0.12769100069999695 1.201236367225647
-0.14106619358062744 -0.10931460559368134 1.1534547805786133
-0.12793534994125366 0.005977081134915352 1.4482725858688354
-0.12219871580600739 -0.0003221780061721802 1.3928422927856445
-0.12509725987911224 -0.1582062840461731 1.0469720363616943
-0.08906438946723938 -0.18092168867588043 1.0041157007217407
-0.13718564808368683 -0.024095598608255386 0.774409830570221
-0.0806700736284256 0.0982472226023674 1.222216010093689
-0.09105993807315826 0.07257428020238876 1.6389076709747314
-0.11981511116027832 0.32155534625053406 0.20593777298927307
-0.1316845417022705 0.3367999792098999 0.213704913854599
-0.08857496082782745 0.029146015644073486 0.8707227110862732
-0.009202246554195881 0.0995984598994255 0.8506119251251221
-0.0707385465502739 -0.013007634319365025 0.8455263376235962
0.00950769241899252 0.010009097866714 1.3115029335021973
-0.041519101709127426 -0.07397410273551941 0.7570942640304565
-0.036350004374980927 -0.19479672610759735 1.6731027364730835
-0.01173144020140171 0.02102898620069027 0.868615984916687
-0.006921275518834591 -0.018518224358558655 0.8489707112312317
0.01294442918151617 -0.10834656655788422 0.8604828715324402
-0.07950334250926971 -0.166812002658844 0.8592994809150696
-0.0004676841199398041 -0.220373272895813 0.857038140296936
0.021095233038067818 -0.11179719865322113 0.8442041873931885
-0.0015187666285783052 -0.1573273241519928 0.8666456937789917
0.0019261352717876434 -0.05194910243153572 1.5140650272369385
0.0252764243632555 -0.035788025707006454 0.8378118872642517
0.02671881765127182 -0.0670703649520874 0.8082675337791443
0.012944933027029037 -0.027012290433049202 1.590794324874878
0.016504138708114624 -0.024516453966498375 1.5617420673370361
0.031528279185295105 -0.11745985597372055 0.8560448884963989
0.13246722519397736 0.05317679047584534 0.8206151127815247
0.09603023529052734 -0.3721821904182434 0.3314085602760315
0.051696695387363434 -0.07111428678035736 0.7843077182769775
0.06620948016643524 0.054640840739011765 1.1622511148452759
0.11418493092060089 -0.37275370955467224 0.4657531976699829
0.11641190201044083 -0.3682680130004883 0.3970044255256653
0.12728925049304962 -0.38686978816986084 0.42110711336135864
0.1241670474410057 -0.44327878952026367 0.379460871219635
0.10416008532047272 0.003997849300503731 1.525333285331726
0.07851171493530273 -0.021563835442066193 0.8263941407203674
0.10729946196079254 -0.06680962443351746 0.798995852470398
0.10349947959184647 -0.10813279449939728 1.256727695465088
0.13887694478034973 -0.37228459119796753 0.5220297574996948
0.09494839608669281 0.004256904125213623 1.6323559284210205
0.08868323266506195 -0.0830092579126358 1.3201775550842285
0.15759806334972382 -0.38922834396362305 0.4251483678817749
0.08313477039337158 0.12365134060382843 1.1433231830596924
0.10527028888463974 -0.07445967197418213 1.235856533050537
0.18275384604930878 -0.3487659692764282 0.2944541275501251
0.11995236575603485 0.12211380898952484 1.0483603477478027
0.16683237254619598 -0.3393690586090088 0.3184348940849304
0.16785015165805817 -0.45855119824409485 0.351507306098938
0.14345116913318634 0.01689169928431511 1.3001294136047363
0.10715992748737335 -0.15274366736412048 1.4905312061309814
0.12126851081848145 -0.1378805935382843 1.4583044052124023
0.10524773597717285 -0.15067818760871887 1.4899935722351074
0.1355026513338089 -0.12371627986431122 1.44650137424469
0.13060256838798523 -0.23099453747272491 1.2068144083023071
0.11521555483341217 -0.24006521701812744 1.1955516338348389
0.157070592045784 0.04035874456167221 1.1874642372131348
0.16893459856510162 0.07430725544691086 1.1096347570419312
0.1591542661190033 0.0661790668964386 1.0730443000793457
0.15841518342494965 -0.10519725829362869 1.2784767150878906
0.14399003982543945 -0.1517120599746704 1.2724565267562866
0.15539191663265228 -0.15578842163085938 0.8905869126319885
0.15511968731880188 -0.17302140593528748 1.275552749633789
0.20655526220798492 -0.16683563590049744 1.1737924814224243
0.19026273488998413 -0.0845399871468544 1.1848552227020264
0.2066730260848999 -0.13164538145065308 1.1537541151046753
0.2848438322544098 -0.16370916366577148 1.199158787727356
0.3139652609825134 -0.08341410011053085 1.0910767316818237
0.3130260109901428 -0.16029204428195953 1.1175782680511475
-0.15194249153137207 -0.2662525177001953 1.1202507019042969
-0.15272276103496552 -0.2070339024066925 1.187114953994751
-0.15949419140815735 -0.19895200431346893 1.2097585201263428
-0.14031341671943665 -0.25222140550613403 1.124402642250061
-0.14402738213539124 0.00727851502597332 1.4811533689498901
-0.15241998434066772 -0.006955387070775032 1.4636576175689697
-0.15911619365215302 0.011689424514770508 1.415282964706421
-0.15586915612220764 -0.05409421771764755 1.7344863414764404
-0.15512698888778687 -0.10475653409957886 1.6552308797836304
-0.1964726597070694 0.06955903768539429 0.3609561324119568
-0.13808979094028473 -0.062321241945028305 0.8501166105270386
-0.13819542527198792 -0.08689317107200623 0.8287625908851624
-0.18797153234481812 0.06491899490356445 0.9360437989234924
-0.09288550913333893 -0.17928940057754517 1.2460284233093262
-0.12533703446388245 -0.022667335346341133 0.8244310617446899
-0.09744307398796082 -0.05458882451057434 1.7897624969482422
-0.08867661654949188 -0.14582020044326782 1.1343945264816284
-0.049056489020586014 -0.2083960920572281 1.1241368055343628
-0.1016356348991394 0.055052995681762695 1.0502638816833496
-0.013149985112249851 0.05712026357650757 1.043047547340393
-0.079936683177948 -0.04163699969649315 1.1667003631591797
-0.05866040289402008 -0.10779980570077896 0.849781334400177
-0.04207264259457588 -0.20480969548225403 1.0622055530548096
-0.060172710567712784 0.010414477437734604 1.068101167678833
-0.027403779327869415 -0.16412417590618134 1.771372675895691
0.018454888835549355 -0.1615111529827118 0.7931133508682251
-0.05553855001926422 0.015181968919932842 1.277256727218628
0.13512320816516876 -0.39803698658943176 0.08691075444221497
0.09201570600271225 0.13103656470775604 0.9791486263275146
0.06969787180423737 0.06704895198345184 1.0619707107543945
0.027918744832277298 0.1426830142736435 0.9902234077453613
0.10012663900852203 0.08584825694561005 0.8351156711578369
0.19779235124588013 -0.3058863580226898 0.13656169176101685
0.11977577209472656 -0.04492511600255966 0.8258168697357178
0.1457468420267105 -0.37645164132118225 0.4754866063594818
0.11975479125976562 -0.16884110867977142 1.4028146266937256
0.12347476184368134 -0.17092624306678772 1.3126033544540405
0.20293468236923218 -0.004061758518218994 0.8279917240142822
0.20447899401187897 -0.023434795439243317 0.9004850387573242
0.3196260929107666 -0.12419731914997101 1.0940167903900146
-0.3057941198348999 -0.1503063291311264 1.1213412284851074
-0.19534869492053986 -0.09034844487905502 0.9279009699821472
-0.2189789116382599 -0.07113788276910782 0.8694579601287842
-0.15982186794281006 -0.008347230032086372 1.4134327173233032
-0.1630028486251831 0.013968175277113914 1.232844591140747
-0.14516454935073853 -0.07047708332538605 1.5571556091308594
-0.14211171865463257 -0.07210995256900787 1.0532668828964233
-0.14538057148456573 -0.10202384740114212 1.091735601425171
-0.14374004304409027 -0.06504860520362854 1.5579112768173218
-0.14229191839694977 -0.08246521651744843 1.5456604957580566
-0.1402951180934906 -0.0763363242149353 1.5525968074798584
-0.1429811269044876 -0.07606667280197144 1.5581626892089844
-0.1460530161857605 -0.09252636134624481 1.5484031438827515
-0.18886950612068176 0.15954941511154175 0.19557194411754608
-0.14645975828170776 -0.13132092356681824 1.720436692237854
-0.04113330692052841 -0.04734502732753754 1.2236604690551758
-0.1334097683429718 0.2619716227054596 0.12295997142791748
-0.04908105731010437 -0.06682084500789642 1.2644251585006714
-0.013807123526930809 -0.043169643729925156 1.1775847673416138
-0.04267808794975281 0.0944126546382904 0.9359546899795532
-0.02843540348112583 -0.05735098570585251 1.8110395669937134
-0.05464410409331322 -0.0735144317150116 0.6913452744483948
-0.033037517219781876 0.019640685990452766 1.2357053756713867
0.018126683309674263 -0.19890260696411133 1.010560154914856
-0.023006455972790718 -0.23042947053909302 1.2113317251205444
0.004563231952488422 0.045673660933971405 1.0959442853927612
0.11713531613349915 -0.36858803033828735 0.2761997580528259
0.07679007947444916 -0.17208853363990784 0.9922546148300171
0.11840049922466278 -0.15378667414188385 0.9701937437057495
0.07436500489711761 -0.013091832399368286 1.5508782863616943
0.07993270456790924 -0.18660026788711548 1.1701209545135498
0.03673255071043968 -0.04731396213173866 1.1748933792114258
0.09428322315216064 -0.0271320678293705 1.0868221521377563
0.0775221735239029 0.06848243623971939 0.9493541717529297
0.20953533053398132 -0.45874565839767456 0.057330645620822906
0.1852099895477295 -0.4427875876426697 0.04950084164738655
0.23743532598018646 -0.43463563919067383 0.06825636327266693
0.19224025309085846 -0.448919415473938 0.3221260607242584
0.10513230413198471 -0.1499241441488266 1.4870154857635498
0.10571017861366272 -0.15019991993904114 1.486531138420105
0.09883011132478714 -0.12902656197547913 1.3322263956069946
0.12317828834056854 -0.15579254925251007 1.305652379989624
0.1610730141401291 0.09340370446443558 0.9905223846435547
0.15515880286693573 0.0637374073266983 0.943294107913971
0.16620966792106628 0.07426764070987701 0.9395542740821838
0.31881433725357056 -0.0668109655380249 1.098793864250183
0.3372957408428192 -0.1341930329799652 1.0684826374053955
0.364474356174469 -0.15484140813350677 1.054327368736267
-0.29002460837364197 -0.06361322849988937 1.0567818880081177
-0.16185906529426575 -0.2381250113248825 1.167415738105774
-0.16918037831783295 0.04446220025420189 0.38055655360221863
-0.1437399983406067 0.05061204731464386 0.9075091481208801
-0.0984291210770607 -0.1595880091190338 1.083310842514038
-0.04059849679470062 -0.03553701937198639 0.8454529047012329
-0.061756715178489685 -0.02180107869207859 0.8079599142074585
-0.05319533869624138 -0.07545746862888336 0.8071117401123047
-0.01210916880518198 0.004433365538716316 1.114013671875
0.02967694401741028 -0.20181503891944885 0.8513062596321106
0.09921327233314514 0.017250053584575653 0.8398412466049194
0.08449629694223404 0.0692974328994751 1.0219857692718506
0.1015167161822319 -0.047572363168001175 1.5783716440200806
0.11184430122375488 -0.029125813394784927 1.5500990152359009
0.18773390352725983 -0.083016037940979 0.9212173223495483
-0.16718067228794098 -0.24071621894836426 1.131762146949768
-0.15339969098567963 -0.012617586180567741 1.5809496641159058
-0.10545074194669724 0.0682746022939682 0.9564247131347656
-0.13132235407829285 0.025262050330638885 1.6059789657592773
-0.10019323229789734 -0.015399504452943802 1.6025328636169434
-0.06530769914388657 -0.02295679971575737 1.5823472738265991
0.04661308228969574 -0.2026132196187973 1.0649409294128418
0.064703568816185 -0.1908300518989563 1.2556629180908203
0.13537512719631195 -0.4402991533279419 0.2379312962293625
0.10749579966068268 -0.1585323065519333 1.2205731868743896
0.11576308310031891 -0.13031966984272003 1.1707268953323364
0.1346040517091751 0.0017892271280288696 1.440187692642212
0.11422695219516754 0.0330982431769371 1.434008240699768
0.11821398138999939 -0.08275312185287476 1.1850879192352295
0.1191936805844307 -0.0902777761220932 0.8345848321914673
0.09554785490036011 -0.2270309329032898 1.2228517532348633
0.14559048414230347 0.035260532051324844 1.3195757865905762
-0.14490091800689697 0.019352581351995468 1.329627513885498
-0.15287117660045624 0.10127806663513184 0.4354029893875122
0.035591281950473785 -0.20097073912620544 0.7644520998001099
0.030725816264748573 -0.16688361763954163 1.7519333362579346
-0.19407221674919128 0.06450371444225311 1.0143195390701294
-0.15301266312599182 -0.16004103422164917 1.2675203084945679
-0.1154726967215538 0.04578910768032074 0.4360697269439697
0.006416011601686478 0.0658990666270256 1.4532617330551147
0.15870435535907745 -0.4455677568912506 0.06073775887489319
0.10515627264976501 -0.11450020223855972 1.5486791133880615
0.10238225758075714 -0.11349581182003021 1.5445239543914795
0.10676661133766174 -0.14046981930732727 1.4413130283355713
0.18891146779060364 -0.43377047777175903 0.2863090932369232
0.20219247043132782 -0.39469248056411743 0.2726708948612213
0.19323118031024933 -0.18348297476768494 1.2190907001495361
-0.17101964354515076 -0.16573205590248108 0.9310845732688904
-0.1500265747308731 0.0056501030921936035 1.3695909976959229
-0.1497473120689392 0.0031048469245433807 1.3698875904083252
-0.15382173657417297 0.0005838051438331604 1.3708198070526123
-0.12472257763147354 0.16469132900238037 0.26011475920677185
-0.03955559805035591 -0.0896557867527008 0.8466426134109497
0.1127542033791542 -0.40279921889305115 0.2317211776971817
0.2455824613571167 -0.18626078963279724 1.1800975799560547
0.09041602909564972 -0.11813187599182129 1.6953952312469482
0.1330050528049469 -0.15155428647994995 0.8175473213195801
0.1507853865623474 -0.0028378209099173546 1.392815113067627
0.1510849893093109 0.015118013136088848 1.343957543373108
0.13329681754112244 -0.32695674896240234 0.11123626679182053
0.35717710852622986 -0.5396920442581177 0.9692776203155518
0.345003217458725 -0.5016281604766846 0.9540992975234985
0.3499387800693512 -0.5118472576141357 0.9530181884765625
0.3381562829017639 -0.5123591423034668 0.9579616189002991
0.353067547082901 -0.5362727642059326 0.9536895751953125
0.3563495874404907 -0.5307842493057251 0.97218918800354
0.3513544797897339 -0.36449480056762695 0.9979667663574219
0.3392163813114166 -0.3702140748500824 0.9866784811019897
0.3535010516643524 -0.3915022611618042 0.9912625551223755
0.34557634592056274 -0.40263891220092773 0.9899587631225586
0.33172038197517395 -0.1762484610080719 0.981036901473999
0.3312491476535797 -0.19865888357162476 0.9911723136901855
0.33288198709487915 -0.18684133887290955 0.9676147103309631
0.34295594692230225 -0.3748002052307129 0.9481209516525269
0.34093931317329407 -0.3968985080718994 0.9594453573226929
0.35598933696746826 -0.43755605816841125 1.004127860069275
0.3543332815170288 -0.4196239113807678 0.99522465467453
0.33237719535827637 -0.2229938507080078 0.9376376271247864
0.3329716920852661 -0.23845738172531128 0.9592583179473877
0.35260704159736633 -0.2888527810573578 1.0117478370666504
0.3420841693878174 -0.2834567129611969 1.008852243423462
0.3634743392467499 -0.5094821453094482 0.9906595349311829
0.3552754521369934 -0.4843798279762268 0.947526216506958
0.3401103615760803 -0.185911625623703 0.9579031467437744
0.3366440236568451 -0.19060862064361572 0.9530444145202637
0.34535613656044006 0.006964109838008881 1.1103657484054565
0.3448540270328522 -0.00838952511548996 1.1040637493133545
0.34077537059783936 0.012536220252513885 1.0892157554626465
0.3533342778682709 -0.4606580138206482 0.9886273741722107
0.3556362986564636 -0.4881781041622162 0.9861332178115845
0.3415583074092865 -0.18670722842216492 0.9507067203521729
0.33851557970046997 -0.18106552958488464 0.9408605098724365
0.358554869890213 -0.5491880178451538 0.9115246534347534
0.3591926693916321 -0.5674983859062195 0.9158239960670471
0.3472648561000824 0.020762570202350616 1.1074998378753662
0.35156047344207764 0.007170028984546661 1.1149518489837646
0.3415972888469696 0.02441563457250595 1.1025078296661377
0.3453919589519501 0.01691342145204544 1.0889153480529785
0.3687206506729126 -0.6078776121139526 0.9589018821716309
0.3773759603500366 -0.6342120170593262 0.9636510014533997
0.37188729643821716 -0.6312772631645203 0.9456597566604614
0.34305518865585327 -0.30537497997283936 0.9444428086280823
0.3476138114929199 -0.3258644640445709 0.9376623034477234
0.3466032147407532 -0.35093337297439575 0.927828848361969
0.3534196615219116 -0.34451067447662354 0.9225100874900818
0.35244905948638916 -0.001374073326587677 1.1200674772262573
0.3478962481021881 0.026478536427021027 1.099983811378479
0.37111151218414307 -0.4566359221935272 1.0066368579864502
0.37532663345336914 -0.45824846625328064 1.0073559284210205
0.3668288290500641 -0.4751126170158386 1.0003399848937988
0.3771558105945587 -0.49209028482437134 1.0024135112762451
0.34766292572021484 -0.258694052696228 0.9438207745552063
0.34558337926864624 -0.275972843170166 0.9339276552200317
0.34410369396209717 -0.2811347246170044 0.9402329921722412
0.3507862687110901 0.026952840387821198 1.1031156778335571
0.3571174442768097 -0.0026941001415252686 1.1161129474639893
0.3529230058193207 0.011058710515499115 1.0910847187042236
0.33358034491539 -0.14329034090042114 0.9227145910263062
0.33458757400512695 -0.1491788625717163 0.9116055965423584
0.34096580743789673 -0.16664525866508484 0.9316858053207397
0.33807992935180664 -0.15904615819454193 0.9252448081970215
0.33428773283958435 -0.1558401882648468 0.9227383732795715
0.3609251081943512 -0.37054774165153503 0.9116585850715637
0.3495102822780609 -0.35012054443359375 0.9131901264190674
0.3513607680797577 -0.35705456137657166 0.9009766578674316
0.3552323281764984 -0.36173784732818604 0.8999480605125427
0.3536092936992645 0.006561726331710815 1.0971765518188477
0.3820485770702362 -0.6398158073425293 0.9688282012939453
0.37683185935020447 -0.6330927014350891 0.9510627388954163
0.3852066397666931 -0.6504631042480469 0.9629183411598206
0.37520694732666016 -0.6547362804412842 0.9655427932739258
0.3740430474281311 -0.6239004135131836 0.939348578453064
0.3605659008026123 -0.17397096753120422 0.9741396307945251
0.3494844138622284 -0.18304333090782166 0.9576740860939026
0.3681124746799469 -0.5257715582847595 0.9084106683731079
0.36184701323509216 -0.5534734725952148 0.9130756258964539
0.37238654494285583 -0.5825982093811035 0.917762279510498
0.36479300260543823 -0.2797262668609619 1.0177505016326904
0.36491867899894714 -0.29806748032569885 1.0111736059188843
0.3722395598888397 -0.3070336878299713 1.004293441772461
0.3737318813800812 -0.4504619836807251 1.0143344402313232
0.37748295068740845 -0.45837798714637756 1.0019197463989258
0.38082894682884216 -0.515532910823822 0.9948459267616272
0.3706591725349426 -0.4169788360595703 1.0062758922576904
0.3722189962863922 -0.5030614137649536 0.9349877238273621
0.3728431165218353 -0.5371919870376587 0.9229533672332764
0.36981117725372314 -0.27435722947120667 1.0115288496017456
0.37766897678375244 -0.4249812364578247 0.9836974740028381
0.3819480836391449 -0.4037463665008545 0.9830005764961243
0.3802233636379242 -0.44672682881355286 0.9854820966720581
0.37654098868370056 -0.5964856743812561 0.9491015076637268
0.3841935992240906 -0.5808379054069519 0.9417183995246887
0.3665044903755188 -0.40076035261154175 0.9361580014228821
0.37517672777175903 -0.40802207589149475 0.9516236186027527
0.37015464901924133 -0.42513325810432434 0.9477180242538452
0.37685590982437134 -0.4285280704498291 0.9587032198905945
0.3771803379058838 -0.34926337003707886 0.9919770359992981
0.36941689252853394 -0.389069527387619 0.9859020113945007
0.37864091992378235 -0.5070657134056091 0.9752390384674072
0.3853660821914673 -0.5256637334823608 0.9658869504928589
0.3754781186580658 -0.5327966213226318 0.9678295850753784
0.37699460983276367 -0.49126896262168884 0.9529314637184143
0.37880030274391174 -0.4978465437889099 0.9461233019828796
0.37141135334968567 -0.360241174697876 0.9488648176193237
0.37151476740837097 -0.37646016478538513 0.9472735524177551
0.36573582887649536 -0.3448312282562256 0.9372550249099731
0.3679867088794708 -0.368510901927948 0.9405159950256348
0.36721816658973694 -0.38927173614501953 0.9472224712371826
0.3746931552886963 -0.344878226518631 0.9668084383010864
0.3754188120365143 -0.33058688044548035 0.9764630794525146
0.3669794797897339 -0.3078276515007019 0.9516079425811768
0.36863622069358826 -0.3263964354991913 0.963585615158081
0.38173776865005493 -0.5104684829711914 0.9476025104522705
0.386209636926651 -0.5294584035873413 0.9490671157836914
0.3817859888076782 -0.5191477537155151 0.946814775466919
0.39641034603118896 -0.5208931565284729 0.9498186111450195
0.3693014681339264 -0.19309332966804504 0.9828368425369263
0.3392324447631836 -0.4855659008026123 0.9727455377578735
0.3355892598628998 -0.4982995390892029 0.9605627655982971
0.34213224053382874 -0.41291552782058716 0.979800820350647
0.34014639258384705 -0.4121703505516052 0.9746178388595581
0.33552882075309753 -0.4324715733528137 0.9805915951728821
0.33692100644111633 -0.42012277245521545 0.9713804721832275
0.3391544818878174 -0.4361099302768707 0.9763075113296509
0.3434126675128937 -0.3701215982437134 0.9669235944747925
0.34101492166519165 -0.38452762365341187 0.963665246963501
0.3405679166316986 -0.35217440128326416 0.9722932577133179
0.3424431085586548 -0.43252313137054443 0.9842616319656372
0.35553690791130066 -0.5048414468765259 0.9282853603363037
0.35299432277679443 -0.531732439994812 0.9502387642860413
0.3417791724205017 -0.4059871435165405 0.9523195624351501
0.35409244894981384 -0.5588767528533936 0.9555202722549438
0.35341876745224 -0.5818203687667847 0.9455416798591614
0.35929247736930847 -0.5637356638908386 0.9444500207901001
0.3625893294811249 -0.6031413078308105 0.9540448784828186
0.3377360999584198 -0.17473188042640686 1.001590609550476
0.35868847370147705 -0.24185529351234436 1.054539442062378
0.3482024669647217 -0.2452818751335144 1.0441229343414307
0.3605552613735199 -0.24922114610671997 1.0486012697219849
0.340217262506485 -0.26226770877838135 0.954409122467041
0.33931389451026917 0.006865769624710083 1.0768349170684814
0.34725672006607056 -0.01988675445318222 1.1114223003387451
0.34652501344680786 -0.035681840032339096 1.1031582355499268
0.34596505761146545 -0.029498644173145294 1.096624493598938
0.36475178599357605 -0.3714476227760315 1.000339150428772
0.36845964193344116 -0.5302242040634155 0.9989359378814697
0.36772140860557556 -0.5946491956710815 0.9293626546859741
0.33819642663002014 -0.06360678374767303 1.0473628044128418
0.3468962609767914 -0.08948515355587006 1.0266883373260498
0.3631231188774109 -0.3488215208053589 1.0162849426269531
0.3558160066604614 -0.35280561447143555 1.0062403678894043
0.35777801275253296 -0.4008294939994812 0.9961768388748169
0.3658183217048645 -0.6071389317512512 0.9286463856697083
0.37663066387176514 -0.6446720957756042 0.9705010652542114
0.3792347311973572 -0.6554211974143982 0.9714201092720032
0.37554022669792175 -0.6460235714912415 0.9550435543060303
0.34303760528564453 -0.142192542552948 1.0108067989349365
0.35098180174827576 -0.16925911605358124 1.003475308418274
0.37239572405815125 -0.3979259729385376 0.9965096116065979
0.3410644829273224 -0.17172440886497498 0.977544367313385
0.3654685318470001 -0.5687962174415588 0.9183957576751709
0.3644423484802246 -0.19953134655952454 1.0820473432540894
0.3674963712692261 -0.19985517859458923 1.0830440521240234
0.3648782968521118 -0.20700544118881226 1.0668319463729858
0.36767929792404175 -0.21667011082172394 1.0728689432144165
0.3726333975791931 -0.23208142817020416 1.0741069316864014
0.3498401939868927 -0.19994542002677917 1.0447251796722412
0.36480000615119934 -0.2008436918258667 1.048115611076355
0.3783542215824127 -0.6542919874191284 0.9730538129806519
0.3620726466178894 -0.41676127910614014 0.9361688494682312
0.3610020577907562 -0.4288187026977539 0.9388489723205566
0.3569054901599884 -0.43644073605537415 0.938911497592926
0.3547741770744324 -0.3914335072040558 0.9259904623031616
0.37327107787132263 -0.21335166692733765 1.0732319355010986
0.37064671516418457 -0.2315155267715454 1.0710936784744263
0.3486083745956421 -0.18699458241462708 0.9428821802139282
0.36885637044906616 -0.2064736783504486 1.0767674446105957
0.36892497539520264 -0.21170735359191895 1.0638960599899292
0.37316954135894775 -0.438839852809906 1.0068275928497314
0.34621313214302063 -0.1827431619167328 0.9152410626411438
0.34380975365638733 -0.18234175443649292 0.9107959270477295
0.342494934797287 -0.19132691621780396 0.8944560289382935
0.34322506189346313 -0.20386087894439697 0.8980652093887329
0.361224889755249 -0.17137597501277924 1.000019907951355
0.37301933765411377 -0.23622402548789978 1.0536984205245972
0.374671071767807 -0.45686841011047363 0.985718309879303
0.3743601143360138 -0.48067185282707214 0.9874688982963562
0.3511321246623993 -0.19983117282390594 0.9368572235107422
0.3572869300842285 -0.20892861485481262 0.9317864775657654
0.3454242944717407 -0.2000488042831421 0.9215604662895203
0.3821747601032257 -0.47589582204818726 0.9786438941955566
0.384463906288147 -0.4523125886917114 0.974246621131897
0.37691983580589294 -0.46159762144088745 0.9579467177391052
0.37679439783096313 -0.439020037651062 0.9616694450378418
0.37070393562316895 -0.5517027378082275 0.9315953850746155
0.37649306654930115 -0.5583480596542358 0.9359261989593506
0.36233827471733093 -0.20344743132591248 0.9555496573448181
0.36964118480682373 -0.21733379364013672 1.0036084651947021
0.3735756278038025 -0.24260705709457397 0.9914602041244507
0.3719959557056427 -0.23259985446929932 0.9811447858810425
0.37458786368370056 -0.2605690360069275 0.9859393239021301
0.37010735273361206 -0.26736509799957275 0.9741432666778564
0.3875669836997986 -0.47916096448898315 0.962209939956665
0.39180365204811096 -0.4667735993862152 0.9582847952842712
0.3965418040752411 -0.5142899751663208 0.9665647745132446
0.39185696840286255 -0.39613136649131775 0.9749895334243774
0.38554927706718445 -0.4300662875175476 0.9741808176040649
0.38458770513534546 -0.40616747736930847 0.9723660349845886
0.3807015120983124 -0.4146347641944885 0.9631558060646057
0.38626745343208313 -0.426761269569397 0.971408486366272
0.37957099080085754 -0.41222965717315674 0.9744705557823181
0.38728660345077515 -0.42958784103393555 0.966480016708374
0.39642420411109924 -0.525387167930603 0.9562596082687378
0.3893498480319977 -0.511360764503479 0.9505899548530579
0.3419850766658783 -0.5103465914726257 0.9744375944137573
0.342286080121994 -0.5249718427658081 0.9683422446250916
0.34120455384254456 -0.5035703182220459 0.9569618701934814
0.34016454219818115 -0.5246622562408447 0.9612014889717102
0.3412244915962219 -0.22917307913303375 1.037798523902893
0.3323444128036499 -0.2052793800830841 0.9749332666397095
0.3281908333301544 -0.2149655520915985 0.965030312538147
0.3379087746143341 -0.19408954679965973 1.0217585563659668
0.3521820902824402 -0.49055659770965576 0.979538083076477
0.34932687878608704 -0.46451660990715027 0.9613582491874695
0.33850598335266113 -0.26074647903442383 0.9799671173095703
0.33880335092544556 -0.26564884185791016 0.9645867943763733
0.3396385908126831 -0.24961517751216888 1.0228813886642456
0.3461914658546448 -0.2682052552700043 1.0171544551849365
0.3460666537284851 -0.4566153287887573 0.9648159146308899
0.3576340973377228 -0.5095481872558594 0.9801647067070007
0.3418646454811096 -0.2952433228492737 0.9664039015769958
0.3433349132537842 -0.3373491168022156 0.9683480262756348
0.34224385023117065 -0.3165855407714844 0.9542565941810608
0.34524911642074585 -0.42921921610832214 0.959682822227478
0.3609454333782196 -0.585637629032135 0.964613139629364
0.3654603958129883 -0.6228132843971252 0.9552510976791382
0.3633072078227997 -0.6116567850112915 0.9362429976463318
0.3548194169998169 -0.2317674160003662 1.0673896074295044
0.35848474502563477 -0.26435816287994385 1.0488470792770386
0.35374781489372253 -0.31182432174682617 1.0100797414779663
0.353184312582016 -0.33775779604911804 1.0093059539794922
0.3448007106781006 -0.33211398124694824 0.9419462084770203
0.3612781763076782 -0.2845328152179718 1.0523892641067505
0.3512909710407257 -0.25467467308044434 1.026814341545105
0.3562059700489044 -0.2744249105453491 1.019105315208435
0.36817899346351624 -0.5498622059822083 0.9884766340255737
0.3726157546043396 -0.5722246766090393 0.977063775062561
0.3554856777191162 -0.43506357073783875 0.9431061744689941
0.34709906578063965 -0.11616990715265274 1.0487494468688965
0.34303605556488037 -0.10169275850057602 1.0540070533752441
0.34835758805274963 -0.3522396981716156 0.9125850200653076
0.36702609062194824 -0.3288135230541229 1.0061784982681274
0.3701108396053314 -0.3468770682811737 1.0167267322540283
0.370271772146225 -0.5451963543891907 0.9905731081962585
0.3760289251804352 -0.5484501123428345 0.9882511496543884
0.37094298005104065 -0.5597190856933594 0.9827268123626709
0.34757399559020996 -0.2140246033668518 0.9282646775245667
0.34637871384620667 -0.234468013048172 0.9218200445175171
0.34071823954582214 -0.23266145586967468 0.9223605394363403
0.3391537070274353 -0.21031704545021057 0.9222750067710876
0.34446877241134644 -0.20690187811851501 0.9202402830123901
0.34010449051856995 -0.2053775042295456 0.9044196009635925
0.34323570132255554 -0.24934032559394836 0.9395444393157959
0.33468908071517944 -0.20324862003326416 0.8989623785018921
0.3360178470611572 -0.21257701516151428 0.8877760171890259
0.3603823781013489 -0.18430264294147491 1.0248998403549194
0.35701483488082886 -0.18965762853622437 1.0259056091308594
0.3481452465057373 -0.1723056435585022 0.9981275796890259
0.36593955755233765 -0.23772618174552917 1.060655951499939
0.3683870732784271 -0.24623042345046997 1.0471830368041992
0.3778226673603058 -0.4556417465209961 1.023549199104309
0.3737450838088989 -0.4510838985443115 1.026185393333435
0.3666326403617859 -0.444810152053833 1.011096477508545
0.3413712978363037 -0.20585718750953674 0.8857706785202026
0.338932067155838 -0.18803086876869202 0.8939492702484131
0.34419316053390503 -0.24522072076797485 0.9370087385177612
0.3664374053478241 -0.4894014894962311 0.9342310428619385
0.36413758993148804 -0.5054054260253906 0.9238144159317017
0.37093615531921387 -0.2110828459262848 1.047820806503296
0.3618070185184479 -0.16241741180419922 1.0299899578094482
0.37846532464027405 -0.5299593210220337 0.9760068655014038
0.3584516942501068 -0.35028815269470215 0.918222963809967
0.3551725447177887 -0.0279490128159523 1.0632884502410889
0.35574421286582947 -0.04200970008969307 1.0555479526519775
0.3664584159851074 -0.3575619161128998 0.9233301877975464
0.3619440495967865 -0.1491483449935913 1.0230026245117188
0.36662888526916504 -0.17054617404937744 1.0192909240722656
0.3595224916934967 -0.16691602766513824 1.008043646812439
0.38072872161865234 -0.47977542877197266 0.9570669531822205
0.36418604850769043 -0.1831454485654831 0.9682011008262634
0.36892491579055786 -0.33734628558158875 0.9479367733001709
0.3705167770385742 -0.18842574954032898 1.0130128860473633
0.3770536780357361 -0.2077183574438095 1.007803201675415
0.37192776799201965 -0.2165309339761734 1.0319280624389648
0.37210890650749207 -0.22519651055335999 1.0121314525604248
0.3707214593887329 -0.17648279666900635 1.00271475315094
0.36663275957107544 -0.17862337827682495 0.9899811148643494
0.3891935348510742 -0.47524958848953247 0.9649649262428284
0.3404155373573303 -0.38584065437316895 0.9835344552993774
0.3327162563800812 -0.38860124349594116 0.9797259569168091
0.3342313766479492 -0.39930182695388794 0.985586404800415
0.33650559186935425 -0.37974175810813904 0.9754714369773865
0.3343181014060974 -0.40400147438049316 0.9759432673454285
0.34051159024238586 -0.4655861556529999 0.9766219258308411
0.3441581428050995 -0.4787907600402832 0.9801046848297119
0.3446204364299774 -0.40864428877830505 0.9730311632156372
0.3408931493759155 -0.41395074129104614 0.9617520570755005
0.3455844521522522 -0.44281458854675293 0.9702950716018677
0.34497493505477905 -0.4529936611652374 0.9785095453262329
0.3331785798072815 -0.24176524579524994 0.9826488494873047
0.34612801671028137 -0.23219487071037292 1.0494270324707031
0.35072192549705505 -0.2090836465358734 1.0457382202148438
0.33832597732543945 -0.1557464897632599 1.0301415920257568
0.33797356486320496 -0.14430642127990723 1.0215364694595337
0.3516416847705841 -0.39750200510025024 0.9341638088226318
0.3415132164955139 -0.3493909239768982 0.9410904049873352
0.34481099247932434 -0.36728304624557495 0.9070130586624146
0.3455510139465332 -0.36649900674819946 0.9392918348312378
0.34703150391578674 -0.04238810017704964 1.097299337387085
0.34737130999565125 -0.0015536025166511536 1.089717149734497
0.3442906141281128 -0.020365629345178604 1.0887467861175537
0.33970287442207336 -0.022568531334400177 1.0794532299041748
0.3367665708065033 -0.030102800577878952 1.0682775974273682
0.3403157591819763 -0.09879274666309357 1.0288465023040771
0.33986595273017883 -0.11791080981492996 1.0182243585586548
0.359485387802124 -0.20145617425441742 1.0783663988113403
0.3710800111293793 -0.4561523497104645 1.0222651958465576
0.36823946237564087 -0.5023020505905151 0.9993799924850464
0.3646650016307831 -0.524911642074585 0.908728301525116
0.3557336926460266 -0.5209418535232544 0.914320170879364
0.338904470205307 -0.17894795536994934 0.9080535173416138
0.32960668206214905 -0.1884450614452362 0.8980257511138916
0.35426774621009827 -0.10261005163192749 1.0520727634429932
0.35647380352020264 -0.12379105389118195 1.0452443361282349
0.3699989914894104 -0.4521282911300659 1.0284725427627563
0.35442546010017395 -0.31323692202568054 0.9412111639976501
0.3587349057197571 -0.33012184500694275 0.9426909685134888
0.3675750195980072 -0.33663249015808105 1.0085399150848389
0.3679700493812561 -0.35505616664886475 1.0043011903762817
0.36369165778160095 -0.3750540614128113 0.9964219927787781
0.36699771881103516 -0.24309244751930237 0.9504920244216919
0.35879865288734436 -0.06139695644378662 1.0643155574798584
0.362448513507843 -0.07331293821334839 1.0475778579711914
0.3815077841281891 -0.5730357766151428 0.9405909776687622
0.3706456422805786 -0.2715710997581482 0.9998703002929688
0.3757632076740265 -0.2919316291809082 0.9855668544769287
0.36678093671798706 -0.24434612691402435 0.9682600498199463
0.3619881868362427 -0.23187997937202454 0.9420785903930664
0.3543500304222107 -0.25832971930503845 0.9499215483665466
0.3773042857646942 -0.23378628492355347 1.0044682025909424
0.37942931056022644 -0.2414635717868805 1.020028829574585
0.37731045484542847 -0.2511271834373474 1.0147005319595337
0.37205955386161804 -0.25269728899002075 0.996318519115448
0.33796465396881104 -0.22326980531215668 1.013192892074585
0.3294927775859833 -0.1900145262479782 1.003951907157898
0.3286224603652954 -0.20492345094680786 1.0082025527954102
0.32819586992263794 -0.21141159534454346 0.9930523037910461
0.3498297929763794 -0.48484230041503906 0.9588053226470947
0.3290185034275055 -0.20388057827949524 0.9629740118980408
0.3603726625442505 -0.5361769199371338 0.974513590335846
0.3375239074230194 -0.2813311815261841 0.9596890211105347
0.33798032999038696 -0.057985059916973114 1.070368766784668
0.3375036120414734 -0.06817358732223511 1.0599526166915894
0.33723530173301697 -0.06107296049594879 1.0515520572662354
0.35138118267059326 -0.25493189692497253 1.0299818515777588
0.3590452969074249 -0.279610812664032 1.044463038444519
0.3535316586494446 -0.26145416498184204 1.0361082553863525
0.34320545196533203 -0.21511152386665344 0.9275309443473816
0.3302783966064453 -0.20746980607509613 0.8873437643051147
0.360841304063797 -0.4591337740421295 0.9371447563171387
0.3617321848869324 -0.4719357490539551 0.9343723058700562
0.3594934344291687 -0.4874034523963928 0.9347485899925232
0.3464324474334717 -0.1901809275150299 1.0258448123931885
0.3665170669555664 -0.2772562503814697 1.0494005680084229
0.3613530099391937 -0.28228023648262024 1.0433287620544434
0.3660619556903839 -0.2744840681552887 1.0350128412246704
0.36145487427711487 -0.2660565972328186 1.021543025970459
0.3604113459587097 -0.5537669062614441 0.9076515436172485
0.36908188462257385 -0.5927019715309143 0.9269556403160095
0.3489117920398712 -0.018756534904241562 1.079113483428955
0.3466487228870392 0.0027519389986991882 1.0645049810409546
0.3453208804130554 0.0020015165209770203 1.0793256759643555
0.34996557235717773 -0.014646239578723907 1.071970820426941
0.3522694408893585 -0.017393648624420166 1.0624723434448242
0.3448144197463989 0.0002512112259864807 1.0597970485687256
0.3469432592391968 -0.01562649756669998 1.0563116073608398
0.35491207242012024 -0.26182320713996887 0.9418002963066101
0.34801921248435974 -0.03653893619775772 1.0435874462127686
0.3570093810558319 -0.09294837713241577 1.0332956314086914
0.35392606258392334 -0.10890329629182816 1.0240283012390137
0.3598578870296478 -0.12384317815303802 1.0331339836120605
0.36938148736953735 -0.18847909569740295 1.020003080368042
0.36528676748275757 -0.20199094712734222 1.0321590900421143
0.3543431758880615 -0.22898730635643005 0.9312224984169006
0.37983474135398865 -0.330258309841156 0.9833670854568481
0.37372830510139465 -0.30622977018356323 0.972767174243927
0.3937379717826843 -0.46449291706085205 0.9660840034484863
0.38421592116355896 -0.3582760989665985 0.9784896373748779
0.388169527053833 -0.3818661570549011 0.9763906002044678
0.3857458233833313 -0.3736475110054016 0.9741852879524231
0.3874286413192749 -0.39933985471725464 0.9689974784851074
0.34260115027427673 -0.3302934169769287 0.9936442375183105
0.33733469247817993 -0.3461872935295105 0.9868830442428589
0.34334370493888855 -0.3115915060043335 1.0033761262893677
0.33729153871536255 -0.32857778668403625 0.9802346229553223
0.35672882199287415 -0.5416457056999207 0.9288130402565002
0.3393044173717499 -0.14723992347717285 1.0125560760498047
0.341799795627594 -0.16603051126003265 1.007111668586731
0.33933189511299133 -0.17462484538555145 1.020890712738037
0.3375775218009949 -0.11682921648025513 1.0411579608917236
0.34041932225227356 -0.12707200646400452 1.0405722856521606
0.3599790036678314 -0.4459042549133301 1.0085467100143433
0.3559373617172241 -0.4542962312698364 1.003965973854065
0.36430782079696655 -0.42616212368011475 1.0069600343704224
0.35801440477371216 -0.49507105350494385 0.9287437796592712
0.3342313766479492 -0.14624544978141785 0.9199056625366211
0.33421438932418823 -0.1602514237165451 0.9150586128234863
0.34755319356918335 0.015150167047977448 1.0733169317245483
0.3409280776977539 0.009915336966514587 1.065826654434204
0.3568117022514343 -0.05600716918706894 1.1016467809677124
0.3626101315021515 -0.0627160519361496 1.0938198566436768
0.3751879334449768 -0.5703454613685608 0.972844660282135
0.38087671995162964 -0.5914139747619629 0.9581806659698486
0.3810839354991913 -0.5586026310920715 0.9454965591430664
0.3520910143852234 -0.2948669195175171 0.9400720000267029
0.35884079337120056 -0.025465823709964752 1.0906150341033936
0.35622671246528625 -0.028122030198574066 1.0961264371871948
0.3587319254875183 -0.037018463015556335 1.0854918956756592
0.376730740070343 -0.23429448902606964 1.0386816263198853
0.3820658326148987 -0.43864303827285767 0.9751812219619751
0.3600679039955139 -0.1928241103887558 0.9628708958625793
0.3620144724845886 -0.2119079828262329 0.9659259915351868
0.33766335248947144 -0.46837857365608215 0.9718803763389587
0.34258395433425903 -0.47993654012680054 0.9677050113677979
0.3381057381629944 -0.2102748155593872 1.0291168689727783
0.3374037444591522 -0.2776809334754944 0.9799838662147522
0.3350483179092407 -0.2990860342979431 0.9826239347457886
0.3483964502811432 -0.1848374903202057 1.0266151428222656
0.34124666452407837 -0.016120485961437225 1.0602028369903564
0.3391057848930359 -0.034966230392456055 1.0513596534729004
0.3426503837108612 -0.03908982127904892 1.0449566841125488
0.3513697385787964 -0.05539948493242264 1.103017807006836
0.3499387502670288 -0.05693185701966286 1.1001850366592407
0.34312161803245544 -0.05839350074529648 1.0830163955688477
0.3727244734764099 -0.591508150100708 0.9656797647476196
0.35092562437057495 -0.37313365936279297 0.9212906360626221
0.34414157271385193 -0.35822176933288574 0.9018330574035645
0.3371477723121643 -0.0006612390279769897 1.0608534812927246
0.37321773171424866 -0.5085726976394653 1.0012640953063965
0.37782031297683716 -0.5306389331817627 1.0043038129806519
0.358481228351593 -0.1450355499982834 1.0385195016860962
0.34652382135391235 -0.16851259768009186 1.034568190574646
0.33608338236808777 -0.2066825032234192 0.884888768196106
0.3539507985115051 -0.03668394684791565 1.1000053882598877
0.34874969720840454 -0.005346827208995819 1.0911246538162231
0.350695937871933 -0.012756489217281342 1.0862183570861816
0.34214460849761963 -0.1467098444700241 0.919329047203064
0.3428088128566742 -0.17375332117080688 0.9323538541793823
0.36460575461387634 -0.0807793065905571 1.0515174865722656
0.36041703820228577 -0.3841870427131653 0.9234471917152405
0.35590860247612 -0.35883498191833496 0.901481032371521
0.3735466003417969 -0.34805452823638916 1.0153745412826538
0.3742903172969818 -0.3952186703681946 0.9575749039649963
0.38349711894989014 -0.40381407737731934 0.964790403842926
0.37514597177505493 -0.35527026653289795 0.9668188691139221
0.37789759039878845 -0.3729417026042938 0.9664698839187622
0.34075117111206055 -0.26894909143447876 0.9985055923461914
