-0.3936588764190674 0.08187190443277359 1.2942421436309814
-0.3459572196006775 0.06745029985904694 1.2096598148345947
-0.32729190587997437 0.09265262633562088 1.2060649394989014
-0.32177695631980896 0.08360655605792999 1.142077088356018
-0.30178672075271606 0.06491900980472565 1.246687889099121
-0.29092249274253845 0.09339027106761932 1.1470048427581787
-0.37299615144729614 0.11624599993228912 1.3891711235046387
-0.326560378074646 0.07845191657543182 1.3531368970870972
-0.2437897026538849 0.07763106375932693 1.1400901079177856
-0.22124722599983215 0.07465101033449173 1.166440725326538
-0.22885437309741974 0.0819035992026329 1.45169997215271
-0.22898143529891968 0.05357590690255165 1.2887601852416992
0.28076955676078796 -0.010238348506391048 1.1716388463974
0.1941666454076767 0.020361296832561493 1.4583396911621094
0.33851996064186096 0.017365245148539543 1.2165652513504028
0.3361195921897888 -0.010583015158772469 1.2097629308700562
0.3378845751285553 0.014602910727262497 1.1451830863952637
0.3710396885871887 0.010217111557722092 1.3346076011657715
0.38462555408477783 -0.027081910520792007 1.2566957473754883
0.4478091597557068 -0.005440170411020517 1.0996352434158325
0.3998548686504364 0.011882476508617401 1.4953374862670898
0.46992969512939453 -0.043902989476919174 1.2234208583831787
0.5040327906608582 -0.014239881187677383 1.442201018333435
0.6287884712219238 -0.08403506875038147 0.9071574807167053
0.650351881980896 -0.08174464851617813 0.8904699683189392
0.665601909160614 -0.09128735959529877 0.7768917083740234
0.6771563291549683 -0.09464258700609207 0.6959453821182251
0.6677393317222595 -0.11163095384836197 0.711258590221405
0.6042629480361938 -0.04714932292699814 1.1887109279632568
0.6810590624809265 -0.07643985748291016 0.7767502069473267
0.6931310296058655 -0.0828859955072403 0.703529417514801
0.6247919797897339 -0.1358092576265335 0.9712613821029663
0.6174074411392212 -0.14606428146362305 1.0167109966278076
0.6096137166023254 -0.16304267942905426 0.9898022413253784
0.6413657665252686 -0.1464386284351349 0.9187488555908203
0.708462655544281 -0.07745304703712463 0.8048593401908875
0.7223297953605652 -0.0885058045387268 0.7198572754859924
0.6758208274841309 -0.08928080648183823 0.9785747528076172
0.6428244709968567 -0.13622461259365082 0.9634140133857727
0.6785708069801331 -0.15293847024440765 0.9078642129898071
0.6413519978523254 -0.15658167004585266 0.9735990762710571
0.6644473671913147 -0.18450987339019775 0.9030681252479553
0.6407155394554138 -0.12233281880617142 1.0381618738174438
0.6891663074493408 -0.13214096426963806 0.9854442477226257
0.7214275002479553 -0.16186369955539703 0.7495360970497131
0.7131736874580383 -0.19415564835071564 0.6870368719100952
0.7500145435333252 -0.12154440581798553 0.6915667653083801
0.6804320812225342 -0.08225274085998535 1.0592422485351562
0.7150495052337646 -0.10769803822040558 0.8434536457061768
0.7077858448028564 -0.1835082471370697 0.8174369931221008
0.7257359027862549 -0.17016293108463287 0.8059298992156982
0.7548636198043823 -0.15713010728359222 0.7218571305274963
0.7433527112007141 -0.10086259245872498 0.9928238987922668
0.7645562291145325 -0.09693936258554459 0.9653298258781433
0.7828303575515747 -0.1406107246875763 0.7883695363998413
0.7736858129501343 -0.14168407022953033 0.8078884482383728
0.6711085438728333 -0.06725993007421494 1.162682056427002
0.7652096748352051 -0.05661039054393768 1.114532232284546
0.7286006808280945 -0.076319620013237 1.113665223121643
0.7024114727973938 -0.04063860699534416 1.3070166110992432
0.7057822942733765 -0.04946618899703026 1.2605583667755127
0.7035122513771057 -0.044974248856306076 1.2555086612701416
0.7071024179458618 -0.06520599871873856 1.2382447719573975
0.7448208332061768 -0.05819550156593323 1.1741846799850464
0.7348907589912415 -0.06811580806970596 1.1953182220458984
-0.5680246353149414 0.10685881972312927 0.9168709516525269
-0.5697458386421204 0.08425209671258926 0.9300662279129028
-0.5608311295509338 0.0631377175450325 0.899996280670166
-0.38416796922683716 -0.018503880128264427 0.6183111071586609
-0.386700838804245 -0.0625753253698349 0.5791433453559875
-0.425334632396698 -0.012354344129562378 0.8065485954284668
-0.4351220428943634 -0.02470996603369713 0.7532981634140015
-0.43967029452323914 -0.0553007647395134 0.790486752986908
-0.42961227893829346 -0.05284779146313667 0.6825859546661377
-0.39440715312957764 -0.031328584998846054 0.6946051716804504
-0.38528168201446533 -0.06713452190160751 0.6583787798881531
-0.4638759195804596 0.014004714787006378 0.9423010349273682
-0.4456663727760315 -0.015397068113088608 0.8973376750946045
-0.46061190962791443 0.0059766583144664764 0.8986657857894897
-0.40605002641677856 -0.058604490011930466 0.7299948930740356
-0.39862990379333496 -0.0313921794295311 0.7303174734115601
-0.42893674969673157 -0.04120100289583206 0.8262273073196411
-0.4148908853530884 -0.022249262779951096 0.7778065204620361
-0.47967755794525146 0.09770382940769196 1.0839191675186157
-0.3981384038925171 0.06599926948547363 0.9322106838226318
-0.3661242127418518 0.05075162649154663 0.967349648475647
-0.3588763475418091 0.07214267551898956 0.967556357383728
-0.43298906087875366 0.05496828630566597 1.114884376525879
-0.3767830729484558 0.06742553412914276 1.0542293787002563
-0.3624100983142853 0.07554000616073608 1.0006773471832275
-0.35936158895492554 0.0564800389111042 0.9904441237449646
-0.3754647374153137 0.07961077243089676 1.355830192565918
-0.3404211699962616 0.0889168381690979 1.0840190649032593
-0.3222936987876892 0.05641864985227585 1.1269330978393555
-0.30567657947540283 0.08870692551136017 1.0845240354537964
-0.24745501577854156 0.06494434177875519 1.1308472156524658
-0.266792356967926 0.08165998756885529 1.0990614891052246
-0.2077351212501526 0.06547662615776062 1.1947758197784424
0.522556722164154 -0.02548334375023842 1.1017844676971436
0.47017809748649597 -0.012304509058594704 1.6127116680145264
0.6007506847381592 -0.05129207670688629 1.0725806951522827
0.549947202205658 -0.025740107521414757 1.0474460124969482
0.5708304047584534 -0.06455794721841812 1.046952247619629
0.5837594270706177 -0.04591605067253113 1.037347435951233
0.5455811023712158 -0.029667258262634277 1.248746395111084
0.5856615900993347 -0.09840807318687439 1.077641248703003
0.6077381372451782 -0.11148600280284882 1.0224125385284424
0.5933807492256165 -0.13371947407722473 1.0438568592071533
0.598240852355957 -0.13664190471172333 1.0129203796386719
0.6192891001701355 -0.12396787106990814 0.9582409262657166
0.6718567609786987 -0.13271886110305786 0.7538184523582458
0.688232958316803 -0.13337966799736023 0.7028549313545227
0.7138344645500183 -0.1235019713640213 0.6933749914169312
0.6330642104148865 -0.0810173824429512 1.0549163818359375
0.6498910784721375 -0.08316892385482788 1.014753818511963
0.6388346552848816 -0.14238576591014862 0.9945384860038757
0.63640296459198 -0.14476895332336426 0.9525018930435181
0.6290879845619202 -0.1791892647743225 0.923356294631958
0.5696256756782532 -0.05670475959777832 1.365992546081543
0.7023839354515076 -0.10679744184017181 0.9887098073959351
0.7337929606437683 -0.11223812401294708 0.9438457489013672
0.68175208568573 -0.10227295011281967 1.1181633472442627
0.7828404903411865 -0.17237870395183563 0.772725522518158
0.7794454097747803 -0.13053534924983978 0.7343390583992004
0.7308127880096436 -0.1260324865579605 0.9749181270599365
0.7390556931495667 -0.1416722983121872 0.9232463836669922
0.7959257364273071 -0.0878390371799469 1.1095656156539917
0.7571461796760559 -0.12320342659950256 1.0708847045898438
0.7783998847007751 -0.10140784829854965 1.0624127388000488
0.8061262369155884 -0.1390518695116043 0.9308963418006897
0.7977340221405029 -0.11460195481777191 0.9354127645492554
-0.5882609486579895 0.12948262691497803 1.0759029388427734
-0.4100954532623291 -0.004383012652397156 0.5627181529998779
-0.48084500432014465 0.015927385538816452 0.883326530456543
-0.46436047554016113 -0.0058537982404232025 0.8548349142074585
-0.4992244243621826 0.04571126028895378 0.9267101287841797
-0.5568336248397827 0.1205834373831749 1.381042242050171
-0.47630608081817627 0.08035339415073395 0.9585715532302856
-0.4618302583694458 0.060088034719228745 0.9261823892593384
-0.3501794934272766 -0.019743721932172775 0.5957745313644409
-0.330122709274292 0.008742749691009521 0.596226692199707
-0.43090933561325073 0.008175291121006012 0.8971019983291626
-0.4237912595272064 -0.012020293623209 0.8490276336669922
-0.4277649521827698 -0.010263483971357346 0.8914046287536621
-0.5387101769447327 0.10108119249343872 1.3341946601867676
-0.5036848783493042 0.1183481439948082 1.222509741783142
-0.26338300108909607 0.09350450336933136 1.2064980268478394
0.1715986132621765 0.01739727146923542 1.2605959177017212
0.16015705466270447 -0.0008777044713497162 1.2696033716201782
0.2833153009414673 -0.014431728050112724 1.2164599895477295
0.2872667908668518 0.004860210232436657 1.1403687000274658
0.35860052704811096 0.004011886194348335 1.2652605772018433
0.4349713623523712 -0.013272913172841072 1.1478021144866943
0.43103426694869995 -0.02839849889278412 1.131697416305542
0.49347370862960815 -0.04088462144136429 1.2960985898971558
0.511612594127655 -0.05515293404459953 1.3791718482971191
0.5481914281845093 -0.060416825115680695 1.1939133405685425
0.6253008246421814 -0.16644802689552307 0.924613893032074
0.6564229130744934 -0.14978912472724915 0.8753514885902405
0.6576192378997803 -0.18683907389640808 0.8347950577735901
0.6738116145133972 -0.16053085029125214 0.7778761386871338
0.639056921005249 -0.09879116714000702 1.11996591091156
0.7225068807601929 -0.20145928859710693 0.7114216685295105
-0.5522670745849609 0.07106399536132812 0.9210497736930847
-0.3641919493675232 0.012603811919689178 0.7503063678741455
-0.34717097878456116 0.0043288953602313995 0.6920225620269775
-0.5595158338546753 0.12432630360126495 1.4884979724884033
-0.33178722858428955 0.07993870228528976 1.0705883502960205
-0.31903135776519775 0.0791633278131485 1.039663553237915
-0.30185002088546753 0.06809915602207184 1.0744359493255615
-0.24541595578193665 0.07645485550165176 1.1092780828475952
-0.16419717669487 0.0519757941365242 1.2677664756774902
-0.1729719042778015 0.0351557657122612 1.2713310718536377
0.4206463098526001 -0.02772318385541439 1.4252195358276367
0.44481325149536133 -0.03383057564496994 1.4816524982452393
0.6310416460037231 -0.06870663166046143 1.084000587463379
0.6289308667182922 -0.06409992277622223 1.0067219734191895
0.579296350479126 -0.08100442588329315 1.1935784816741943
0.6357954740524292 -0.127126082777977 0.8983039259910583
0.6504573822021484 -0.08857640624046326 1.1675708293914795
0.6321750283241272 -0.07086603343486786 1.2529451847076416
0.7301566004753113 -0.10243549942970276 1.091651439666748
0.7317570447921753 -0.11782563477754593 1.0264341831207275
0.7611584067344666 -0.15485069155693054 0.8616100549697876
0.7245412468910217 -0.17426437139511108 0.7689995169639587
0.7790005803108215 -0.13650406897068024 0.851929247379303
-0.4035899341106415 -0.027471859008073807 0.5912100672721863
-0.3589693307876587 1.265108585357666e-05 0.5841851234436035
-0.4327812194824219 -0.02006232738494873 0.8013051748275757
-0.3906105160713196 -0.03231652453541756 0.6488262414932251
-0.3488488793373108 -0.03046891838312149 0.6381518244743347
-0.4157659411430359 0.04367915168404579 0.9544669389724731
-0.28438159823417664 0.0652337372303009 1.2178521156311035
-0.27816224098205566 0.06465442478656769 1.160407543182373
-0.2820121645927429 0.07883194088935852 1.1346216201782227
-0.24316734075546265 0.05593617260456085 1.2095859050750732
-0.22709956765174866 0.04765399545431137 1.1422332525253296
-0.22335848212242126 0.06140737235546112 1.1296701431274414
0.2913925349712372 0.017581287771463394 1.1474676132202148
0.5633460283279419 -0.07941112667322159 1.115112543106079
0.6008216738700867 -0.106194406747818 1.119946837425232
0.6154565215110779 -0.1189204603433609 1.074169635772705
0.7295812964439392 -0.15416833758354187 0.9070838093757629
-0.4584308862686157 0.01185493916273117 0.6593639850616455
-0.4530600905418396 -0.017464416101574898 0.6289666891098022
-0.44777071475982666 -0.004421055316925049 0.6255918741226196
-0.45715492963790894 0.0574786551296711 0.8491654992103577
-0.40964174270629883 -0.003562234342098236 0.8168960213661194
-0.4150041341781616 -0.0052460916340351105 0.8672119975090027
-0.20063179731369019 0.05067311227321625 1.2301173210144043
-0.15090058743953705 0.03655938804149628 1.3457845449447632
-0.13754357397556305 0.044350869953632355 1.3353023529052734
0.16148658096790314 -0.01036190614104271 1.2829772233963013
0.2265118956565857 0.011342890560626984 1.6810060739517212
0.40319621562957764 0.018380776047706604 1.629257321357727
0.4291875958442688 0.0005984082818031311 1.6493905782699585
0.4871775507926941 -0.009799163788557053 1.5814964771270752
0.6573957204818726 -0.0380050353705883 1.3305695056915283
0.683812141418457 -0.04224153608083725 1.3680939674377441
0.6854662299156189 -0.022367972880601883 1.3025727272033691
0.6924961805343628 -0.0468473881483078 1.2888085842132568
0.7137899398803711 -0.030340716242790222 1.3023388385772705
-0.5880204439163208 0.11897611618041992 1.0124683380126953
-0.5803403854370117 0.13048739731311798 0.9886689186096191
-0.6117628812789917 0.15866784751415253 1.2502119541168213
-0.5893226861953735 0.15719515085220337 1.2409085035324097
-0.3993411660194397 0.02834364026784897 0.6085672378540039
-0.3866421580314636 0.014921043068170547 0.5636045932769775
-0.41858604550361633 -0.030688932165503502 0.6877526640892029
-0.4357125759124756 0.04748411849141121 0.7985607385635376
-0.4766196012496948 0.09073367714881897 1.0098284482955933
-0.544456958770752 0.12419942021369934 1.5386261940002441
0.2862425148487091 0.015094945207238197 1.2112089395523071
0.3092441260814667 0.02012886479496956 1.446463942527771
0.4606764018535614 -0.019142411649227142 1.1666144132614136
0.43432682752609253 0.00416636373847723 1.2925618886947632
0.5115785598754883 -0.034563057124614716 1.1024165153503418
0.5348645448684692 -0.04372109845280647 1.054664969444275
0.5189355611801147 -0.0659412071108818 1.1375044584274292
0.6439998149871826 -0.09815558791160583 0.855145275592804
0.6555799841880798 -0.11813350766897202 0.8425806164741516
0.6643224954605103 -0.16106422245502472 0.917293906211853
0.7110323905944824 -0.08521182835102081 1.088519811630249
0.758078396320343 -0.1019439771771431 0.8671948313713074
-0.42230743169784546 -0.011960726231336594 0.5981794595718384
-0.3814360499382019 -0.01087617501616478 0.5555662512779236
-0.30995994806289673 0.08842617273330688 1.0419633388519287
-0.25700533390045166 0.08898676931858063 1.1295890808105469
-0.21800744533538818 0.0560380220413208 1.181827425956726
0.7260633707046509 -0.10387752205133438 0.8986494541168213
0.7680201530456543 -0.14414025843143463 0.6655899882316589
0.7789725661277771 -0.1475880891084671 0.6826773881912231
-0.44967252016067505 -0.011212445795536041 0.8363264203071594
-0.38395726680755615 0.004631735384464264 0.7685470581054688
-0.37610507011413574 -0.016584601253271103 0.7230081558227539
0.5293291807174683 -0.024862829595804214 1.5007487535476685
0.7827021479606628 -0.12556861340999603 0.6741004586219788
0.7758063673973083 -0.12486979365348816 0.9915382266044617
-0.2757422924041748 0.09399484843015671 1.2833397388458252
0.7417486906051636 -0.09391972422599792 1.0834070444107056
-0.39093127846717834 0.02355831488966942 0.8408571481704712
0.6873691082000732 -0.1864578127861023 0.7250887751579285
0.7353357672691345 -0.10139178484678268 1.0669301748275757
-0.44907766580581665 -0.03115053102374077 0.7981220483779907
-0.36541759967803955 -0.13742317259311676 0.9497147798538208
-0.3695913255214691 -0.13327263295650482 0.9629162549972534
-0.355465292930603 -0.15726901590824127 0.9605439901351929
-0.3599098324775696 -0.15668076276779175 0.9720748662948608
-0.34106913208961487 -0.10842186957597733 1.02232825756073
-0.3446696400642395 -0.12324929982423782 1.0011961460113525
-0.33503490686416626 -0.10393977910280228 0.9734578132629395
-0.33181023597717285 -0.08224940299987793 1.0089149475097656
-0.33321136236190796 -0.13836067914962769 1.0110136270523071
-0.33751270174980164 -0.17048704624176025 0.9992555379867554
-0.32028162479400635 -0.07236076891422272 1.0907940864562988
-0.314778208732605 -0.16655878722667694 1.00145423412323
-0.33005329966545105 -0.12907208502292633 0.998212456703186
-0.31392258405685425 -0.15000593662261963 1.0432908535003662
-0.3150724172592163 -0.12277727574110031 1.0306644439697266
-0.3075256943702698 -0.056446149945259094 1.0610263347625732
-0.30704188346862793 -0.11254632472991943 1.0328967571258545
-0.311604768037796 -0.12366173416376114 1.0556827783584595
-0.31855857372283936 -0.10120203346014023 1.0849463939666748
-0.3349304795265198 -0.05549243837594986 1.121889352798462
-0.3250349462032318 -0.11057094484567642 1.1172549724578857
-0.2979632616043091 -0.007264121435582638 1.1531360149383545
-0.3060535788536072 -0.00981682538986206 1.1060290336608887
-0.32647794485092163 -0.06088680773973465 1.155905842781067
-0.26914745569229126 -0.00996067002415657 1.0981720685958862
-0.2778913378715515 -0.04923402890563011 1.2147810459136963
-0.29148223996162415 -0.10962951183319092 1.1682485342025757
-0.2709503173828125 0.008073760196566582 1.1413451433181763
-0.23528257012367249 -0.00019281171262264252 1.1568763256072998
-0.24475328624248505 0.0038802288472652435 1.2142345905303955
-0.21912924945354462 0.004206743091344833 1.2174413204193115
-0.21700046956539154 -0.057498566806316376 1.289955973625183
-0.25428032875061035 -0.08353754878044128 1.2208513021469116
-0.212437704205513 0.00802144780755043 1.263461947441101
-0.23847171664237976 -0.023242827504873276 1.2690229415893555
-0.20148725807666779 0.004766229540109634 1.3031554222106934
-0.18780970573425293 -0.0013206861913204193 1.3400697708129883
-0.1794389933347702 -0.05107953026890755 1.3499974012374878
-0.20341874659061432 -0.09489947557449341 1.246705174446106
-0.18930885195732117 0.05234450846910477 1.7547751665115356
-0.14503318071365356 0.10548843443393707 1.4135026931762695
-0.1338317096233368 0.0662548616528511 0.8723465204238892
-0.1800653040409088 0.017042124643921852 0.8765892386436462
-0.15603959560394287 -0.07530701160430908 0.8835976123809814
-0.19879090785980225 -0.10463930666446686 0.8732345104217529
-0.17465324699878693 0.0608118437230587 1.657700777053833
-0.19350694119930267 0.0343187116086483 1.7776391506195068
-0.16360048949718475 0.044330231845378876 1.7242239713668823
-0.14604175090789795 0.07483735680580139 1.671586275100708
-0.15695533156394958 0.057814355939626694 1.623207688331604
-0.11713383346796036 0.0008729360997676849 1.048107624053955
-0.1546253114938736 -0.05252648890018463 1.0106455087661743
-0.15964442491531372 -0.12212643027305603 0.9994996786117554
-0.14980918169021606 0.036147668957710266 1.551330327987671
-0.2607857286930084 -0.09043167531490326 0.05962183326482773
-0.2737489342689514 -0.15411563217639923 0.029074225574731827
-0.2737993597984314 -0.17960841953754425 0.04654563218355179
-0.14785335958003998 -0.03607156127691269 1.4008541107177734
-0.14129498600959778 0.008084669709205627 1.347507119178772
-0.13260553777217865 -0.017187390476465225 1.3287255764007568
-0.15609169006347656 -0.048854392021894455 1.3878556489944458
-0.13798078894615173 -0.09017560631036758 1.3454958200454712
-0.21148523688316345 -0.053852081298828125 0.48143792152404785
-0.2108791619539261 -0.08263217657804489 0.399188369512558
-0.2206754982471466 -0.03442711383104324 0.33240675926208496
-0.2244049459695816 -0.05732450261712074 0.36537885665893555
-0.15928320586681366 0.052603546530008316 1.69307279586792
-0.13416843116283417 -0.058418624103069305 1.297248363494873
-0.1359912008047104 -0.06716647744178772 1.253435492515564
-0.13688470423221588 -0.09773239493370056 1.2835004329681396
-0.16208919882774353 -0.114092618227005 1.2836053371429443
-0.21471236646175385 -0.023377835750579834 0.26362282037734985
-0.14753291010856628 -0.03345134109258652 1.549444556236267
-0.1417222023010254 0.0406765453517437 1.5518970489501953
-0.14617221057415009 0.011863470077514648 1.546435832977295
-0.180302694439888 -0.08547859638929367 0.5803495645523071
-0.10597042739391327 0.03839642554521561 1.790534257888794
-0.12201039493083954 -0.11513005197048187 1.221977949142456
-0.11521033942699432 -0.03658566623926163 1.1695168018341064
-0.13066640496253967 -0.12990792095661163 0.7560608983039856
-0.11517543345689774 0.09105396270751953 1.7330074310302734
-0.1254967451095581 -0.0705900490283966 1.4158525466918945
-0.10429263859987259 -0.11767454445362091 0.8573037385940552
-0.14198532700538635 -0.13146692514419556 0.8795518279075623
-0.12455930560827255 -0.20284081995487213 0.9211325645446777
-0.10811623930931091 -0.21766528487205505 0.8562939167022705
-0.24788033962249756 -0.21392294764518738 0.07101909071207047
-0.0735662505030632 0.11725765466690063 1.731558084487915
-0.09960117191076279 0.049725934863090515 1.7765625715255737
-0.1497182846069336 -0.010535184293985367 1.4568116664886475
-0.1285654902458191 -0.03740047290921211 1.5081034898757935
-0.180669903755188 -0.008612379431724548 0.3311755955219269
-0.2083529233932495 -0.03219535946846008 0.21626290678977966
-0.2389722764492035 -0.20879067480564117 0.11141981929540634
-0.21305014193058014 -0.022432446479797363 0.06622801721096039
-0.10822208225727081 -0.014367345720529556 1.330819010734558
-0.1603032648563385 -0.1136624664068222 0.5542846918106079
-0.20294158160686493 -0.1748739629983902 0.013332415372133255
-0.24558080732822418 -0.17898651957511902 0.005313222296535969
-0.10350526124238968 0.03738192841410637 1.5686261653900146
-0.10221776366233826 0.004309672862291336 1.5249886512756348
-0.03029988892376423 -0.2194404900074005 0.9139277935028076
-0.083375945687294 0.08906875550746918 0.8682873845100403
-0.20868413150310516 -0.13709495961666107 0.27328041195869446
-0.18366487324237823 -0.13309486210346222 0.19656619429588318
-0.1929146945476532 -0.03215644136071205 0.113099105656147
-0.0926782637834549 -0.009836651384830475 1.2978113889694214
-0.10026529431343079 -0.029205136001110077 1.255430817604065
-0.06798333674669266 -0.13311825692653656 1.3283535242080688
-0.13333338499069214 -0.04077175632119179 0.672120213508606
-0.11183276027441025 -0.13252146542072296 0.7452718615531921
-0.07291758805513382 -0.11738737672567368 0.8178105354309082
-0.17557580769062042 -0.13863344490528107 0.1640404313802719
-0.19365118443965912 -0.20390929281711578 0.08193841576576233
-0.11984467506408691 -0.08855973929166794 1.5028128623962402
-0.09149787575006485 -0.0012076906859874725 1.3672481775283813
-0.06212925165891647 -0.004794888198375702 1.300398588180542
-0.12963837385177612 -0.11702411621809006 0.5770251750946045
-0.10441675782203674 -0.09671065956354141 0.578743577003479
-0.14690959453582764 -0.0025692274793982506 0.5157819986343384
-0.08922084420919418 -0.07737062871456146 1.4727083444595337
-0.06773850321769714 -0.03145795688033104 1.4501832723617554
-0.09875858575105667 0.00857776403427124 1.4086790084838867
-0.11539645493030548 -0.03812653571367264 0.5222734808921814
-0.057212408632040024 0.06823873519897461 1.777493953704834
-0.10869911313056946 -0.12752315402030945 1.643183946609497
-0.031669724732637405 -0.18935070931911469 1.0003429651260376
-0.06889109313488007 -0.043309569358825684 1.4656128883361816
-0.047302134335041046 -0.07231542468070984 1.4503705501556396
-0.06778541207313538 -0.05682630464434624 1.443758249282837
-0.0540839284658432 -0.12298961728811264 1.5721280574798584
-0.097083181142807 -0.12198726832866669 1.516615390777588
-0.04584532231092453 -0.01153697818517685 1.4758127927780151
-0.09272078424692154 -0.05889948830008507 0.6445975303649902
-0.009166061878204346 0.022533968091011047 1.8029810190200806
-0.03302643075585365 0.1269828975200653 1.7001609802246094
-0.041127949953079224 -0.14070521295070648 1.5238664150238037
-0.056988924741744995 -0.1218508780002594 1.4745115041732788
-0.02965238131582737 -0.018414009362459183 1.4502625465393066
-0.03046029433608055 -0.11991089582443237 1.4731801748275757
0.001502256840467453 0.003979504108428955 1.4245685338974
-0.023766038939356804 -0.014619339257478714 1.2951651811599731
-0.006773669272661209 0.07870368659496307 1.7749818563461304
-0.004682917147874832 -0.023022251203656197 1.4816080331802368
-0.009120777249336243 -0.06862573325634003 1.4668759107589722
0.02061796560883522 0.0985773354768753 1.730566143989563
0.006426941603422165 0.035064488649368286 1.7821722030639648
-0.004819823428988457 -0.060774363577365875 1.449331283569336
0.026725124567747116 -0.08808918297290802 1.4932578802108765
0.0001724790781736374 -0.03793952241539955 1.4581108093261719
0.07013768702745438 -0.08775414526462555 0.5995546579360962
0.024963460862636566 0.010293681174516678 1.5087021589279175
0.10311714559793472 -0.10424104332923889 0.5173811912536621
0.014202040620148182 -0.17096588015556335 1.281976580619812
0.05751708522439003 -0.039017535746097565 1.2750338315963745
0.058728113770484924 -0.06463500112295151 1.1581535339355469
0.1368650496006012 -0.08880802989006042 0.09187567979097366
0.15751567482948303 -0.08097196370363235 0.07647623866796494
0.12771087884902954 0.034140586853027344 0.09710104763507843
0.02976442128419876 -0.151629239320755 1.2677994966506958
0.01726832613348961 -0.1895942986011505 1.19189453125
0.06906921416521072 -0.14052064716815948 0.7414621710777283
0.12120696157217026 -0.015744812786579132 0.06735052913427353
0.05827738344669342 0.028569921851158142 1.7410101890563965
0.021918972954154015 -0.12919943034648895 1.6511942148208618
0.010432694107294083 -0.11486556380987167 1.5627881288528442
0.016404716297984123 -0.11888113617897034 1.5160109996795654
0.09865342080593109 -0.1588701605796814 0.8826800584793091
0.10698320716619492 0.023043163120746613 1.7671146392822266
0.03247750177979469 0.007415462285280228 1.5660699605941772
0.031424324959516525 -0.008740469813346863 1.5363801717758179
0.12695933878421783 -0.005672238767147064 0.3431663513183594
0.1197006031870842 0.010285530239343643 0.28378185629844666
0.13962677121162415 0.045393019914627075 0.07947555184364319
0.05290297418832779 0.011870425194501877 1.8285586833953857
0.06812465190887451 -0.013450998812913895 1.4321553707122803
0.10068822652101517 -0.2180090844631195 0.8716175556182861
0.08879721164703369 -0.13072878122329712 0.8702961206436157
0.12954352796077728 -0.19324728846549988 0.8702362775802612
0.09535671770572662 -0.04244988411664963 0.760403037071228
0.1841541826725006 -0.0792703777551651 0.08786586672067642
0.06383111327886581 0.015814214944839478 1.7517719268798828
0.04874269291758537 -0.156550794839859 1.1591476202011108
0.05824216455221176 -0.13995006680488586 1.2874367237091064
0.061882246285676956 -0.15680533647537231 1.2833021879196167
0.12981051206588745 -0.18720942735671997 0.9398378133773804
0.05642443150281906 -0.06581256538629532 1.583085298538208
0.061491820961236954 0.009780023247003555 1.5735605955123901
0.05785740911960602 -0.016167886555194855 1.5650405883789062
0.06579264998435974 -0.0321047306060791 1.5593197345733643
0.07933613657951355 -0.044343750923871994 1.5352551937103271
0.13330115377902985 -0.06463062763214111 0.6588181257247925
0.13111825287342072 -0.13072535395622253 0.6776807308197021
0.08791491389274597 -0.056585635989904404 1.4069409370422363
0.0896511822938919 -0.0013753771781921387 1.3497288227081299
0.052302077412605286 -0.005346424877643585 1.3633179664611816
0.0634729191660881 -0.026710975915193558 1.3399474620819092
0.12373869121074677 -0.11851495504379272 0.8390474915504456
0.18369045853614807 0.027403242886066437 0.08293180912733078
0.20019055902957916 0.0005454942584037781 0.07480290532112122
0.07909193634986877 0.005979333072900772 1.7049986124038696
0.09505321085453033 -0.02825344353914261 1.4039853811264038
0.18982601165771484 -0.04855281114578247 0.3264196515083313
0.1001206785440445 0.02624906226992607 1.6771214008331299
0.07580532133579254 0.0526391826570034 1.67963445186615
0.08558816462755203 0.022326890379190445 1.6453857421875
0.20067629218101501 -0.01313725858926773 0.15084978938102722
0.20888574421405792 -0.05362676829099655 0.0851316750049591
0.19030731916427612 -0.08332306146621704 0.11201214790344238
0.15761002898216248 -0.01211420726031065 0.9788144826889038
0.15193891525268555 -0.014314563013613224 0.8788117170333862
0.10665023326873779 -0.00036809593439102173 1.76724112033844
0.17016834020614624 0.03963718190789223 0.8869724273681641
0.18439263105392456 0.003272147849202156 0.9490484595298767
0.11936569958925247 -0.009617220610380173 1.3420268297195435
0.13636992871761322 -0.030599158257246017 1.325351357460022
0.09936447441577911 -0.0597931407392025 1.3711254596710205
0.13327980041503906 -0.011613018810749054 1.2864865064620972
0.12121818959712982 -0.016588717699050903 1.2663418054580688
0.1518576294183731 -0.09581737220287323 1.2386575937271118
0.15983864665031433 -0.047362618148326874 1.2828786373138428
0.1766681671142578 -0.010701946914196014 1.2193119525909424
0.19538769125938416 -0.00905974954366684 1.1411128044128418
0.2227952480316162 -0.021220244467258453 1.159059762954712
0.20855392515659332 -0.044870078563690186 1.2037233114242554
0.19066205620765686 -0.0909423977136612 1.2218332290649414
0.2311040312051773 -0.028980571776628494 1.1050971746444702
0.2555233836174011 -0.10582814365625381 1.1491076946258545
0.26462244987487793 -0.07597895711660385 1.1320500373840332
0.2543877363204956 -0.04958504065871239 1.1056337356567383
0.22651264071464539 -0.14652086794376373 1.1276785135269165
0.24271398782730103 -0.10840883105993271 1.096444010734558
0.24284791946411133 -0.08471547067165375 1.087491512298584
0.292682409286499 -0.14795620739459991 0.9738962650299072
0.2267020344734192 -0.12926727533340454 1.094490885734558
0.22551709413528442 -0.1414347141981125 1.0666580200195312
0.2639654874801636 -0.1122904121875763 1.0141181945800781
0.23066368699073792 -0.1294577568769455 1.04249906539917
0.2303408980369568 -0.1572556048631668 1.0428341627120972
0.2541203796863556 -0.14500471949577332 1.009738802909851
0.27787265181541443 -0.15014660358428955 1.0016560554504395
0.23329319059848785 -0.18326027691364288 1.009879469871521
0.25878089666366577 -0.16458255052566528 1.0002681016921997
0.24563954770565033 -0.17245733737945557 1.0097609758377075
0.2862042188644409 -0.15464511513710022 0.9538609385490417
0.2552420198917389 -0.18601438403129578 0.9964947700500488
0.2679293155670166 -0.1437954604625702 0.9698922038078308
0.27309349179267883 -0.1773427426815033 0.9651852250099182
0.2915623188018799 -0.16899654269218445 0.9690437316894531
-0.3148292005062103 -0.047338247299194336 1.0852632522583008
-0.2998921871185303 -0.11118277907371521 1.0746850967407227
-0.2891979515552521 -0.09238868206739426 1.0710967779159546
-0.30778688192367554 -0.13369569182395935 1.1095213890075684
-0.25254473090171814 -0.04360068216919899 1.0835871696472168
-0.2775927186012268 -0.1295861005783081 1.0981703996658325
-0.1963786631822586 -0.016529478132724762 1.2404639720916748
-0.19204369187355042 -0.0745767131447792 1.2163749933242798
-0.17563968896865845 -0.09995149075984955 0.9722398519515991
-0.18011802434921265 -0.01763157919049263 0.9483590126037598
-0.12990686297416687 0.05059491842985153 0.9361711740493774
-0.12491913884878159 0.1548846960067749 1.2627968788146973
-0.11843506991863251 0.15270304679870605 1.202864646911621
-0.12374244630336761 0.17751379311084747 1.1678789854049683
-0.15558183193206787 -0.012593659572303295 0.9740062952041626
-0.20533064007759094 0.027277112007141113 1.7471967935562134
-0.150103360414505 -0.0018740706145763397 1.3670896291732788
-0.16985110938549042 -0.00031250715255737305 1.2971097230911255
-0.05243761092424393 0.17568713426589966 1.066225290298462
-0.08415577560663223 0.18195360898971558 0.9833197593688965
-0.2649883031845093 -0.1035827100276947 0.11942222714424133
-0.27601081132888794 -0.16076357662677765 0.07749640196561813
-0.17769774794578552 0.02472444623708725 1.7270833253860474
-0.1623520404100418 0.031186353415250778 1.6721653938293457
-0.1457417905330658 -0.1352284848690033 1.2610156536102295
-0.14431563019752502 -0.153158038854599 1.232068419456482
-0.1481838822364807 -0.1733676642179489 1.228981614112854
-0.11965277791023254 0.11406191438436508 1.3872325420379639
-0.11127166450023651 0.10511090606451035 1.380211591720581
-0.12555700540542603 -0.13447359204292297 1.2768923044204712
-0.14546023309230804 -0.05956055223941803 1.2182393074035645
-0.23893503844738007 -0.12265495210886002 0.188273623585701
-0.24189145863056183 -0.07849420607089996 0.19434957206249237
-0.07073530554771423 0.1332666277885437 1.2568206787109375
-0.15384426712989807 -0.021356087177991867 1.469445824623108
-0.15432707965373993 -0.015506941825151443 1.4471535682678223
-0.14076335728168488 -0.020695772022008896 1.4284218549728394
-0.15354764461517334 -0.01382249966263771 1.4243298768997192
-0.15220923721790314 -0.035095516592264175 1.4161968231201172
-0.14595814049243927 -0.11120308935642242 0.7973164319992065
-0.15733025968074799 -0.07394544780254364 0.7912420034408569
-0.05166323110461235 0.2374160885810852 1.0721994638442993
-0.052391167730093 0.23498418927192688 1.125520944595337
-0.11761124432086945 -0.12696996331214905 1.2757110595703125
-0.1303461194038391 -0.10832224041223526 0.8700220584869385
-0.23849177360534668 -0.03870610147714615 0.11911062896251678
-0.24374067783355713 -0.039303008466959 0.07891406118869781
-0.1408236026763916 -0.1890832781791687 0.8585594296455383
-0.07472820580005646 0.19519853591918945 1.2365877628326416
-0.15149377286434174 -0.09702150523662567 1.6405013799667358
-0.12757964432239532 0.019801288843154907 1.550405740737915
-0.10197358578443527 0.11018462479114532 1.5149471759796143
-0.100441113114357 0.07066048681735992 1.5751891136169434
-0.11885076016187668 0.0687161535024643 1.5480587482452393
-0.10691308230161667 0.08888046443462372 1.4608619213104248
-0.0549628846347332 0.1355537474155426 1.555893898010254
-0.1158454641699791 -0.02004191279411316 1.50126051902771
-0.08853837102651596 0.043916184455156326 0.9819181561470032
-0.13330963253974915 0.029739387333393097 1.8307920694351196
-0.1475410759449005 0.021681375801563263 1.8262839317321777
-0.14465561509132385 0.010123088955879211 1.8118388652801514
-0.021891402080655098 0.0764043778181076 1.4495775699615479
-0.08662555366754532 0.1272701472043991 1.42967689037323
-0.1813286989927292 -0.10534137487411499 0.043463997542858124
-0.0398089773952961 0.1677374541759491 1.3707053661346436
-0.111782506108284 -0.09747134894132614 1.5516773462295532
-0.16010931134223938 -0.08676852285861969 0.4022257328033447
-0.060090769082307816 0.0711451917886734 1.5152086019515991
-0.08136478066444397 0.027531050145626068 1.4994033575057983
-0.03650517016649246 0.1388988196849823 1.47456693649292
-0.03416508436203003 0.05309521034359932 0.8638267517089844
-0.16627250611782074 -0.023698603734374046 0.3506495952606201
-0.006131145171821117 0.20294025540351868 0.9769413471221924
-0.03355666622519493 0.03870333358645439 1.0416208505630493
-0.09788640588521957 -0.15863320231437683 1.2728897333145142
-0.09375270456075668 -0.1570175290107727 1.1694225072860718
-0.1544511616230011 -0.05134662985801697 0.3304150700569153
-0.1376158446073532 -0.06808111071586609 0.2687986493110657
-0.16797925531864166 -0.01816534996032715 0.26286232471466064
-0.06559189409017563 0.053110938519239426 1.5359771251678467
-0.08007940649986267 -0.11265504360198975 0.6953504085540771
-0.10410308092832565 -0.04054005816578865 0.6643224358558655
0.005792282521724701 0.24478310346603394 1.1140961647033691
0.00879434309899807 0.2348882555961609 1.0239218473434448
-0.04436272382736206 -0.18823188543319702 1.1965363025665283
-0.1627863198518753 -0.08495043963193893 0.13189095258712769
0.001380949281156063 0.18275675177574158 1.0218884944915771
-0.0037574777379631996 0.16222119331359863 1.0605934858322144
0.0050948262214660645 0.05529344081878662 1.5252848863601685
-0.07712753862142563 -0.09124907851219177 1.4088842868804932
0.015619245357811451 0.180279940366745 1.3464279174804688
0.023999404162168503 0.06768996268510818 1.4391868114471436
-0.002648737281560898 0.04387776926159859 1.526778221130371
0.057602282613515854 0.18141736090183258 1.0280555486679077
0.07328858971595764 0.16728216409683228 0.9851040840148926
-0.012246543541550636 -0.10912491381168365 1.4045708179473877
0.014391038566827774 0.0388844795525074 1.0397230386734009
-0.018781764432787895 -0.20034362375736237 1.1244738101959229
0.08533930033445358 0.15215924382209778 1.3690462112426758
0.016408925876021385 -0.013841770589351654 1.3119064569473267
0.062037017196416855 0.12223470211029053 1.4806065559387207
0.029011627659201622 0.06942889839410782 1.4838372468948364
0.03182916343212128 -0.026613853871822357 1.2213718891143799
0.043698593974113464 0.0964033305644989 0.9278955459594727
0.006568603217601776 -0.01504456251859665 1.766462802886963
0.11816190183162689 -0.06384636461734772 0.10249584168195724
0.11136150360107422 -0.06870750337839127 0.0793423131108284
0.11092261970043182 -0.011785842478275299 0.11265332996845245
-0.027028821408748627 -0.1400488168001175 1.643693447113037
0.06340634822845459 -0.06155628710985184 0.7253172397613525
0.0887255147099495 0.06279446184635162 1.4507384300231934
0.039808519184589386 -0.0520467683672905 1.503939151763916
0.0777580589056015 -0.039595913141965866 1.4457201957702637
0.033176030963659286 -0.0029767081141471863 1.421654224395752
0.10708634555339813 -0.021049436181783676 0.4100069999694824
0.12849228084087372 -0.09249093383550644 0.25094711780548096
0.1261986494064331 -0.002011507749557495 0.22177770733833313
0.12756513059139252 0.17191646993160248 1.0375465154647827
0.1183016300201416 0.20174819231033325 1.0015496015548706
0.10248586535453796 -0.14540624618530273 0.7523046731948853
0.10509054362773895 -0.05133451521396637 0.6673316359519958
0.00858072005212307 -0.06519751995801926 1.7550092935562134
0.0473293662071228 -0.07366189360618591 1.7089682817459106
0.11968032270669937 -0.12579703330993652 0.5601538419723511
0.023528829216957092 -0.008904170244932175 1.7796471118927002
0.047219231724739075 -0.026102300733327866 1.7299606800079346
0.06957650184631348 -0.09401530027389526 1.1541732549667358
0.07428847253322601 -0.08103272318840027 1.1261950731277466
0.06635382771492004 -0.15534529089927673 1.1095693111419678
0.03567814081907272 -0.11660416424274445 1.642712950706482
0.053116410970687866 -0.047341201454401016 1.5314805507659912
0.040952686220407486 -0.08596200495958328 1.5337992906570435
0.16467033326625824 0.15154393017292023 0.994698166847229
0.07910391688346863 -0.09297862648963928 1.3107411861419678
0.09104477614164352 -0.15996843576431274 1.2689541578292847
0.08377888798713684 -0.10048826038837433 1.2590956687927246
0.17305400967597961 0.011030226945877075 0.17096537351608276
0.1775183528661728 -0.06788045912981033 0.18549133837223053
0.19345545768737793 -0.058448921889066696 0.16994452476501465
0.0683044046163559 0.00110631063580513 1.7509316205978394
0.08928591012954712 -0.10377304255962372 1.309861660003662
0.17999175190925598 -0.029517361894249916 0.4476073980331421
0.15955109894275665 -0.0860840380191803 0.49771878123283386
0.18894505500793457 -0.03930145502090454 0.3925646245479584
0.09203459322452545 -0.055497732013463974 1.4395545721054077
0.07958328723907471 -0.048381660133600235 1.4362623691558838
0.09861467778682709 -0.03591899573802948 1.3937592506408691
0.12068071961402893 0.06684533506631851 0.9348631501197815
0.1301528811454773 -0.11594048142433167 0.8704502582550049
0.2010091245174408 -0.013988334685564041 0.2679189145565033
0.21232134103775024 -0.04567024111747742 0.27374452352523804
0.10558706521987915 -0.016182422637939453 1.3897784948349
0.1599261462688446 0.09873339533805847 1.2841236591339111
0.16742151975631714 0.12549307942390442 1.2569575309753418
0.10147137194871902 -0.23161396384239197 1.1645442247390747
0.15347373485565186 -0.06323012709617615 1.0055919885635376
0.15651726722717285 -0.1212562620639801 1.0003182888031006
0.1354309320449829 -0.0015588998794555664 1.2093544006347656
0.1746608167886734 -0.09997960180044174 1.0971534252166748
0.1886850744485855 -0.060797981917858124 1.0830574035644531
0.18210357427597046 -0.13877685368061066 1.1573781967163086
-0.2951184809207916 -0.0629924088716507 1.0621421337127686
-0.30385416746139526 -0.1232924684882164 1.0404800176620483
-0.23180940747261047 -0.11119554936885834 1.1450462341308594
-0.24644365906715393 -0.11420702189207077 1.1918530464172363
-0.2065524160861969 -0.0723685771226883 1.1547083854675293
-0.20613712072372437 -0.03040057048201561 1.178265929222107
-0.19395282864570618 -0.15475094318389893 0.881899893283844
-0.1164194867014885 0.18379001319408417 1.0223439931869507
-0.1197686493396759 0.17151525616645813 1.1274588108062744
-0.15080547332763672 -0.23734331130981445 1.1334121227264404
-0.13916364312171936 -0.16275528073310852 0.9679547548294067
-0.2546423673629761 -0.06704846769571304 0.2824714183807373
-0.23097452521324158 -0.11811469495296478 0.29814666509628296
-0.1847071647644043 -0.011487090960144997 0.5039247870445251
-0.15239590406417847 -0.19536158442497253 0.8642090559005737
-0.16500325500965118 -0.06630665063858032 0.6466175317764282
-0.15489013493061066 -0.10399780422449112 0.7015389204025269
-0.14166948199272156 -0.04265039041638374 0.7046828269958496
-0.10240551829338074 -0.016481615602970123 1.1078325510025024
-0.11039909720420837 -0.07856278121471405 1.1357691287994385
-0.037448152899742126 0.22283835709095 1.2023842334747314
-0.11476948857307434 -0.017653895542025566 0.8631842732429504
-0.1879207342863083 -0.1320345401763916 0.311485230922699
-0.1157229095697403 -0.021180804818868637 1.2160940170288086
-0.09348563849925995 -0.03939913585782051 1.1417759656906128
-0.17458221316337585 -0.10701429843902588 0.4516136348247528
-0.13768939673900604 0.007234271615743637 1.7460156679153442
-0.14278846979141235 -0.0299471914768219 1.738692283630371
-0.10133236646652222 -0.06770089268684387 1.7485406398773193
-0.11785031110048294 -0.10789546370506287 1.7057119607925415
-0.13238051533699036 -0.09775053709745407 1.6037929058074951
-0.1617729365825653 -0.08579560369253159 0.34660226106643677
-0.0773467943072319 -0.12211249023675919 0.7472513318061829
-0.1402636170387268 -0.09652979671955109 0.27716416120529175
-0.1575627326965332 -0.12419721484184265 0.2810010612010956
-0.17449544370174408 -0.04491891711950302 0.2126830667257309
-0.04991745203733444 0.06550571322441101 0.9731319546699524
-0.09009722620248795 0.018502581864595413 1.793964147567749
-0.10551108419895172 0.004515107721090317 1.7799017429351807
0.04825430363416672 0.14539958536624908 1.181190013885498
-0.04389360919594765 0.15495820343494415 1.187333345413208
0.02646818943321705 0.12858879566192627 1.243117094039917
0.0013726241886615753 -0.03198644518852234 1.2618203163146973
0.0367325097322464 0.21510422229766846 1.2349767684936523
0.04034728556871414 0.16432233154773712 1.066137433052063
0.10137857496738434 0.2266804575920105 1.1502184867858887
0.01638597622513771 0.1160234659910202 1.670851707458496
0.07411542534828186 0.15514016151428223 1.072662115097046
0.04387938603758812 -0.2189144343137741 0.915282130241394
0.09344661980867386 -0.0605873167514801 0.27168479561805725
0.1214153841137886 -0.06290314346551895 0.21454645693302155
0.06281786412000656 -0.1279177963733673 0.7074800133705139
0.03491020202636719 0.013528273440897465 1.075817584991455
0.0861441045999527 -0.04578892141580582 0.5785595774650574
0.09178188443183899 0.10580135881900787 1.3158425092697144
0.0629037395119667 -0.06673367321491241 1.4263328313827515
0.0480513758957386 0.10266154259443283 1.63430917263031
0.042369045317173004 0.03191202133893967 1.6071431636810303
0.04849271848797798 0.04877932369709015 1.5779552459716797
0.021899763494729996 -0.0008738450706005096 1.8283100128173828
0.06772500276565552 -0.0844394639134407 1.3584256172180176
0.14988020062446594 -0.012392515316605568 0.5140863060951233
0.11544644832611084 -0.000958150252699852 0.5108926296234131
0.14442078769207 0.0034424588084220886 0.36357003450393677
0.16565252840518951 0.0033884570002555847 0.3362966775894165
0.07543647289276123 -0.040728405117988586 1.524165153503418
0.06113330274820328 -0.050033632665872574 1.5340368747711182
0.07773260772228241 -0.05024817958474159 1.51604163646698
0.13137087225914001 -0.05264855921268463 0.7730202078819275
0.14473401010036469 -0.09388503432273865 0.6424859762191772
0.11980736255645752 0.027379700914025307 0.9751849174499512
0.1056085079908371 -0.07353028655052185 1.099507212638855
0.0998009592294693 -0.12777677178382874 1.0920491218566895
0.1079232394695282 -0.15271714329719543 1.0391883850097656
0.08084556460380554 -0.002515070140361786 1.6472423076629639
0.09120918065309525 -0.00982869416475296 1.5610321760177612
0.08468765020370483 -0.14928917586803436 1.2524282932281494
0.1074935644865036 0.0654168650507927 1.5473721027374268
0.09738204628229141 0.03892438858747482 1.5886346101760864
0.1969911754131317 0.016283631324768066 0.1017589420080185
0.20999954640865326 -0.02439388632774353 0.09362718462944031
0.11689302325248718 0.04572836682200432 1.5132611989974976
0.12363915145397186 0.06001804396510124 1.4776414632797241
0.129990354180336 0.04870929196476936 1.4396147727966309
0.13277748227119446 0.06526152789592743 1.4249186515808105
0.09380040317773819 -0.2339726686477661 1.1844723224639893
0.17796529829502106 -0.15481367707252502 0.8860499262809753
0.11368364840745926 -0.20730654895305634 1.1966972351074219
0.11071595549583435 -0.23265564441680908 1.1821753978729248
0.2070745825767517 -0.11062958091497421 0.9055404663085938
0.20918326079845428 -0.08845028281211853 0.8860896229743958
0.21683669090270996 -0.05335606262087822 0.8955312967300415
-0.2142908275127411 -0.10435403883457184 1.2012752294540405
-0.17257118225097656 -0.10508054494857788 1.275209665298462
-0.17884179949760437 -0.10150827467441559 1.256991982460022
-0.16987529397010803 -0.09525202959775925 1.2649167776107788
-0.1683673858642578 -0.09124332666397095 1.281693696975708
-0.20023587346076965 0.00197809562087059 0.8849483132362366
-0.14360371232032776 -0.054605163633823395 1.3030624389648438
-0.14483556151390076 -0.06535826623439789 1.0832774639129639
-0.1396138072013855 0.09891235828399658 1.554121971130371
-0.14339032769203186 -0.08615842461585999 1.2070286273956299
-0.14094315469264984 -0.08090236783027649 1.1549382209777832
-0.1109422817826271 0.1027703806757927 1.4470171928405762
-0.10009851306676865 0.10031061619520187 1.4058119058609009
-0.13156110048294067 -0.14143723249435425 1.0523638725280762
-0.09759790450334549 -0.16792888939380646 1.0109761953353882
-0.13432012498378754 -0.030544953420758247 0.7899802923202515
-0.041157666593790054 0.19713813066482544 1.2752293348312378
-0.08307363092899323 0.12927965819835663 1.6465157270431519
-0.16977091133594513 -0.050357840955257416 0.07494264096021652
-0.18187649548053741 -0.04034837335348129 0.06541958451271057
-0.08551229536533356 0.02661285549402237 0.8742979764938354
-0.002076033502817154 0.09701987355947495 0.8594491481781006
-0.06676062196493149 -0.018023189157247543 0.8519542217254639
0.019390972331166267 0.09861297160387039 1.339853286743164
-0.04608909785747528 -0.08140411972999573 0.7719247341156006
-0.06335130333900452 -0.12553603947162628 1.6220778226852417
-0.009360557422041893 0.016197243705391884 0.8793052434921265
-0.006285564973950386 -0.024024173617362976 0.8580912351608276
0.016150878742337227 -0.11737809330224991 0.8628621697425842
-0.08020761609077454 -0.16650769114494324 0.8633238077163696
-0.005665021017193794 -0.22668862342834473 0.856479287147522
0.033981986343860626 -0.10932263731956482 0.8420937657356262
-0.0058522215113043785 -0.16226311028003693 0.8685150146484375
-0.008123621344566345 0.027148213237524033 1.4993902444839478
0.028123147785663605 -0.03555510193109512 0.8542846441268921
0.030660051852464676 -0.04969421774148941 0.8382964730262756
