-0.9141565561294556 -0.03006461076438427 1.2021218538284302
-0.46696195006370544 0.001854732632637024 1.2580382823944092
-0.5074462294578552 0.024534668773412704 1.211054801940918
-0.5452423095703125 0.03842888027429581 1.1980875730514526
-0.4180845320224762 0.014020197093486786 1.2365285158157349
-0.45210620760917664 0.03507862240076065 1.1659302711486816
-0.46499156951904297 0.05492078512907028 1.1632981300354004
0.46011513471603394 0.031005416065454483 1.2328306436538696
0.887050449848175 -0.06532642990350723 1.370033860206604
0.9305827617645264 -0.08483140170574188 1.3934017419815063
0.9756748080253601 -0.08665839582681656 1.3644514083862305
1.1778404712677002 -0.0524655319750309 1.3031041622161865
-1.216293454170227 -0.02452770248055458 1.1051276922225952
-1.2354907989501953 -0.03490306809544563 1.0732439756393433
-1.239593505859375 -0.021393215283751488 1.0718958377838135
-1.050309419631958 -0.017499402165412903 1.204465627670288
-1.0304902791976929 -0.04099445044994354 1.1176339387893677
-0.9891165494918823 -0.057081278413534164 1.1388087272644043
-0.34406328201293945 0.021849174052476883 1.2420086860656738
-0.16948284208774567 -0.025578491389751434 1.3759818077087402
-0.16120363771915436 -0.007846551015973091 1.366591215133667
0.23766282200813293 -0.037151187658309937 1.3144285678863525
0.2468073070049286 -0.17696550488471985 1.7339686155319214
0.4564915895462036 -0.14153707027435303 1.7511664628982544
0.48298394680023193 -0.16636890172958374 1.7778637409210205
0.5688413977622986 -0.14312706887722015 1.73904287815094
0.8444263935089111 -0.05974864214658737 1.6152539253234863
0.8471322059631348 -0.06501031666994095 1.6642926931381226
0.8736903071403503 -0.025749944150447845 1.6151373386383057
0.8994461894035339 -0.04719573259353638 1.605700969696045
0.9057974815368652 -0.029627297073602676 1.6363123655319214
-1.0070438385009766 -0.060309384018182755 1.4197282791137695
-1.0164453983306885 -0.044610995799303055 1.409247875213623
-0.8116660118103027 -0.093028724193573 1.5558611154556274
-0.8068244457244873 -0.0785025805234909 1.5340921878814697
-1.2277687788009644 0.03960353136062622 1.0464173555374146
-1.2556853294372559 0.0409434475004673 1.0136263370513916
-1.1527984142303467 -0.051824577152729034 1.0581320524215698
-1.08149254322052 -0.006279539316892624 1.1627066135406494
-0.9220967888832092 -0.03154580295085907 1.3086833953857422
-0.5630943775177002 -0.15793073177337646 1.6923521757125854
0.42800894379615784 -0.0016937796026468277 1.2916584014892578
0.37264665961265564 -0.07173947989940643 1.527956485748291
0.6965011954307556 -0.01865856721997261 1.3301540613174438
0.5980501174926758 -0.036808889359235764 1.431053638458252
0.8168884515762329 -0.020608900114893913 1.3178503513336182
0.8804463148117065 -0.015686890110373497 1.2992939949035645
0.8255611062049866 -0.06547988206148148 1.3503143787384033
1.108255386352539 0.0032541612163186073 1.2031676769256592
1.1289541721343994 -0.006122299004346132 1.2010120153427124
1.1186432838439941 -0.07277290523052216 1.2603267431259155
1.0357449054718018 -0.026789270341396332 1.4501490592956543
1.201857566833496 0.024376943707466125 1.2906200885772705
-1.2451413869857788 -0.015173641964793205 1.0356736183166504
-1.2573872804641724 0.019569218158721924 0.9858523607254028
-0.6689507961273193 0.05758829787373543 1.1584771871566772
-0.5165569186210632 0.06446734815835953 1.1889852285385132
-0.40703076124191284 0.0361076220870018 1.2056015729904175
1.1555871963500977 0.011778905987739563 1.2971843481063843
1.3351078033447266 0.04032249003648758 1.125458002090454
1.3380895853042603 0.033118173480033875 1.1477398872375488
-1.041597604751587 -0.07724426686763763 1.1552388668060303
-1.061141848564148 -0.01280202716588974 1.0807721614837646
-1.0923409461975098 -0.019427485764026642 1.0455743074417114
0.6400326490402222 -0.1214178130030632 1.6842008829116821
1.335641622543335 0.0618763230741024 1.1438031196594238
1.161607027053833 -0.02953438088297844 1.4058785438537598
-0.40450340509414673 0.013182118535041809 1.3324873447418213
1.0707640647888184 -0.030903028324246407 1.463413953781128
-0.9977782368659973 -0.008774429559707642 1.1264501810073853
1.254919409751892 -0.04723396152257919 1.1150593757629395
1.0730993747711182 -0.03166026622056961 1.4473797082901
-1.0666160583496094 -0.09089823812246323 1.1264346837997437
-0.48328912258148193 -0.04261338338255882 0.9332043528556824
-0.48723626136779785 -0.04316695034503937 0.9466203451156616
-0.4703257083892822 -0.07300698012113571 0.9360348582267761
-0.47813159227371216 -0.07839788496494293 0.9443838596343994
-0.4329926371574402 -0.04888201877474785 1.01095449924469
-0.4443995952606201 -0.054667919874191284 0.9831428527832031
-0.4380228519439697 -0.023662464693188667 0.9586148262023926
-0.4216928482055664 -0.010302241891622543 1.0011212825775146
-0.4326518476009369 -0.07699581235647202 0.9830049872398376
-0.4442899227142334 -0.10732116550207138 0.9610610008239746
-0.3915368914604187 -0.04136425256729126 1.0794057846069336
-0.4189215302467346 -0.11069284379482269 0.9655703902244568
-0.4320470988750458 -0.06347770988941193 0.9754732847213745
-0.410669207572937 -0.10770728439092636 1.0063972473144531
-0.4083654284477234 -0.0731072872877121 1.008581519126892
-0.3771086633205414 -0.012585578486323357 1.0543383359909058
-0.3986373543739319 -0.060224033892154694 1.00934898853302
-0.39605045318603516 -0.0861242264509201 1.0319936275482178
-0.39079734683036804 -0.07080955803394318 1.0686755180358887
-0.3964751660823822 -0.03725839778780937 1.118210792541504
-0.4004538357257843 -0.10224491357803345 1.096740961074829
-0.3378070592880249 0.008695753291249275 1.1603126525878906
-0.3561514616012573 0.01877513900399208 1.114165186882019
-0.3812130391597748 -0.05920245870947838 1.153708815574646
-0.3163160979747772 0.024173554033041 1.1018729209899902
-0.3109627068042755 -0.06704041361808777 1.207918405532837
-0.3524227440357208 -0.12498271465301514 1.143078088760376
-0.30703774094581604 0.027482639998197556 1.1527340412139893
-0.26800861954689026 0.012781810015439987 1.1601881980895996
-0.26099008321762085 -0.011190260760486126 1.223474144935608
-0.23108163475990295 -0.011008277535438538 1.2226049900054932
-0.219797745347023 -0.11319464445114136 1.2806696891784668
-0.29115423560142517 -0.12052075564861298 1.199650764465332
-0.21558450162410736 -0.029866734519600868 1.2711092233657837
-0.2493460327386856 -0.06574071198701859 1.2676136493682861
-0.1987408548593521 -0.04900774732232094 1.3095078468322754
-0.17910441756248474 -0.06976145505905151 1.3451852798461914
-0.16808542609214783 -0.12436676025390625 1.3357678651809692
-0.22134511172771454 -0.14655166864395142 1.2232606410980225
-0.2077782154083252 -0.03755210340023041 1.7695544958114624
-0.17216907441616058 0.041169263422489166 1.4177144765853882
-0.1395939588546753 0.06514641642570496 0.8421279191970825
-0.18380972743034363 0.019392726942896843 0.838695764541626
-0.1544836461544037 -0.06668448448181152 0.8589210510253906
-0.19880250096321106 -0.09905185550451279 0.8519109487533569
-0.1896660327911377 -0.022034740075469017 1.667757511138916
-0.21160201728343964 -0.05400409549474716 1.7970201969146729
-0.17554022371768951 -0.040801942348480225 1.7394967079162598
-0.16015255451202393 -0.0011782869696617126 1.682784080505371
-0.17082461714744568 -0.02772590145468712 1.6289249658584595
-0.12258356064558029 -0.0020781829953193665 1.0413010120391846
-0.1567242443561554 -0.05183354765176773 1.0019054412841797
-0.15541180968284607 -0.12314574420452118 0.9901106953620911
-0.16410326957702637 -0.051851511001586914 1.5607147216796875
-0.2551489472389221 -0.00996666681021452 0.12308429926633835
-0.2649809718132019 -0.03913199156522751 0.06157127767801285
-0.2684124708175659 -0.06575915962457657 0.06095489114522934
-0.14129360020160675 -0.12122225761413574 1.3880789279937744
-0.1345214694738388 -0.05949709936976433 1.3462738990783691
-0.12254631519317627 -0.07796000689268112 1.3205108642578125
-0.14641232788562775 -0.1323895901441574 1.3722110986709595
-0.12407615780830383 -0.15949773788452148 1.31361985206604
-0.19081073999404907 -0.14429134130477905 0.4867291748523712
-0.19357937574386597 -0.1536516696214676 0.4035532772541046
-0.20496045053005219 -0.09585677832365036 0.35660842061042786
-0.2119009643793106 -0.1243039071559906 0.377882719039917
-0.17248296737670898 -0.031206225976347923 1.7051751613616943
-0.12137707322835922 -0.11538505554199219 1.2788112163543701
-0.12475700676441193 -0.10749012231826782 1.2391771078109741
-0.12580959498882294 -0.14693903923034668 1.2556096315383911
-0.1550845205783844 -0.16681113839149475 1.2492389678955078
-0.1999586969614029 -0.07368858903646469 0.29550284147262573
-0.14638513326644897 -0.12386801838874817 1.567800521850586
-0.1493692845106125 -0.04108744487166405 1.5590983629226685
-0.14834876358509064 -0.08044607937335968 1.5561120510101318
-0.16014732420444489 -0.19634848833084106 0.5715188980102539
-0.11257554590702057 -0.03809298947453499 1.810421109199524
-0.10565213859081268 -0.14078401029109955 1.1977205276489258
-0.11193782091140747 -0.04753776639699936 1.1675572395324707
-0.11623980849981308 -0.16830922663211823 0.7569999098777771
-0.1303820163011551 0.014375351369380951 1.749509334564209
-0.11189589649438858 -0.1542937010526657 1.395629644393921
-0.1010771095752716 -0.11279195547103882 0.8445039987564087
-0.14144520461559296 -0.12541210651397705 0.8690570592880249
-0.12229721248149872 -0.2029854953289032 0.9117438793182373
-0.10681699216365814 -0.21737435460090637 0.8522505760192871
-0.24134665727615356 -0.10534542798995972 0.05377368628978729
-0.09261294454336166 0.0413489043712616 1.7441519498825073
-0.11007457226514816 -0.026800062507390976 1.7930119037628174
-0.1434028297662735 -0.10753284394741058 1.4577187299728394
-0.1237850934267044 -0.12877947092056274 1.5200742483139038
-0.16928963363170624 -0.07640403509140015 0.35393527150154114
-0.196939617395401 -0.061315085738897324 0.26903194189071655
-0.23467683792114258 -0.12539948523044586 0.08873344957828522
-0.20015542209148407 0.03817465901374817 0.16312265396118164
-0.09902139008045197 -0.069568932056427 1.328284502029419
-0.14241339266300201 -0.21608982980251312 0.5414117574691772
-0.1946568489074707 -0.04544439911842346 0.03248779848217964
-0.234981968998909 -0.04273529350757599 0.02798253670334816
-0.11012528836727142 -0.04439043253660202 1.5755034685134888
-0.10575373470783234 -0.08364202827215195 1.5350525379180908
-0.02531251683831215 -0.22108888626098633 0.9026182293891907
-0.09082214534282684 0.0873655304312706 0.8477748036384583
-0.20424452424049377 -0.1793130785226822 0.27653074264526367
-0.18264347314834595 -0.13046801090240479 0.19630543887615204
-0.18205764889717102 0.005150375887751579 0.19082485139369965
-0.08365637063980103 -0.055642906576395035 1.2975380420684814
-0.09262625873088837 -0.06557310372591019 1.2524138689041138
-0.048759300261735916 -0.18975067138671875 1.294633388519287
-0.12006475776433945 -0.11884502321481705 0.6439712047576904
-0.09775059670209885 -0.17279577255249023 0.7520524859428406
-0.06579448282718658 -0.12184147536754608 0.8162718415260315
-0.1726507693529129 -0.11156052350997925 0.16513964533805847
-0.18608509004116058 -0.10207106918096542 0.06430625170469284
-0.10295084118843079 -0.18304529786109924 1.524842619895935
-0.08468745648860931 -0.06879832595586777 1.3662911653518677
-0.0537734180688858 -0.05014951899647713 1.3056615591049194
-0.11035539954900742 -0.22334495186805725 0.5612448453903198
-0.09036475419998169 -0.20739340782165527 0.5640138983726501
-0.12400152534246445 -0.10785487294197083 0.5251396894454956
-0.08104167878627777 -0.16631650924682617 1.4824721813201904
-0.059090521186590195 -0.12100401520729065 1.4467896223068237
-0.10139672458171844 -0.0662505030632019 1.417919635772705
-0.09813849627971649 -0.14532224833965302 0.5241681933403015
-0.06177787855267525 -0.0045869238674640656 1.7959784269332886
-0.09340567141771317 -0.21433135867118835 1.6768646240234375
-0.017311181873083115 -0.19455084204673767 0.9891877174377441
-0.06042004004120827 -0.13230173289775848 1.4699451923370361
-0.034206122159957886 -0.1624118983745575 1.4529428482055664
-0.05902821198105812 -0.1443822681903839 1.4361743927001953
-0.033495523035526276 -0.2081359326839447 1.6082626581192017
-0.07737220823764801 -0.2101820707321167 1.5458261966705322
-0.039371028542518616 -0.09545108675956726 1.4849257469177246
-0.07527434080839157 -0.15038545429706573 0.6275084018707275
-0.004152745008468628 -0.045122962445020676 1.8247424364089966
-0.05069826915860176 0.06367728114128113 1.7094545364379883
-0.020280912518501282 -0.22815865278244019 1.5530911684036255
-0.040456634014844894 -0.2118009626865387 1.4907808303833008
-0.020302334800362587 -0.10279179364442825 1.4489963054656982
-0.011206483468413353 -0.21094176173210144 1.491810917854309
0.007986780256032944 -0.07166394591331482 1.4297864437103271
-0.011215263977646828 -0.054437823593616486 1.2978856563568115
-0.014479190111160278 0.01348501443862915 1.7911094427108765
0.002476504072546959 -0.10154280066490173 1.4912757873535156
0.002711676061153412 -0.15421409904956818 1.4721653461456299
0.0146821029484272 0.0381268635392189 1.746684193611145
0.007765013724565506 -0.029975665733218193 1.8051414489746094
0.0019167345017194748 -0.14940398931503296 1.4423496723175049
0.04867176711559296 -0.16741690039634705 1.5157047510147095
0.006727211177349091 -0.12510241568088531 1.4547221660614014
0.07127612084150314 -0.1674964725971222 0.5971343517303467
0.03072374500334263 -0.05922144651412964 1.5241307020187378
0.1092543974518776 -0.17383043467998505 0.5244388580322266
0.033919621258974075 -0.20703598856925964 1.2429234981536865
0.0732848197221756 -0.0678337961435318 1.2758913040161133
0.07634156942367554 -0.057807259261608124 1.1497211456298828
0.1762196570634842 -0.026336506009101868 0.12877008318901062
0.20421132445335388 -0.006302088499069214 0.12415452301502228
0.15285339951515198 0.05241904407739639 0.23372501134872437
0.04715465381741524 -0.18260535597801208 1.236884355545044
0.03903462737798691 -0.20002613961696625 1.1620655059814453
0.06231413409113884 -0.1738712191581726 0.7367207407951355
0.15415117144584656 0.035612866282463074 0.1816910207271576
0.06110319122672081 -0.032729119062423706 1.7600820064544678
0.04520394653081894 -0.20214861631393433 1.6887520551681519
0.03705058619379997 -0.19058316946029663 1.5957049131393433
0.03488171845674515 -0.1999235451221466 1.545723795890808
0.08914120495319366 -0.15018075704574585 0.8667680025100708
0.11848941445350647 -0.03146437928080559 1.7938930988311768
0.03633628785610199 -0.056060612201690674 1.5800644159317017
0.037067778408527374 -0.08313106745481491 1.5533028841018677
0.1447363644838333 -0.0516851507127285 0.3928876221179962
0.14357443153858185 -0.026820877566933632 0.3446046710014343
0.17006227374076843 0.06729256361722946 0.22433814406394958
0.058976367115974426 -0.04785735532641411 1.8555126190185547
0.08419603109359741 -0.09513804316520691 1.440595030784607
0.0966407060623169 -0.21058741211891174 0.8560910224914551
0.0762750431895256 -0.12617845833301544 0.8491722345352173
0.12276999652385712 -0.18501737713813782 0.8519158363342285
0.09641777724027634 -0.07733888924121857 0.7289441227912903
0.2289239466190338 -0.021074414253234863 0.12965703010559082
0.07560213655233383 -0.04245954379439354 1.7742304801940918
0.07162308692932129 -0.15658071637153625 1.1347050666809082
0.08111292868852615 -0.17634433507919312 1.249970555305481
0.08757615089416504 -0.1962045431137085 1.2403634786605835
0.13156187534332275 -0.17456914484500885 0.9143628478050232
0.07421568036079407 -0.1321955770254135 1.6093220710754395
0.0662769079208374 -0.04891836643218994 1.59116792678833
0.07046235352754593 -0.07888345420360565 1.579766869544983
0.0809871107339859 -0.09411913901567459 1.581228256225586
0.0921349823474884 -0.10990656912326813 1.5576326847076416
0.13445256650447845 -0.13408420979976654 0.6482651829719543
0.12637712061405182 -0.19083267450332642 0.6805534362792969
0.10572528094053268 -0.15166932344436646 1.3956937789916992
0.11590898036956787 -0.07017546147108078 1.3623847961425781
0.07374257594347 -0.07679680734872818 1.3717315196990967
0.08399802446365356 -0.08419834077358246 1.3390350341796875
0.11221502721309662 -0.1256796419620514 0.8232493996620178
0.2156829684972763 0.04299048334360123 0.21393249928951263
0.23240554332733154 0.0301591157913208 0.1995391696691513
0.08590248972177505 -0.050622161477804184 1.726845622062683
0.11700320243835449 -0.09855879098176956 1.4184985160827637
0.20965030789375305 -0.09294870495796204 0.3705376386642456
0.1118052750825882 -0.02748415246605873 1.6967275142669678
0.07848511636257172 -0.0027044788002967834 1.6974256038665771
0.09417861700057983 -0.034252990037202835 1.6630198955535889
0.2345152646303177 -0.01736953854560852 0.23301821947097778
0.253043532371521 -0.005462870001792908 0.15404203534126282
0.2241843342781067 -0.04698128253221512 0.14190112054347992
0.1591421663761139 -0.00019099097698926926 0.9402041435241699
0.14642396569252014 -0.01308886706829071 0.8369234204292297
0.12320522964000702 -0.052118998020887375 1.7925390005111694
0.165717214345932 0.04311615228652954 0.839853823184967
0.182675302028656 0.015183825045824051 0.9013808369636536
0.15504759550094604 -0.08325782418251038 1.3608388900756836
0.1758236587047577 -0.1010512188076973 1.3393741846084595
0.12292629480361938 -0.14505797624588013 1.3605376482009888
0.18709319829940796 -0.06763492524623871 1.3125741481781006
0.17794251441955566 -0.060136936604976654 1.28948175907135
0.23636996746063232 -0.14822667837142944 1.2393823862075806
0.2151917815208435 -0.1099219024181366 1.298109531402588
0.23524752259254456 -0.03938766568899155 1.2635490894317627
0.27170103788375854 0.0026199445128440857 1.1999622583389282
0.3007059693336487 0.0004983842372894287 1.2177447080612183
0.2904955744743347 -0.053955964744091034 1.2495853900909424
0.2850627899169922 -0.11356770992279053 1.2383544445037842
0.32916975021362305 0.008357524871826172 1.1661630868911743
0.38741734623908997 -0.06974367797374725 1.194975733757019
0.3824828863143921 -0.03480759635567665 1.1900824308395386
0.36108019948005676 -0.0009633824229240417 1.1752104759216309
0.38258761167526245 -0.1201031506061554 1.1484808921813965
0.39133962988853455 -0.05872168391942978 1.1392543315887451
0.37879520654678345 -0.0320061631500721 1.1345089673995972
0.49632999300956726 -0.0339365154504776 1.0226173400878906
0.38175293803215027 -0.08446195721626282 1.1258713006973267
0.39929527044296265 -0.09066808968782425 1.0898053646087646
0.4380338490009308 -0.015750393271446228 1.0641701221466064
0.40392154455184937 -0.06450314819812775 1.0731650590896606
0.4179244041442871 -0.09354870021343231 1.0632386207580566
0.4450591504573822 -0.0571085587143898 1.0478373765945435
0.470354288816452 -0.049238014966249466 1.048581838607788
0.441265732049942 -0.10099572688341141 1.0275089740753174
0.4597884714603424 -0.07459451258182526 1.0339866876602173
0.44973257184028625 -0.08783464878797531 1.034531831741333
0.49891170859336853 -0.03270724415779114 1.0006635189056396
0.46626779437065125 -0.09366171061992645 1.0198595523834229
0.46699610352516174 -0.036045968532562256 1.0146434307098389
0.49691256880760193 -0.06477709114551544 0.9986364245414734
0.5067907571792603 -0.053269051015377045 1.0122418403625488
-0.37413233518600464 -0.01266467198729515 1.0829004049301147
-0.37515318393707275 -0.07910644263029099 1.049676775932312
-0.3562392592430115 -0.05724664777517319 1.0499681234359741
-0.3811708986759186 -0.11923528462648392 1.0805323123931885
-0.3045855164527893 -0.009636551141738892 1.0750131607055664
-0.35029155015945435 -0.1131836324930191 1.0645791292190552
-0.20113253593444824 -0.04919639229774475 1.242325782775879
-0.21502895653247833 -0.10955747961997986 1.197450041770935
-0.17364424467086792 -0.09643837809562683 0.9553053379058838
-0.18145814538002014 -0.012329887598752975 0.9138854742050171
-0.13431420922279358 0.0500146858394146 0.9117302894592285
-0.17018064856529236 0.11922523379325867 1.2467987537384033
-0.17155909538269043 0.12435983121395111 1.1812090873718262
-0.17868754267692566 0.15430393815040588 1.1496639251708984
-0.1581363081932068 -0.011062134057283401 0.9490963220596313
-0.21747100353240967 -0.06079987436532974 1.765161156654358
-0.14318756759166718 -0.07755199819803238 1.3628137111663818
-0.16626763343811035 -0.05410049483180046 1.3007704019546509
-0.10820743441581726 0.17460036277770996 1.0366994142532349
-0.1475466787815094 0.1853632926940918 0.9485832452774048
-0.25988510251045227 -0.05281529575586319 0.15892377495765686
-0.27323514223098755 -0.06778302788734436 0.09038036316633224
-0.18536639213562012 -0.06921639293432236 1.7460747957229614
-0.1730448603630066 -0.05395955964922905 1.6838908195495605
-0.13852530717849731 -0.18048888444900513 1.2174789905548096
-0.14055916666984558 -0.19047902524471283 1.1866103410720825
-0.14654482901096344 -0.21135833859443665 1.1770875453948975
-0.15247923135757446 0.061094731092453 1.3793246746063232
-0.1405537724494934 0.055956125259399414 1.3747583627700806
-0.11351373046636581 -0.1859959065914154 1.2392278909683228
-0.1315644383430481 -0.08650192618370056 1.2096467018127441
-0.23282390832901 -0.11032641679048538 0.19968439638614655
-0.23679012060165405 -0.08059819787740707 0.23484693467617035
-0.10892553627490997 0.10568378120660782 1.2378325462341309
-0.14856411516666412 -0.12233109772205353 1.4712445735931396
-0.14666028320789337 -0.11710043251514435 1.445054292678833
-0.13355395197868347 -0.11054594814777374 1.4200438261032104
-0.1492634266614914 -0.11108571290969849 1.4217851161956787
-0.14606183767318726 -0.12493892014026642 1.4017330408096313
-0.13924576342105865 -0.12952160835266113 0.7927586436271667
-0.1551818996667862 -0.09895505011081696 0.7716702222824097
-0.1139231026172638 0.24030208587646484 1.0456509590148926
-0.11177246272563934 0.22937360405921936 1.1022628545761108
-0.10435012727975845 -0.17145158350467682 1.2375611066818237
-0.1267225742340088 -0.10195760428905487 0.8568786382675171
-0.2287551611661911 -0.0005933251231908798 0.19481202960014343
-0.23526006937026978 0.018522243946790695 0.16420941054821014
-0.14055395126342773 -0.1869424283504486 0.8538467288017273
-0.1250804215669632 0.1767544150352478 1.2167816162109375
-0.1401485651731491 -0.18795865774154663 1.6695971488952637
-0.13121429085731506 -0.065772145986557 1.5588735342025757
-0.11946434527635574 0.03651751950383186 1.5213792324066162
-0.11062279343605042 -0.002364162355661392 1.5810174942016602
-0.13342320919036865 -0.010098636150360107 1.5556540489196777
-0.12728345394134521 0.0220620259642601 1.4683319330215454
-0.0792262852191925 0.07480958849191666 1.5603444576263428
-0.11073299497365952 -0.11142967641353607 1.5124517679214478
-0.09433256089687347 0.044323522597551346 0.9695147275924683
-0.1444479078054428 -0.05388839915394783 1.8549293279647827
-0.15266206860542297 -0.06000208854675293 1.8481903076171875
-0.15757867693901062 -0.07562305778265 1.8374346494674683
-0.03637775778770447 0.032761093229055405 1.447582721710205
-0.11492138355970383 0.0775805190205574 1.4282395839691162
-0.17182306945323944 -0.014880065806210041 0.09866917878389359
-0.0762707069516182 0.1392897516489029 1.3583723306655884
-0.10089439153671265 -0.1913812756538391 1.5739853382110596
-0.1462656408548355 -0.15791840851306915 0.4032100737094879
-0.07500848174095154 0.005827788263559341 1.514997959136963
-0.08194421976804733 -0.056704331189394 1.507370114326477
-0.06448990851640701 0.09413698315620422 1.4742472171783447
-0.04310066998004913 0.054248273372650146 0.8432368040084839
-0.15175524353981018 -0.09124632179737091 0.3676906228065491
-0.05675704777240753 0.22455298900604248 0.9469529390335083
-0.038290079683065414 0.041848473250865936 1.0352543592453003
-0.07953406870365143 -0.2002258002758026 1.2344334125518799
-0.07597382366657257 -0.167909637093544 1.1452317237854004
-0.1417921781539917 -0.11493454873561859 0.3421715795993805
-0.13096848130226135 -0.11712581664323807 0.28185442090034485
-0.15712837874889374 -0.07153825461864471 0.29268789291381836
-0.06936559826135635 -0.020959725603461266 1.5411226749420166
-0.06300173699855804 -0.18009689450263977 0.6950708031654358
-0.09505485743284225 -0.12369345128536224 0.6392149329185486
-0.0527113601565361 0.24843552708625793 1.0892987251281738
-0.05100855976343155 0.25426363945007324 0.9980496168136597
-0.022489633411169052 -0.2036518156528473 1.1649892330169678
-0.15408702194690704 -0.050812751054763794 0.16843582689762115
-0.04799068346619606 0.19764485955238342 0.9903781414031982
-0.04967309534549713 0.16505800187587738 1.0298700332641602
0.0015045665204524994 -4.190206527709961e-05 1.5254833698272705
-0.06570306420326233 -0.17352667450904846 1.3900178670883179
-0.017856452614068985 0.16096676886081696 1.3346612453460693
0.01830081082880497 0.03608080744743347 1.4346935749053955
-0.003950074315071106 -0.02209361270070076 1.5338821411132812
0.012689086608588696 0.1999274343252182 0.9971425533294678
0.03480272740125656 0.20029613375663757 0.9467708468437195
-0.003297107294201851 -0.18521618843078613 1.3816313743591309
0.009475823491811752 0.044127244502305984 1.029102087020874
-0.00047669350169599056 -0.2017587423324585 1.1064305305480957
0.0662650465965271 0.14069464802742004 1.3597447872161865
0.028653036803007126 -0.049413956701755524 1.3175914287567139
0.04750429838895798 0.08719243109226227 1.4820666313171387
0.02169518917798996 0.02696758508682251 1.4799652099609375
0.046130694448947906 -0.03996846452355385 1.2247486114501953
0.039611686021089554 0.10253989696502686 0.9086431264877319
0.013434052467346191 -0.0810781717300415 1.7915652990341187
0.14600642025470734 -0.016788922250270844 0.15665872395038605
0.15199120342731476 0.0036233216524124146 0.13756489753723145
0.13232927024364471 0.017201967537403107 0.2120404839515686
-0.00433243066072464 -0.21748334169387817 1.684851050376892
0.06691986322402954 -0.10649450123310089 0.6989997029304504
0.08960966765880585 0.029102720320224762 1.4526169300079346
0.05073070153594017 -0.12594270706176758 1.5213267803192139
0.09674452990293503 -0.12761636078357697 1.4513269662857056
0.04814139008522034 -0.0860108882188797 1.4273213148117065
0.1184014156460762 -0.07657003402709961 0.44385164976119995
0.14583835005760193 -0.11935339123010635 0.28382155299186707
0.15830950438976288 -0.017761409282684326 0.3109949231147766
0.09385073184967041 0.20097999274730682 1.0024690628051758
0.07626501470804214 0.2353212833404541 0.9677777290344238
0.09570863842964172 -0.17703405022621155 0.7528531551361084
0.11017432808876038 -0.11897217482328415 0.6501287221908569
0.020929671823978424 -0.13609634339809418 1.7842851877212524
0.069921113550663 -0.13875481486320496 1.7415906190872192
0.12008465081453323 -0.2019277811050415 0.5608454942703247
0.03618580102920532 -0.07209885120391846 1.8071166276931763
0.06633961200714111 -0.08392177522182465 1.754138708114624
0.08953924477100372 -0.08514545112848282 1.1403576135635376
0.09546942263841629 -0.07193757593631744 1.1088083982467651
0.0873410627245903 -0.1476079821586609 1.0909100770950317
0.05867297574877739 -0.18374410271644592 1.677918791770935
0.06835582107305527 -0.11479873210191727 1.5565470457077026
0.061864662915468216 -0.16327141225337982 1.5620691776275635
0.13883726298809052 0.1958279311656952 0.9576376080513
0.1007072776556015 -0.1494615077972412 1.2877135276794434
0.1215396299958229 -0.20352420210838318 1.2274553775787354
0.10491231083869934 -0.12170092761516571 1.242232322692871
0.207210972905159 0.0031374767422676086 0.2718777656555176
0.19399593770503998 -0.07913850992918015 0.23047992587089539
0.21557950973510742 -0.06443703174591064 0.22290576994419098
0.07814068347215652 -0.057687047868967056 1.7746094465255737
0.11530851572751999 -0.16613441705703735 1.2841216325759888
0.190067321062088 -0.09391892701387405 0.48582974076271057
0.16560447216033936 -0.15767177939414978 0.5155929327011108
0.2009706199169159 -0.09294359385967255 0.43393588066101074
0.11349911987781525 -0.14436745643615723 1.4407851696014404
0.09868469834327698 -0.14088961482048035 1.4345332384109497
0.12344900518655777 -0.10919244587421417 1.4063551425933838
0.11861038953065872 0.07351462543010712 0.9028889536857605
0.11845093965530396 -0.1121802031993866 0.8467131853103638
0.22684761881828308 -0.05695044994354248 0.33274516463279724
0.23521976172924042 -0.08540035784244537 0.3273785710334778
0.13127976655960083 -0.09523318707942963 1.4003264904022217
0.15393660962581635 0.0967978686094284 1.2666289806365967
0.15740631520748138 0.13198882341384888 1.2386866807937622
0.14075890183448792 -0.24126064777374268 1.104209065437317
0.16085129976272583 -0.045997679233551025 0.972318172454834
0.16330091655254364 -0.105226531624794 0.9650493860244751
0.19754667580127716 -0.030732952058315277 1.2467862367630005
0.31240057945251465 -0.08055979013442993 1.1123995780944824
0.3088240921497345 -0.023165687918663025 1.1188215017318726
0.32751280069351196 -0.14447157084941864 1.16084885597229
-0.3597201108932495 -0.01878720335662365 1.049217700958252
-0.38811999559402466 -0.08081227540969849 1.016026496887207
-0.2843327522277832 -0.11443533003330231 1.1146395206451416
-0.2951633036136627 -0.13761404156684875 1.1604894399642944
-0.24592088162899017 -0.07804355770349503 1.1377438306808472
-0.23044154047966003 -0.035299040377140045 1.1724005937576294
-0.1941205859184265 -0.14953500032424927 0.8725616335868835
-0.18158912658691406 0.179200679063797 0.9947788715362549
-0.1779468059539795 0.15106351673603058 1.1059212684631348
-0.1579771488904953 -0.25219377875328064 1.063626766204834
-0.13511788845062256 -0.16273291409015656 0.9559237957000732
-0.24496352672576904 -0.1179610937833786 0.3055788576602936
-0.22401012480258942 -0.1669778823852539 0.30927127599716187
-0.16278959810733795 -0.11074509471654892 0.5143859386444092
-0.15150192379951477 -0.19348913431167603 0.8594465255737305
-0.15017107129096985 -0.15818044543266296 0.6259573698043823
-0.14468857645988464 -0.1717318296432495 0.6921659708023071
-0.1332358568906784 -0.10885471105575562 0.6770586967468262
-0.10815739631652832 -0.014582671225070953 1.1083935499191284
-0.10098439455032349 -0.08060114830732346 1.1274585723876953
-0.08619179576635361 0.2112148106098175 1.17918062210083
-0.11704842746257782 -0.0141291543841362 0.836588442325592
-0.18056589365005493 -0.17988790571689606 0.3160935044288635
-0.10824011266231537 -0.04841475933790207 1.2168855667114258
-0.09189534187316895 -0.040839213877916336 1.14240562915802
-0.1600663959980011 -0.1871705800294876 0.4488462209701538
-0.14515309035778046 -0.0757443904876709 1.7693287134170532
-0.14319631457328796 -0.11618778109550476 1.7595584392547607
-0.09322673082351685 -0.14725875854492188 1.779327630996704
-0.10619430989027023 -0.19021812081336975 1.7415344715118408
-0.12155503034591675 -0.1897965967655182 1.632164716720581
-0.15372544527053833 -0.14864902198314667 0.3520774245262146
-0.0627911314368248 -0.15830057859420776 0.7489492893218994
-0.13450787961483002 -0.14525428414344788 0.28244006633758545
-0.15356318652629852 -0.17105832695960999 0.2827017605304718
-0.16302379965782166 -0.06797917932271957 0.257868230342865
-0.05717254430055618 0.06651222705841064 0.9600569605827332
-0.0950075313448906 -0.05535844340920448 1.8138316869735718
-0.11270768940448761 -0.07163635641336441 1.803667426109314
0.017010068520903587 0.14460015296936035 1.1612424850463867
-0.08713260293006897 0.1421785056591034 1.1620073318481445
-0.005063509568572044 0.12364599108695984 1.2238600254058838
0.011907095089554787 -0.0591520331799984 1.2611174583435059
-0.004634639248251915 0.20991332828998566 1.2131259441375732
0.002029465977102518 0.17658135294914246 1.0352998971939087
0.05913756415247917 0.24118724465370178 1.1267905235290527
0.00337354838848114 0.06367555260658264 1.680335283279419
0.044109392911195755 0.16769146919250488 1.0425114631652832
0.04895375296473503 -0.2154456228017807 0.900725781917572
0.11237362772226334 -0.08677346259355545 0.3106156289577484
0.13401316106319427 -0.0705343633890152 0.26464587450027466
0.058528266847133636 -0.1740877330303192 0.7024526000022888
0.036947935819625854 0.019578466191887856 1.0641732215881348
0.08814537525177002 -0.13334864377975464 0.584210991859436
0.07967287302017212 0.09511708468198776 1.294658899307251
0.07409489899873734 -0.16584011912345886 1.4071965217590332
0.04254962131381035 0.04943104088306427 1.6453266143798828
0.04689990356564522 -0.030803440138697624 1.6181917190551758
0.046000536531209946 -0.010732166469097137 1.591202974319458
0.029176827520132065 -0.06463856250047684 1.856507420539856
0.07945984601974487 -0.16721397638320923 1.3267604112625122
0.15633457899093628 -0.09399580210447311 0.5424113869667053
0.12497623264789581 -0.0794796496629715 0.5390165448188782
0.16339318454265594 -0.048231881111860275 0.4128749370574951
0.18939954042434692 -0.04705464467406273 0.3900279402732849
0.09169047325849533 -0.1091499775648117 1.5460450649261475
0.07853859663009644 -0.11896315962076187 1.556784749031067
0.09304001927375793 -0.11217442899942398 1.5397663116455078
0.1290634274482727 -0.08706434071063995 0.7486840486526489
0.14473876357078552 -0.16639670729637146 0.6450514197349548
0.12320756167173386 0.0359613373875618 0.9447279572486877
0.12455568462610245 -0.06233680248260498 1.0818628072738647
0.11935929954051971 -0.11702409386634827 1.0711112022399902
0.12643322348594666 -0.13863816857337952 1.0168039798736572
0.08826006203889847 -0.060928311198949814 1.6694154739379883
0.10164815187454224 -0.06874032318592072 1.5786806344985962
0.11446858197450638 -0.18547922372817993 1.214309573173523
0.10933104157447815 0.006367385387420654 1.5614821910858154
0.09995381534099579 -0.021640608087182045 1.6041020154953003
0.23167361319065094 0.02637232095003128 0.22116105258464813
0.24769364297389984 0.008438512682914734 0.18830882012844086
0.12163778394460678 -0.007543880492448807 1.5227328538894653
0.12888993322849274 0.012659708969295025 1.4938271045684814
0.14154033362865448 0.017884157598018646 1.4478754997253418
0.13938289880752563 0.038348857313394547 1.4281337261199951
0.13708463311195374 -0.25154465436935425 1.122267246246338
0.16983570158481598 -0.14636334776878357 0.854784369468689
0.14787249267101288 -0.22903162240982056 1.1459516286849976
0.14996060729026794 -0.25360044836997986 1.1258435249328613
0.19858944416046143 -0.10242179036140442 0.8666191697120667
0.19974395632743835 -0.08485429733991623 0.8453062772750854
0.21129170060157776 -0.049620360136032104 0.85056072473526
-0.250028133392334 -0.135428324341774 1.1729772090911865
-0.170931875705719 -0.1575038731098175 1.2439589500427246
-0.1842532902956009 -0.1519722044467926 1.2275166511535645
-0.17285993695259094 -0.143937885761261 1.2361584901809692
-0.1642930805683136 -0.14756380021572113 1.2545390129089355
-0.20358958840370178 0.005313369445502758 0.8469430804252625
-0.13186027109622955 -0.11340093612670898 1.2858810424804688
-0.14217257499694824 -0.0658644288778305 1.080352544784546
-0.16130179166793823 0.015241067856550217 1.5608655214309692
-0.12983985245227814 -0.11285591125488281 1.192900538444519
-0.13257893919944763 -0.08955763280391693 1.143776535987854
-0.13405828177928925 0.038715265691280365 1.4529873132705688
-0.1250057816505432 0.04619736224412918 1.4038280248641968
-0.11833932250738144 -0.14596295356750488 1.0426297187805176
-0.08497409522533417 -0.1742904782295227 1.002362608909607
-0.13473191857337952 -0.05429549887776375 0.7575069665908813
-0.08412710577249527 0.1774546056985855 1.2582714557647705
-0.10386821627616882 0.06220041215419769 1.653291940689087
-0.15984269976615906 0.009214237332344055 0.14594517648220062
-0.1729927659034729 0.026994353160262108 0.1476626694202423
-0.08966268599033356 0.026526808738708496 0.8496091365814209
-0.013092895969748497 0.0998305231332779 0.8379437923431396
-0.0674009621143341 -0.017175128683447838 0.8297338485717773
5.957484245300293e-05 0.07466894388198853 1.3259904384613037
-0.039224714040756226 -0.10665781795978546 0.7597240209579468
-0.044715091586112976 -0.20972004532814026 1.6523948907852173
-0.014447633177042007 0.021180132403969765 0.8592487573623657
-0.0073584262281656265 -0.019915929064154625 0.8411622047424316
0.011556998826563358 -0.11339733004570007 0.847898542881012
-0.07815620303153992 -0.16746337711811066 0.8566397428512573
0.0006408616900444031 -0.22477447986602783 0.8476471304893494
0.024422945454716682 -0.11052736639976501 0.8229366540908813
-0.0032266839407384396 -0.16191162168979645 0.8576977252960205
-0.007498119026422501 -0.05019199848175049 1.5066272020339966
0.02217402495443821 -0.032910749316215515 0.8333886861801147
0.026492256671190262 -0.05453203618526459 0.8068411946296692
0.004585474729537964 -0.030253306031227112 1.5895451307296753
0.007939666509628296 -0.024296268820762634 1.5604556798934937
0.03380391746759415 -0.1198870837688446 0.8395317792892456
0.1271451711654663 0.06293349713087082 0.829729437828064
0.11454305797815323 -0.06178390979766846 0.32078060507774353
0.0490565150976181 -0.04734925925731659 0.7888054251670837
0.06507012248039246 0.1426304131746292 1.1935760974884033
0.136117622256279 -0.1184297651052475 0.4200672209262848
0.13754333555698395 -0.08812323212623596 0.37058156728744507
0.153928741812706 -0.11190392076969147 0.37991541624069214
0.15169695019721985 -0.13306120038032532 0.3195255398750305
0.08838985115289688 0.020932450890541077 1.5327543020248413
0.07588417828083038 -0.01484532281756401 0.8296365737915039
0.10289952158927917 -0.04648375138640404 0.8046644926071167
0.09801890701055527 -0.09232804924249649 1.2547342777252197
0.16298654675483704 -0.14416533708572388 0.4613146185874939
0.07938223332166672 -0.0027713440358638763 1.6380319595336914
0.08386992663145065 -0.06707137823104858 1.3132073879241943
0.1849175989627838 -0.11458909511566162 0.3848196566104889
0.08008324354887009 0.21439945697784424 1.190441608428955
0.10448334366083145 -0.06204584613442421 1.2312794923782349
0.19800935685634613 -0.022687803953886032 0.31793245673179626
0.1296783685684204 0.22243733704090118 1.0996956825256348
0.1830909550189972 -0.027338571846485138 0.3369849622249603
0.19688525795936584 -0.13387830555438995 0.2999100685119629
0.13126027584075928 0.08043579757213593 1.3194148540496826
0.10438904166221619 -0.13823513686656952 1.483147144317627
0.11816561222076416 -0.12533245980739594 1.4532550573349
0.10496631264686584 -0.1342814713716507 1.4835669994354248
0.13583385944366455 -0.10261597484350204 1.4433436393737793
0.1371113657951355 -0.20563958585262299 1.1946322917938232
0.12194366008043289 -0.21858066320419312 1.1822168827056885
0.15269693732261658 0.1215829849243164 1.2154638767242432
0.1712808907032013 0.17054298520088196 1.1473280191421509
0.165620356798172 0.16585911810398102 1.1112315654754639
0.1662251204252243 -0.07847001403570175 1.2745110988616943
0.15932095050811768 -0.1268768161535263 1.2649952173233032
0.15565863251686096 -0.16933034360408783 0.8678650856018066
0.16883395612239838 -0.150720477104187 1.2687382698059082
0.2341318577528 -0.1321418136358261 1.1697133779525757
0.21494844555854797 -0.05242228880524635 1.1890645027160645
0.24014317989349365 -0.09405206143856049 1.1526038646697998
0.3140244483947754 -0.1329517364501953 1.2037855386734009
0.35714036226272583 -0.039600010961294174 1.1064350605010986
0.35413825511932373 -0.12234224379062653 1.1259857416152954
-0.1599676012992859 -0.2517232596874237 1.1068882942199707
-0.15219035744667053 -0.19188793003559113 1.1752355098724365
-0.16244666278362274 -0.18644504249095917 1.1987016201019287
-0.14849069714546204 -0.23656128346920013 1.1143040657043457
-0.15262600779533386 0.03436969965696335 1.4866725206375122
-0.1556965559720993 0.023416388779878616 1.4686179161071777
-0.16189539432525635 0.05025002360343933 1.4213025569915771
-0.16934584081172943 -0.0800454244017601 1.7288106679916382
-0.16384188830852509 -0.12058550864458084 1.642450213432312
-0.21274040639400482 -0.1436953842639923 0.35388725996017456
-0.1338188797235489 -0.06247982382774353 0.8401490449905396
-0.13305270671844482 -0.09258875250816345 0.8302634954452515
-0.16859883069992065 0.2018585056066513 0.9681553840637207
-0.09105624258518219 -0.16236481070518494 1.2337329387664795
-0.1204494833946228 -0.03284209221601486 0.805830717086792
-0.11739751696586609 -0.09037648141384125 1.784252405166626
-0.08389756083488464 -0.1286925971508026 1.1259620189666748
-0.046446725726127625 -0.18789362907409668 1.1175040006637573
-0.092103511095047 0.16957654058933258 1.083599328994751
-0.0035021083895117044 0.16788962483406067 1.0800471305847168
-0.07086455821990967 -0.027163956314325333 1.1604337692260742
-0.055155616253614426 -0.11021933704614639 0.8441168069839478
-0.03896111994981766 -0.19299960136413574 1.0614795684814453
-0.05697501450777054 0.021178163588047028 1.0583847761154175
-0.036523692309856415 -0.19082684814929962 1.7571052312850952
0.026479681953787804 -0.12422743439674377 0.7580270767211914
-0.06569032371044159 0.08820497244596481 1.2925676107406616
0.14541520178318024 0.030484288930892944 0.16801953315734863
0.10412444919347763 0.24908071756362915 1.0286052227020264
0.07445078343153 0.17627568542957306 1.0993653535842896
0.03947843238711357 0.25968408584594727 1.0439835786819458
0.09374403208494186 0.09402962774038315 0.8392024040222168
0.20252665877342224 0.056041963398456573 0.2343599796295166
0.11706440150737762 -0.03873401880264282 0.8290500044822693
0.17077790200710297 -0.12478217482566833 0.4282021224498749
0.11401182413101196 -0.15641149878501892 1.3940565586090088
0.1265784502029419 -0.15169745683670044 1.3044437170028687
0.197284996509552 0.002558501437306404 0.8379871249198914
0.19798770546913147 -0.0358174666762352 0.9071390628814697
0.36632201075553894 -0.08098725229501724 1.106213092803955
-0.3121790289878845 -0.13851937651634216 1.1249140501022339
-0.1961425244808197 -0.07884231954813004 0.9158068299293518
-0.21767398715019226 -0.06841389834880829 0.8605315685272217
-0.16003452241420746 0.033854443579912186 1.416181206703186
-0.16680870950222015 0.09378370642662048 1.2496466636657715
-0.15180979669094086 -0.06971185654401779 1.5482685565948486
-0.13731110095977783 -0.05529589205980301 1.044311285018921
-0.13646186888217926 -0.08665138483047485 1.0853246450424194
-0.1541426032781601 -0.06617186218500137 1.5473027229309082
-0.14721772074699402 -0.08559088408946991 1.5355465412139893
-0.15412408113479614 -0.0742887556552887 1.5445246696472168
-0.15236717462539673 -0.08067444711923599 1.5459166765213013
-0.15444014966487885 -0.09473703056573868 1.5352672338485718
-0.21048060059547424 -0.13196220993995667 0.18813715875148773
-0.1582409292459488 -0.15897586941719055 1.7050045728683472
-0.03404795750975609 -0.03310438245534897 1.2182117700576782
-0.1648317128419876 -0.06458122283220291 0.08417782187461853
-0.049695953726768494 -0.05243709683418274 1.257863998413086
-0.006517428904771805 -0.029358137398958206 1.170710802078247
-0.04546847939491272 0.09566792100667953 0.9191597700119019
-0.04764452576637268 -0.0936431735754013 1.801672101020813
-0.05276406928896904 -0.13111920654773712 0.697454571723938
-0.03574906662106514 0.10048137605190277 1.255207896232605
0.019928254187107086 -0.1930154263973236 1.006068229675293
-0.02281121350824833 -0.21157902479171753 1.2042902708053589
0.008333680219948292 0.15010221302509308 1.1256200075149536
0.13595271110534668 -0.02953706495463848 0.285383403301239
0.07612195611000061 -0.16939964890480042 0.9861878156661987
0.12021055072546005 -0.15979361534118652 0.9615745544433594
0.06829356402158737 -0.00466824509203434 1.5541749000549316
0.07830685377120972 -0.16984768211841583 1.1621432304382324
0.04083424061536789 -0.03281190246343613 1.1692454814910889
0.09739179164171219 -0.016270102933049202 1.0769579410552979
0.07847972214221954 0.06727790832519531 0.9452616572380066
0.21935522556304932 0.034698352217674255 0.12956956028938293
0.19196851551532745 0.04422442615032196 0.13454698026180267
0.24195034801959991 0.03780065476894379 0.15211348235607147
0.21851404011249542 -0.11267685890197754 0.2863590717315674
0.10154841840267181 -0.13346070051193237 1.4790663719177246
0.10227566212415695 -0.1351001262664795 1.481453537940979
0.09912943840026855 -0.11360403895378113 1.3231678009033203
0.12221478670835495 -0.13883095979690552 1.297147274017334
0.17682485282421112 0.20552262663841248 1.0352011919021606
0.1747712939977646 0.19067537784576416 0.9859742522239685
0.18298310041427612 0.1941320151090622 0.9822931885719299
0.3631148934364319 -0.02695520967245102 1.1179347038269043
0.3902820348739624 -0.09046657383441925 1.0804179906845093
0.4158681035041809 -0.10847661644220352 1.0658851861953735
-0.31064581871032715 -0.053918324410915375 1.0655710697174072
-0.16643445193767548 -0.22010158002376556 1.1564122438430786
-0.17952296137809753 -0.15432795882225037 0.3788331151008606
-0.12158329039812088 0.19192281365394592 0.9405942559242249
-0.0924348458647728 -0.14492908120155334 1.0807077884674072
-0.03729220852255821 -0.03834829106926918 0.835513174533844
-0.05831947177648544 -0.03641270101070404 0.7909108400344849
-0.050746578723192215 -0.08793999254703522 0.8063125610351562
-0.007600524928420782 0.017135687172412872 1.1041852235794067
0.02944432944059372 -0.20642581582069397 0.8367065787315369
0.09455041587352753 0.021630505099892616 0.844731330871582
0.09451869130134583 0.17849242687225342 1.0623033046722412
0.09575451165437698 -0.04873550683259964 1.579654574394226
0.10206393152475357 -0.02259265072643757 1.5533925294876099
0.18396908044815063 -0.10138283669948578 0.9153125286102295
-0.17335693538188934 -0.22576969861984253 1.1218918561935425
-0.16153503954410553 -0.012995278462767601 1.5770317316055298
-0.09045117348432541 0.19971638917922974 0.9894408583641052
-0.1453952044248581 0.014078721404075623 1.609045147895813
-0.11282023787498474 -0.01856043189764023 1.5972633361816406
-0.07371676713228226 -0.028619134798645973 1.5770636796951294
0.045966699719429016 -0.19120410084724426 1.0617835521697998
0.06700146198272705 -0.170286625623703 1.2448902130126953
0.16125161945819855 -0.07054845988750458 0.2159430980682373
0.10552126169204712 -0.14021039009094238 1.2140538692474365
0.11586353182792664 -0.1141350194811821 1.1640279293060303
0.1225399523973465 0.034740228205919266 1.4504258632659912
0.0988733321428299 0.071710966527462 1.453647255897522
0.1170436292886734 -0.07025641202926636 1.178743839263916
0.1189551129937172 -0.0804629847407341 0.8244267702102661
0.09828979521989822 -0.20726484060287476 1.2119911909103394
0.1341351568698883 0.09343753755092621 1.3442713022232056
-0.1529817283153534 0.07956879585981369 1.3434362411499023
-0.16875819861888885 -0.08800744265317917 0.3981856405735016
0.04388483241200447 -0.1389288455247879 0.7209370136260986
0.02405846118927002 -0.19036805629730225 1.7372913360595703
-0.17870260775089264 0.18537476658821106 1.0428729057312012
-0.15672723948955536 -0.15056882798671722 1.25775945186615
-0.12621167302131653 -0.13177303969860077 0.4191890060901642
-0.006879236549139023 0.10055023431777954 1.4776031970977783
0.17139005661010742 0.033051490783691406 0.13216173648834229
0.09490329027175903 -0.11386020481586456 1.5371744632720947
0.0943804383277893 -0.11301465332508087 1.5367110967636108
0.1013508141040802 -0.12648244202136993 1.4344042539596558
0.21266552805900574 -0.08779000490903854 0.267382949590683
0.22555534541606903 -0.0509304404258728 0.2811887264251709
0.21991567313671112 -0.1528785079717636 1.2155981063842773
-0.17393681406974792 -0.15407010912895203 0.9295992851257324
-0.1574021577835083 0.05773993581533432 1.3770291805267334
-0.15418314933776855 0.05498654395341873 1.3802716732025146
-0.16075311601161957 0.05156269297003746 1.3798468112945557
-0.15113665163516998 -0.10297217220067978 0.23375210165977478
-0.03583275154232979 -0.09161445498466492 0.8382951021194458
0.13501274585723877 -0.04042426869273186 0.2304694801568985
0.27257540822029114 -0.14955370128154755 1.177720308303833
