-0.2801383435726166 -0.039031021296978 1.0244687795639038
-0.2940015494823456 -0.10082973539829254 0.9950432181358337
-0.2206329107284546 -0.11102727055549622 1.117175579071045
-0.2415192425251007 -0.12051868438720703 1.1625654697418213
-0.1897381693124771 -0.07227578014135361 1.1352587938308716
-0.18567195534706116 -0.028032321482896805 1.1638288497924805
-0.19440528750419617 -0.15687280893325806 0.8700394034385681
-0.14392125606536865 0.19820769131183624 1.0060148239135742
-0.14479723572731018 0.17871379852294922 1.1142947673797607
-0.12813805043697357 -0.24613109230995178 1.11281418800354
-0.14010699093341827 -0.1636209487915039 0.9618799686431885
-0.2049490362405777 -0.13258366286754608 0.2657974362373352
-0.18148130178451538 -0.1811729222536087 0.2855297029018402
-0.14588358998298645 -0.06248287111520767 0.48672229051589966
-0.15120741724967957 -0.19802364706993103 0.858178973197937
-0.13663454353809357 -0.10239376872777939 0.6287612318992615
-0.1314946711063385 -0.1305859088897705 0.6896704435348511
-0.12225725501775742 -0.06772369146347046 0.686820387840271
-0.10200060904026031 -0.015469733625650406 1.1090161800384521
-0.10337908565998077 -0.07922118157148361 1.135608196258545
-0.06249605119228363 0.23584336042404175 1.1907765865325928
-0.11387337744235992 -0.01822727918624878 0.8469559550285339
-0.13759692013263702 -0.1940489411354065 0.3018105626106262
-0.10845881700515747 -0.026043321937322617 1.218684196472168
-0.08918191492557526 -0.039962202310562134 1.1428165435791016
-0.13166028261184692 -0.15941213071346283 0.439979612827301
-0.13198138773441315 -0.01645709201693535 1.7504265308380127
-0.1358189433813095 -0.052909549325704575 1.74451744556427
-0.09148535132408142 -0.09147309511899948 1.7547564506530762
-0.10520949959754944 -0.13338547945022583 1.7118552923202515
-0.11895845830440521 -0.1222352683544159 1.6105334758758545
-0.11368062347173691 -0.14548145234584808 0.3361554443836212
-0.059955768287181854 -0.13755103945732117 0.7466627955436707
-0.08948518335819244 -0.16077308356761932 0.2695145606994629
-0.10634355247020721 -0.18766331672668457 0.2735217809677124
-0.12193627655506134 -0.10824441909790039 0.20509524643421173
-0.05505962669849396 0.06542845070362091 0.9682974815368652
-0.08473700284957886 -0.0028961077332496643 1.7997297048568726
-0.0968305915594101 -0.018657982349395752 1.7862919569015503
0.033400341868400574 0.16544820368289948 1.1686410903930664
-0.06573645025491714 0.1656871736049652 1.1774019002914429
0.01357016246765852 0.14211764931678772 1.2327451705932617
0.012418434023857117 -0.03729508817195892 1.262540578842163
0.017480621114373207 0.2326841652393341 1.224020004272461
0.021346107125282288 0.19141840934753418 1.0494110584259033
0.08432496339082718 0.2536771893501282 1.1351678371429443
0.02322649583220482 0.10606442391872406 1.6735773086547852
0.059180259704589844 0.1853528916835785 1.0552890300750732
0.04770386964082718 -0.21829769015312195 0.9079943299293518
0.07285463809967041 -0.00671207532286644 0.27145034074783325
0.0943642258644104 -0.0010264590382575989 0.21785905957221985
0.05233590677380562 -0.11898791044950485 0.691808819770813
0.039067596197128296 0.01780012995004654 1.070451259613037
0.07250922173261642 -0.03030855767428875 0.5682823657989502
0.08886386454105377 0.12086103856563568 1.3085904121398926
0.07699137181043625 -0.09779292345046997 1.4191726446151733
0.05640443414449692 0.09339538961648941 1.6366703510284424
0.054434143006801605 0.019572995603084564 1.6091485023498535
0.05903702974319458 0.03827010840177536 1.578962802886963
0.03247735649347305 -0.017338015139102936 1.8326318264007568
0.08087487518787384 -0.11161958426237106 1.347981572151184
0.1345222145318985 0.008044177666306496 0.507667601108551
0.10053424537181854 0.019658830016851425 0.5067760944366455
0.12658871710300446 0.0428093858063221 0.3653373718261719
0.1480572372674942 0.045656297355890274 0.33877187967300415
0.09169380366802216 -0.05352760851383209 1.5282046794891357
0.07651260495185852 -0.06418851017951965 1.5376269817352295
0.09573237597942352 -0.06459705531597137 1.5185766220092773
0.12391062825918198 -0.04927527904510498 0.75852370262146
0.1324991136789322 -0.0824754610657692 0.6259430646896362
0.12465731799602509 0.0294162817299366 0.9610226154327393
0.11689411103725433 -0.06766576319932938 1.090440034866333
0.11248756945133209 -0.12276072800159454 1.0835583209991455
0.11942736804485321 -0.14815296232700348 1.028219223022461
0.09567047655582428 -0.013351786881685257 1.649582862854004
0.1058453693985939 -0.020018387585878372 1.5623407363891602
0.098236583173275 -0.16343800723552704 1.2385389804840088
0.12038122117519379 0.05907493829727173 1.548491358757019
0.11246684938669205 0.030166424810886383 1.5897281169891357
0.17969924211502075 0.07421433180570602 0.10401806235313416
0.19067434966564178 0.034936271607875824 0.09955896437168121
0.1302977055311203 0.04242124781012535 1.5136291980743408
0.13681107759475708 0.05915345624089241 1.4792550802230835
0.14183136820793152 0.0536089725792408 1.4379281997680664
0.14398176968097687 0.0730770155787468 1.422345757484436
0.10580998659133911 -0.24571934342384338 1.162771463394165
0.17353865504264832 -0.15312069654464722 0.8618072271347046
0.12809063494205475 -0.21946042776107788 1.1779119968414307
0.1253564953804016 -0.24327686429023743 1.1593732833862305
0.20422810316085815 -0.10983236879110336 0.8787634372711182
0.20457994937896729 -0.08814571797847748 0.8605022430419922
0.21305936574935913 -0.05305096507072449 0.8690906763076782
-0.20387804508209229 -0.11413821578025818 1.1797817945480347
-0.1585373878479004 -0.12266410142183304 1.2649750709533691
-0.16303956508636475 -0.11701454222202301 1.2451962232589722
-0.15463882684707642 -0.11321969330310822 1.2548153400421143
-0.15345868468284607 -0.10863247513771057 1.271986484527588
-0.20353426039218903 0.000240325927734375 0.8613004684448242
-0.12970426678657532 -0.07170926779508591 1.3000634908676147
-0.14230749011039734 -0.06551393866539001 1.083174467086792
-0.13787183165550232 0.07951100915670395 1.5598396062850952
-0.1328997015953064 -0.094993457198143 1.2044447660446167
-0.13284340500831604 -0.08468908071517944 1.1548492908477783
-0.11376060545444489 0.08910262584686279 1.453190803527832
-0.10804145783185959 0.09294537454843521 1.4095572233200073
-0.12636691331863403 -0.1427159607410431 1.0520007610321045
-0.09263835847377777 -0.16968825459480286 1.0097289085388184
-0.125127911567688 -0.041243843734264374 0.7701140642166138
-0.062219493091106415 0.204863041639328 1.2676951885223389
-0.08183886110782623 0.11434899270534515 1.6510822772979736
-0.11453166604042053 -0.1040758341550827 0.05755063146352768
-0.126323863863945 -0.09512487053871155 0.04588568955659866
-0.08808325231075287 0.02593958005309105 0.8634478449821472
-0.007457549683749676 0.09807029366493225 0.8528997898101807
-0.06395316869020462 -0.018387235701084137 0.8417327404022217
0.013496506959199905 0.10460544377565384 1.335167646408081
-0.03305334597826004 -0.09065988659858704 0.7685545682907104
-0.04717818647623062 -0.14692512154579163 1.629548192024231
-0.013558469712734222 0.017885981127619743 0.873187780380249
-0.007310620509088039 -0.023069214075803757 0.851686418056488
0.01151580922305584 -0.11656790971755981 0.8548926711082458
-0.07962173223495483 -0.16832563281059265 0.8590432405471802
-0.003147553652524948 -0.2269633263349533 0.8517205119132996
0.02570257894694805 -0.10771648585796356 0.8296628594398499
-0.005421281326562166 -0.16279485821723938 0.8637405633926392
0.004290567710995674 0.01063600555062294 1.5021086931228638
0.023006143048405647 -0.03455263376235962 0.8457047343254089
0.023043561726808548 -0.048694051802158356 0.8269490003585815
0.01331738755106926 0.02396804839372635 1.5806188583374023
0.018993256613612175 0.025234177708625793 1.552966594696045
0.03511028364300728 -0.12177451699972153 0.8454873561859131
0.12593649327754974 0.061622656881809235 0.8514641523361206
0.07625354826450348 0.022311463952064514 0.2756004333496094
0.04718588665127754 -0.03524331748485565 0.8128857612609863
0.0775909423828125 0.16223187744617462 1.204789161682129
0.11037883162498474 -0.034754678606987 0.3892914652824402
0.1015959307551384 0.0008543692529201508 0.33159923553466797
0.11923091113567352 -0.024490129202604294 0.341560959815979
0.11529358476400375 -0.052178315818309784 0.2856781780719757
0.10089433938264847 0.07033005356788635 1.517857313156128
0.07426518201828003 -0.015234218910336494 0.8474125266075134
0.10288578271865845 -0.036097344011068344 0.826819658279419
0.09535734355449677 -0.07661549746990204 1.254270315170288
0.13715435564517975 -0.05437721684575081 0.4327591061592102
0.09203383326530457 0.04104512557387352 1.624725341796875
0.08208385109901428 -0.03771553933620453 1.3119944334030151
0.14715974032878876 -0.025204375386238098 0.3451070487499237
0.10229294002056122 0.22415997087955475 1.1963615417480469
0.09830698370933533 -0.049763087183237076 1.2303040027618408
0.15217548608779907 0.05621401593089104 0.23332972824573517
0.1445228010416031 0.23285897076129913 1.1129570007324219
0.14119209349155426 0.06327612698078156 0.2729823589324951
0.15647228062152863 -0.05117296427488327 0.25636351108551025
0.13881096243858337 0.10715725272893906 1.3224742412567139
0.10961203277111053 -0.0629098042845726 1.4790490865707397
0.11984983086585999 -0.056330543011426926 1.4407248497009277
0.10890652239322662 -0.06482475250959396 1.4736485481262207
0.13729022443294525 -0.039789773523807526 1.4205265045166016
0.11819331347942352 -0.18971508741378784 1.2231953144073486
0.10486173629760742 -0.19984963536262512 1.21595299243927
0.16006284952163696 0.14141841232776642 1.226502537727356
0.1743212640285492 0.18108582496643066 1.1587328910827637
0.17195823788642883 0.17373070120811462 1.124700903892517
0.13437405228614807 -0.04770364612340927 1.2584148645401
0.12754085659980774 -0.08804384618997574 1.2646499872207642
0.15939263999462128 -0.17709732055664062 0.8727620244026184
0.13464084267616272 -0.10456408560276031 1.2686984539031982
0.15256012976169586 -0.1120658814907074 1.159162998199463
0.15538017451763153 -0.0302940234541893 1.1581379175186157
0.1534660905599594 -0.08382295072078705 1.1355153322219849
0.23129506409168243 -0.12268247455358505 1.1673972606658936
0.24342279136180878 -0.062348511070013046 1.0491245985031128
0.23925825953483582 -0.1276482492685318 1.0840723514556885
-0.13536907732486725 -0.23773109912872314 1.1538240909576416
-0.14119859039783478 -0.1686232089996338 1.209197998046875
-0.14730645716190338 -0.15749454498291016 1.2272616624832153
-0.12504272162914276 -0.2204231172800064 1.155846357345581
-0.13192293047904968 0.08994315564632416 1.4824466705322266
-0.13874927163124084 0.08263444155454636 1.4646377563476562
-0.142744243144989 0.10117622464895248 1.4210429191589355
-0.15464536845684052 -0.01879550889134407 1.7134692668914795
-0.1561148762702942 -0.05889955535531044 1.6280107498168945
-0.1710130274295807 -0.1465683877468109 0.33010366559028625
-0.13107196986675262 -0.06802575290203094 0.848757266998291
-0.13063481450080872 -0.09378443658351898 0.8313868641853333
-0.12785419821739197 0.21855121850967407 0.9813613891601562
-0.094052255153656 -0.13767732679843903 1.259468674659729
-0.11616195738315582 -0.03196880593895912 0.8185333013534546
-0.10670966655015945 -0.03136906772851944 1.7670422792434692
-0.09136345982551575 -0.12435859441757202 1.1391305923461914
-0.056219302117824554 -0.18689066171646118 1.1353081464767456
-0.06538233160972595 0.18960393965244293 1.0975840091705322
0.01363403256982565 0.18715570867061615 1.093440294265747
-0.06618097424507141 -0.021565696224570274 1.1604440212249756
-0.052341677248477936 -0.11305414140224457 0.8484477996826172
-0.04855535551905632 -0.18889042735099792 1.0699653625488281
-0.05232063680887222 0.01861584559082985 1.0605332851409912
-0.04281710460782051 -0.13624069094657898 1.7269991636276245
0.021934254094958305 -0.09859118610620499 0.764468789100647
-0.04514460638165474 0.1179719865322113 1.3072277307510376
0.08694662153720856 0.037256598472595215 0.06938938796520233
0.12872391939163208 0.253156453371048 1.042075514793396
0.09029147028923035 0.18632064759731293 1.1157068014144897
0.06385030597448349 0.26981639862060547 1.0538843870162964
0.09507406502962112 0.09106381237506866 0.8598262667655945
0.15397103130817413 0.10603521019220352 0.10138079524040222
0.11676323413848877 -0.03758585453033447 0.8495122790336609
0.14204096794128418 -0.03825072571635246 0.39091792702674866
0.1132856011390686 -0.09061043709516525 1.3963427543640137
0.11275086551904678 -0.10093779861927032 1.3118990659713745
0.19703994691371918 0.0014374339953064919 0.8637304902076721
0.2033558189868927 -0.048483431339263916 0.9267333745956421
0.24535143375396729 -0.10060373693704605 1.0558199882507324
-0.24967512488365173 -0.12732449173927307 1.1251736879348755
-0.203639417886734 -0.0876263678073883 0.9267914891242981
-0.21927833557128906 -0.0751764178276062 0.8694545030593872
-0.14499753713607788 0.08188386261463165 1.417466163635254
-0.14413197338581085 0.12872330844402313 1.2622886896133423
-0.1393858939409256 -0.007482040673494339 1.5439720153808594
-0.1368146538734436 -0.059683170169591904 1.0496063232421875
-0.13974010944366455 -0.08699867129325867 1.0917854309082031
-0.1389034390449524 -0.0026113688945770264 1.5449512004852295
-0.1382899433374405 -0.016483265906572342 1.5297400951385498
-0.13717520236968994 -0.011842526495456696 1.5377119779586792
-0.13814197480678558 -0.010343972593545914 1.5429710149765015
-0.14284291863441467 -0.02452574484050274 1.5312480926513672
-0.15599748492240906 -0.20331469178199768 0.17667990922927856
-0.15033607184886932 -0.09664767980575562 1.682985782623291
-0.034950077533721924 -0.018833065405488014 1.216133952140808
-0.11091558635234833 -0.22205665707588196 0.06535249948501587
-0.04793991521000862 -0.030878696590662003 1.2572284936904907
-0.00671903183683753 -0.023285767063498497 1.170992136001587
-0.04335944354534149 0.09453848004341125 0.9299501180648804
-0.04027511179447174 -0.03785393387079239 1.784316897392273
-0.043689269572496414 -0.09878501296043396 0.7053623199462891
-0.018305940553545952 0.12647077441215515 1.266807198524475
0.009882930666208267 -0.19215092062950134 1.0186444520950317
-0.028028028085827827 -0.19428634643554688 1.2312179803848267
0.02396398037672043 0.16873711347579956 1.1384985446929932
0.09602884948253632 0.0349687784910202 0.21377161145210266
0.07136253267526627 -0.176613450050354 0.9963233470916748
0.11932803690433502 -0.17006613314151764 0.973071277141571
0.07475251704454422 0.04249389469623566 1.5479068756103516
0.07109084725379944 -0.16459667682647705 1.1796375513076782
0.038911767303943634 -0.030333099886775017 1.167378544807434
0.09412321448326111 -0.02094520814716816 1.0837630033493042
0.08044636249542236 0.061893828213214874 0.9567003846168518
0.14782646298408508 0.015562072396278381 0.054136939346790314
0.12219822406768799 0.02412743866443634 0.05096189305186272
0.18009352684020996 0.031401798129081726 0.059044141322374344
0.17836475372314453 -0.028550613671541214 0.2434547394514084
0.1059640496969223 -0.06305339932441711 1.4741134643554688
0.1058504581451416 -0.06078150495886803 1.4717706441879272
0.09730519354343414 -0.07084814459085464 1.3290005922317505
0.11244518309831619 -0.09229835122823715 1.303579330444336
0.1870046705007553 0.20214562118053436 1.051666259765625
0.18323005735874176 0.18619239330291748 1.0011287927627563
0.1938788741827011 0.19342786073684692 0.9983360171318054
0.2578887641429901 -0.05243178457021713 1.0483224391937256
0.25833722949028015 -0.11497430503368378 1.0290310382843018
0.27247777581214905 -0.1364154815673828 1.0187076330184937
-0.2307933270931244 -0.06587138026952744 1.0533051490783691
-0.1484401971101761 -0.19945350289344788 1.1926482915878296
-0.1437968909740448 -0.14982759952545166 0.35826587677001953
-0.0870961993932724 0.20788708329200745 0.954856812953949
-0.1006307601928711 -0.1435413509607315 1.088944673538208
-0.03428474813699722 -0.040592484176158905 0.8429660797119141
-0.05456012487411499 -0.03247430920600891 0.8068495988845825
-0.046321969479322433 -0.08482382446527481 0.8133640289306641
-0.0038210051134228706 0.016764100641012192 1.1058214902877808
0.027052562683820724 -0.208647683262825 0.8398293852806091
0.09297867119312286 0.017384793609380722 0.8642270565032959
0.10956529527902603 0.18853843212127686 1.0765560865402222
0.09984107315540314 0.005093179643154144 1.5650571584701538
0.11046285927295685 0.030211277306079865 1.540067434310913
0.19109293818473816 -0.11654029041528702 0.9269620776176453
-0.15062950551509857 -0.20917409658432007 1.1592615842819214
-0.14311100542545319 0.04706660658121109 1.576248288154602
-0.06074388325214386 0.2160150706768036 1.0037109851837158
-0.12426019459962845 0.07733939588069916 1.6073120832443237
-0.09576530009508133 0.03715009614825249 1.597378134727478
-0.05983860045671463 0.028993815183639526 1.5748509168624878
0.03872721642255783 -0.1926131546497345 1.0730719566345215
0.06066262722015381 -0.15182463824748993 1.2670233249664307
0.12080365419387817 -0.01516740769147873 0.17544344067573547
0.09930062294006348 -0.12841902673244476 1.225480079650879
0.10665833950042725 -0.11304828524589539 1.1730594635009766
0.1255119889974594 0.07567758858203888 1.4404516220092773
0.10919459164142609 0.10415751487016678 1.4448808431625366
0.10967990756034851 -0.06505192816257477 1.1829259395599365
0.11983798444271088 -0.07478666305541992 0.8346977233886719
0.08626619726419449 -0.18059130012989044 1.2395038604736328
0.1413021981716156 0.12136434018611908 1.3471664190292358
-0.12555456161499023 0.11778787523508072 1.3525893688201904
-0.13700853288173676 -0.07344302535057068 0.3614335060119629
0.03848832845687866 -0.09501518309116364 0.7226729989051819
0.01752464845776558 -0.13590066134929657 1.705932855606079
-0.14335286617279053 0.20567499101161957 1.057051420211792
-0.1467006951570511 -0.1123417541384697 1.2761471271514893
-0.0988263413310051 -0.10981933027505875 0.40294262766838074
0.014201242476701736 0.13648810982704163 1.4790911674499512
0.10151374340057373 0.01435956358909607 0.05511375516653061
0.09392596781253815 -0.0609084814786911 1.5243322849273682
0.0959126353263855 -0.06349033862352371 1.519848346710205
0.10290627181529999 -0.06085207685828209 1.427749752998352
0.17043021321296692 -0.009217523038387299 0.21820580959320068
0.17384259402751923 0.025850854814052582 0.2133951187133789
0.15703047811985016 -0.1210600882768631 1.2070591449737549
-0.17949384450912476 -0.16078460216522217 0.9320811629295349
-0.13624721765518188 0.1000666618347168 1.3858001232147217
-0.1336754560470581 0.09837131947278976 1.3864065408706665
-0.13997085392475128 0.09545432031154633 1.3865418434143066
-0.10128270834684372 -0.14535091817378998 0.20396071672439575
-0.033938270062208176 -0.09539619088172913 0.8457365036010742
0.09640789777040482 0.012414321303367615 0.17025551199913025
0.19170290231704712 -0.1373790204524994 1.159517526626587
0.07799670100212097 -0.08430404216051102 1.6623127460479736
0.13783009350299835 -0.09718716889619827 0.7836391925811768
0.14055512845516205 0.07399090379476547 1.400675892829895
0.1452265977859497 0.09864743053913116 1.3614509105682373
0.09298708289861679 0.08280476182699203 0.08203385025262833
0.17466987669467926 -0.4937579929828644 1.0020018815994263
0.17354846000671387 -0.45445454120635986 0.9876256585121155
0.17192843556404114 -0.4699057340621948 0.9891498684883118
0.1658194214105606 -0.4718509614467621 0.9944419860839844
0.16770197451114655 -0.4932575225830078 0.995495617389679
0.17718668282032013 -0.48132726550102234 1.0102381706237793
0.2123907506465912 -0.33318236470222473 1.005995750427246
0.194555401802063 -0.33619385957717896 0.9955624341964722
0.20301923155784607 -0.35595226287841797 1.0025954246520996
0.19992372393608093 -0.365254670381546 1.0029503107070923
0.23051513731479645 -0.16372564435005188 0.9562339782714844
0.2255925089120865 -0.18422141671180725 0.9708618521690369
0.21943029761314392 -0.17485840618610382 0.9444006681442261
0.19295547902584076 -0.3483165502548218 0.9622327089309692
0.19246415793895721 -0.3623146116733551 0.9713552594184875
0.20073223114013672 -0.395260751247406 1.0235804319381714
0.20150849223136902 -0.37860649824142456 1.0088590383529663
0.20837724208831787 -0.21339893341064453 0.9224581122398376
0.2156146913766861 -0.22061561048030853 0.9487345218658447
0.2320825457572937 -0.2668844163417816 1.0051813125610352
0.22317172586917877 -0.2558804750442505 1.001505732536316
0.1914014369249344 -0.466145396232605 1.0196613073349
0.17923398315906525 -0.4470054507255554 0.976220428943634
0.22919975221157074 -0.1760028600692749 0.937924861907959
0.22274449467658997 -0.18006116151809692 0.9361414909362793
0.3004170060157776 0.011184073984622955 1.0389900207519531
0.29038357734680176 -0.002010554075241089 1.0351253747940063
0.29090800881385803 0.012673333287239075 1.019049048423767
0.19824141263961792 -0.4179557263851166 1.011792540550232
0.19303366541862488 -0.4427921175956726 1.017101764678955
0.22581182420253754 -0.17918317019939423 0.9301376342773438
0.225988507270813 -0.17362844944000244 0.9192147254943848
0.16202351450920105 -0.5059348940849304 0.9550383687019348
0.15649980306625366 -0.5234590768814087 0.9592887759208679
0.3000636100769043 0.01915789395570755 1.0338456630706787
0.29936912655830383 0.006321869790554047 1.0436029434204102
0.29510170221328735 0.020985864102840424 1.0294365882873535
0.2973702549934387 0.01166822761297226 1.017462134361267
0.16542068123817444 -0.5574991106987 1.004496455192566
0.16917087137699127 -0.5790500044822693 1.0116666555404663
0.1559792160987854 -0.5797050595283508 0.9949305057525635
0.2091367542743683 -0.2862328290939331 0.9433497190475464
0.20803499221801758 -0.3073357939720154 0.9391815662384033
0.19670367240905762 -0.3240748643875122 0.9393593072891235
0.19736574590206146 -0.3262263238430023 0.9271815419197083
0.30332618951797485 0.005272850394248962 1.0499680042266846
0.29878848791122437 0.025221645832061768 1.0276222229003906
0.2089066058397293 -0.41773155331611633 1.0266010761260986
0.21338112652301788 -0.418966144323349 1.0239661931991577
0.20313355326652527 -0.4324769377708435 1.0243823528289795
0.20889542996883392 -0.45109546184539795 1.0275061130523682
0.21752651035785675 -0.24417772889137268 0.9348743557929993
0.2123662382364273 -0.25950294733047485 0.9303262829780579
0.2116505354642868 -0.26513370871543884 0.9319636225700378
0.30257001519203186 0.02138359099626541 1.031853437423706
0.3078771233558655 0.0006625652313232422 1.0466892719268799
0.2970468997955322 0.010399267077445984 1.0182260274887085
0.22676362097263336 -0.14305846393108368 0.894039511680603
0.22448322176933289 -0.15187889337539673 0.8857285976409912
0.22378727793693542 -0.16782554984092712 0.9079150557518005
0.2270515263080597 -0.15698561072349548 0.8985785841941833
0.2219235897064209 -0.15085987746715546 0.8983574509620667
0.19188672304153442 -0.346504807472229 0.9233986735343933
0.19698122143745422 -0.3276553452014923 0.9228832721710205
0.1921825110912323 -0.33371782302856445 0.9114164113998413
0.19300352036952972 -0.3437573313713074 0.9067378640174866
0.30483102798461914 0.001958414912223816 1.0241719484329224
0.17008529603481293 -0.5895613431930542 1.0185468196868896
0.1701049655675888 -0.5852230787277222 0.9985470175743103
0.1714615821838379 -0.5931255221366882 1.012746810913086
0.16932281851768494 -0.6002582311630249 1.0136854648590088
0.16553811728954315 -0.5780119299888611 0.9898085594177246
0.252594530582428 -0.16875562071800232 0.9459883570671082
0.2372664511203766 -0.1775650978088379 0.9310718178749084
0.17122523486614227 -0.48581787943840027 0.9443169832229614
0.1706354022026062 -0.5125872492790222 0.9493522644042969
0.1678391844034195 -0.537041187286377 0.9616537690162659
0.24747581779956818 -0.25354278087615967 1.0055270195007324
0.238028883934021 -0.27172791957855225 1.0025960206985474
0.24411234259605408 -0.28343480825424194 0.9977889657020569
0.22325703501701355 -0.41077521443367004 1.0286606550216675
0.21318604052066803 -0.4192177355289459 1.0207328796386719
0.2020617425441742 -0.47129517793655396 1.0237820148468018
0.2184232473373413 -0.3813400864601135 1.0181334018707275
0.18679045140743256 -0.4652975797653198 0.9657257795333862
0.17860586941242218 -0.5001647472381592 0.9619250297546387
0.2501499056816101 -0.2545697093009949 0.9983276724815369
0.2240455597639084 -0.39085835218429565 0.9998056292533875
0.22343885898590088 -0.3755123019218445 0.9901317358016968
0.219236359000206 -0.40861624479293823 1.0000789165496826
0.1799686849117279 -0.5495098829269409 0.9918440580368042
0.1830703616142273 -0.539838969707489 0.98226398229599
0.20121750235557556 -0.3758235573768616 0.9465842843055725
0.216643288731575 -0.3807491660118103 0.9642440676689148
0.20540496706962585 -0.39455169439315796 0.9632835388183594
0.21125204861164093 -0.3956567943096161 0.9737228155136108
0.23440511524677277 -0.3266444802284241 0.9975892901420593
0.22823463380336761 -0.3593372702598572 0.9926273822784424
0.20438706874847412 -0.4695449471473694 0.9983384609222412
0.19969502091407776 -0.48694097995758057 0.9953644275665283
0.19302743673324585 -0.49739378690719604 1.0015190839767456
0.20190685987472534 -0.4562307298183441 0.9744347333908081
0.1998562514781952 -0.46403729915618896 0.9702829122543335
0.2173633575439453 -0.33689770102500916 0.9566959738731384
0.21767912805080414 -0.3522922992706299 0.9534252285957336
0.21701091527938843 -0.3267359733581543 0.9434444308280945
0.21458053588867188 -0.34382110834121704 0.946702241897583
0.2149023413658142 -0.36409419775009155 0.956045925617218
0.22687242925167084 -0.32059383392333984 0.9654760360717773
0.23693041503429413 -0.30390822887420654 0.9730250835418701
0.222947895526886 -0.29191669821739197 0.949819803237915
0.22848938405513763 -0.3063589930534363 0.9634616374969482
0.20059189200401306 -0.47281545400619507 0.9778339862823486
0.19856667518615723 -0.49406224489212036 0.9800238609313965
0.19334982335567474 -0.4846227169036865 0.975181519985199
0.2056783139705658 -0.48603469133377075 0.9760181307792664
0.2586333453655243 -0.18700489401817322 0.9574973583221436
0.1691591590642929 -0.4409245550632477 1.0055466890335083
0.1609921008348465 -0.4510236978530884 0.9951167106628418
0.18726639449596405 -0.37753963470458984 0.9978709816932678
0.18824101984500885 -0.3738969564437866 0.993212103843689
0.18203260004520416 -0.3901485800743103 1.0054357051849365
0.18443350493907928 -0.378140389919281 0.9892334938049316
0.1785774976015091 -0.39344632625579834 0.9946417808532715
0.19224973022937775 -0.3404541313648224 0.9813195466995239
0.1910761147737503 -0.3559038043022156 0.9772648215293884
0.20048533380031586 -0.3193427622318268 0.9811832904815674
0.1945221871137619 -0.3890606760978699 1.0072582960128784
0.17276135087013245 -0.4679178297519684 0.9622193574905396
0.1672881543636322 -0.4818274676799774 0.9917961955070496
0.18870601058006287 -0.3734174370765686 0.970804750919342
0.16786690056324005 -0.5114607810974121 0.9916968941688538
0.1589336395263672 -0.5299109816551208 0.9895824790000916
0.16038057208061218 -0.514408528804779 0.9859228730201721
0.16352203488349915 -0.5478712916374207 0.9984472393989563
0.23864378035068512 -0.1587555706501007 0.9749294519424438
0.25185835361480713 -0.21444347500801086 1.0363476276397705
0.24405480921268463 -0.22372154891490936 1.0255041122436523
0.25037112832069397 -0.22966155409812927 1.0299384593963623
0.2133847028017044 -0.24586738646030426 0.9482349157333374
0.2869727313518524 0.009177550673484802 1.0077850818634033
0.2971547245979309 -0.016837067902088165 1.0472757816314697
0.2922632098197937 -0.027998365461826324 1.0402557849884033
0.28787195682525635 -0.02333063632249832 1.0345773696899414
0.22100700438022614 -0.3408302664756775 1.0083472728729248
0.19446052610874176 -0.48368239402770996 1.0342426300048828
0.1607578545808792 -0.5537382364273071 0.9765169620513916
0.27137213945388794 -0.05763137340545654 0.9966244697570801
0.2649233639240265 -0.08759282529354095 0.9785948991775513
0.23258104920387268 -0.3173947334289551 1.0165601968765259
0.22513315081596375 -0.32294487953186035 1.0086400508880615
0.21476466953754425 -0.36618876457214355 1.0074812173843384
0.1622450202703476 -0.5602585077285767 0.9806281328201294
0.16963744163513184 -0.5936349034309387 1.0218803882598877
0.1646534502506256 -0.5972921252250671 1.0253640413284302
0.1650012582540512 -0.5940136909484863 1.0070178508758545
0.2515406310558319 -0.13149142265319824 0.9746999144554138
0.2531372606754303 -0.15864230692386627 0.9713782072067261
0.22133606672286987 -0.36841240525245667 1.0064197778701782
0.23169317841529846 -0.16266468167304993 0.9497496485710144
0.16111630201339722 -0.5305930376052856 0.9587284326553345
0.2714397609233856 -0.17884695529937744 1.054257869720459
0.27410775423049927 -0.178975909948349 1.054927945137024
0.26806676387786865 -0.1862851083278656 1.0381420850753784
0.2726714015007019 -0.19774973392486572 1.0443309545516968
0.2716030478477478 -0.21031741797924042 1.0504987239837646
0.2558387219905853 -0.17706839740276337 1.0224840641021729
0.26467299461364746 -0.18675513565540314 1.0231114625930786
0.1718350350856781 -0.6012296676635742 1.0280165672302246
0.20079171657562256 -0.3898480534553528 0.9501715898513794
0.19882939755916595 -0.3984888195991516 0.9581440687179565
0.19172494113445282 -0.401946485042572 0.9565779566764832
0.19305318593978882 -0.36593079566955566 0.9434260129928589
0.2712615132331848 -0.1957026720046997 1.0461450815200806
0.27491483092308044 -0.204420268535614 1.0452553033828735
0.23645111918449402 -0.18296703696250916 0.9216647148132324
0.2796272933483124 -0.18665701150894165 1.045234203338623
0.27441951632499695 -0.1950671523809433 1.037536382675171
0.226579487323761 -0.40393227338790894 1.0234228372573853
0.22592075169086456 -0.17836639285087585 0.893499493598938
0.22115296125411987 -0.1769580841064453 0.8915353417396545
0.21954165399074554 -0.18733100593090057 0.8755474090576172
0.21751835942268372 -0.19959840178489685 0.8798731565475464
0.2579137682914734 -0.16344308853149414 0.9669185876846313
0.27020207047462463 -0.2145642638206482 1.027525782585144
0.21354694664478302 -0.4206252098083496 1.0080387592315674
0.21306496858596802 -0.4384992718696594 1.0062994956970215
0.23476296663284302 -0.19153979420661926 0.9153794646263123
0.2295631319284439 -0.20422115921974182 0.9128447771072388
0.2268979400396347 -0.19529762864112854 0.9017435908317566
0.21254363656044006 -0.43953031301498413 0.9965238571166992
0.21861672401428223 -0.42210620641708374 0.992853581905365
0.20489484071731567 -0.42742156982421875 0.9821579456329346
0.213995561003685 -0.4056928753852844 0.9838805198669434
0.18375086784362793 -0.5136325359344482 0.9657087922096252
0.18337714672088623 -0.5197672843933105 0.9767017960548401
0.2449406087398529 -0.1975690722465515 0.9337193369865417
0.26424574851989746 -0.20351970195770264 0.9779882431030273
0.24976707994937897 -0.22775745391845703 0.9730455279350281
0.2564646005630493 -0.219222754240036 0.9631885290145874
0.2523014545440674 -0.24456626176834106 0.968637228012085
0.24357467889785767 -0.25406837463378906 0.957291841506958
0.21560795605182648 -0.4470931589603424 0.9809173345565796
0.21282081305980682 -0.4381634593009949 0.976946234703064
0.21261119842529297 -0.47295594215393066 0.9895094633102417
0.23297716677188873 -0.3726511001586914 0.9815736413002014
0.22296063601970673 -0.40036195516586304 0.9860529899597168
0.22301477193832397 -0.3793903589248657 0.9819176197052002
0.22908702492713928 -0.38921231031417847 0.9749610424041748
0.22965261340141296 -0.3962511420249939 0.9826375842094421
0.23111125826835632 -0.3830353915691376 0.981777012348175
0.22469419240951538 -0.40173760056495667 0.9766203165054321
0.2076830267906189 -0.48446136713027954 0.9833793640136719
0.21114104986190796 -0.4740535020828247 0.9753494262695312
0.16326728463172913 -0.4599305987358093 1.0108681917190552
0.16900408267974854 -0.47424399852752686 1.0031894445419312
0.16646447777748108 -0.4576989412307739 0.9905954599380493
0.1587011218070984 -0.4805372357368469 0.9971972107887268
0.23754656314849854 -0.20740307867527008 1.0205358266830444
0.22515055537223816 -0.18749193847179413 0.9561747312545776
0.21882528066635132 -0.2009790986776352 0.947675883769989
0.2358371615409851 -0.171765998005867 0.9984001517295837
0.18295562267303467 -0.45155221223831177 1.0104904174804688
0.18490572273731232 -0.4223863184452057 0.9853392839431763
0.21304360032081604 -0.23985177278518677 0.9695969820022583
0.2128945291042328 -0.2507363259792328 0.95809406042099
0.23178866505622864 -0.22068113088607788 1.0102033615112305
0.22760418057441711 -0.2440691888332367 1.0031095743179321
0.1836695373058319 -0.4137866497039795 0.9859177470207214
0.1839718520641327 -0.4660981297492981 1.01433265209198
0.207649827003479 -0.27452078461647034 0.962091326713562
0.20496134459972382 -0.312115877866745 0.9718586206436157
0.2041044682264328 -0.2919156551361084 0.9574844837188721
0.18944332003593445 -0.3958125710487366 0.9811192154884338
0.16942664980888367 -0.5340582728385925 1.0078500509262085
0.15986381471157074 -0.571602463722229 1.0045777559280396
0.15460142493247986 -0.5600532293319702 0.9842072129249573
0.2573806941509247 -0.2090911865234375 1.043996810913086
0.24944424629211426 -0.2409077137708664 1.0345951318740845
0.23061281442642212 -0.284207820892334 1.005084753036499
0.22588658332824707 -0.30956822633743286 1.0096750259399414
0.20097507536411285 -0.3051462471485138 0.947682797908783
0.2519157826900482 -0.2562771141529083 1.0389901399612427
0.246407613158226 -0.2387443482875824 1.011453628540039
0.24045884609222412 -0.25092077255249023 1.0089335441589355
0.1895105093717575 -0.5044600367546082 1.0233639478683472
0.18158936500549316 -0.5224714875221252 1.0151219367980957
0.1888592690229416 -0.4029954969882965 0.9664226770401001
0.2661263644695282 -0.10843487083911896 1.0051966905593872
0.2690178453922272 -0.094493068754673 1.0102794170379639
0.19586467742919922 -0.33178457617759705 0.9240601062774658
0.23589996993541718 -0.2989094853401184 1.004854440689087
0.23694871366024017 -0.31604230403900146 1.0200130939483643
0.19368520379066467 -0.49861085414886475 1.0289011001586914
0.19406983256340027 -0.497567355632782 1.023860216140747
0.1893986463546753 -0.513373613357544 1.0182807445526123
0.2244962751865387 -0.20581810176372528 0.9097020626068115
0.21747896075248718 -0.2212793081998825 0.9081096649169922
0.21341872215270996 -0.22125451266765594 0.9099958539009094
0.21876850724220276 -0.20046424865722656 0.9052272439002991
0.2229015976190567 -0.2000150978565216 0.9051426649093628
0.21314339339733124 -0.20015960931777954 0.8862687945365906
0.21983982622623444 -0.23410919308662415 0.9298109412193298
0.20510417222976685 -0.19929379224777222 0.8868277072906494
0.20520557463169098 -0.2131367027759552 0.874971866607666
0.25758692622184753 -0.16823634505271912 0.9963707327842712
0.2582476735115051 -0.17673836648464203 1.0012686252593994
0.24944968521595 -0.1598888486623764 0.967969536781311
0.26556330919265747 -0.21609103679656982 1.0404843091964722
0.25589755177497864 -0.22442494332790375 1.0277185440063477
0.22219717502593994 -0.41283565759658813 1.039505124092102
0.2234051674604416 -0.40921053290367126 1.0399799346923828
0.21458850800991058 -0.4050678014755249 1.0297179222106934
0.20816577970981598 -0.20140603184700012 0.8713529109954834
0.21373672783374786 -0.18667784333229065 0.8762209415435791
0.22071994841098785 -0.23799072206020355 0.9251283407211304
0.18694016337394714 -0.4516836404800415 0.9640673995018005
0.17541152238845825 -0.47118622064590454 0.9553105235099792
0.2636636197566986 -0.1957961618900299 1.0216056108474731
0.2657947242259979 -0.15330414474010468 0.9978185892105103
0.1962570697069168 -0.48306092619895935 1.0081039667129517
0.20294414460659027 -0.3321859836578369 0.9289835691452026
0.29330411553382874 -0.03126424923539162 1.0011694431304932
0.28582826256752014 -0.04442690312862396 0.9950953722000122
0.2031276673078537 -0.3394404351711273 0.9294214248657227
0.27071306109428406 -0.14432157576084137 0.9868123531341553
0.2660769522190094 -0.16223345696926117 0.9874327778816223
0.26119986176490784 -0.15979771316051483 0.976593554019928
0.20451118052005768 -0.44771111011505127 0.9796928763389587
0.2538268268108368 -0.17768530547618866 0.9426164031028748
0.22123542428016663 -0.31476300954818726 0.95128333568573
0.26714515686035156 -0.18004374206066132 0.9832136631011963
0.26526764035224915 -0.1992388367652893 0.9817416667938232
0.26989948749542236 -0.20259952545166016 1.0061383247375488
0.26348787546157837 -0.21015773713588715 0.9876564145088196
0.26535844802856445 -0.16846297681331635 0.9731786251068115
0.2619269788265228 -0.17255045473575592 0.9590786695480347
0.2194518744945526 -0.44831907749176025 0.9880384802818298
0.18847957253456116 -0.3467170000076294 0.9973467588424683
0.18894867599010468 -0.35191160440444946 0.9944649934768677
0.19016629457473755 -0.3624241352081299 0.9977087378501892
0.18643638491630554 -0.34725210070610046 0.990393877029419
0.1872931569814682 -0.36777248978614807 0.9965667128562927
0.1763918101787567 -0.42447155714035034 1.003238320350647
0.18425486981868744 -0.43522197008132935 1.0068260431289673
0.19110210239887238 -0.37396323680877686 0.9887454509735107
0.1887514442205429 -0.3809431791305542 0.9806292057037354
0.18708953261375427 -0.40101099014282227 0.9916049242019653
0.183827742934227 -0.4141806662082672 1.005516529083252
0.2171691507101059 -0.22609278559684753 0.9720534086227417
0.24513594806194305 -0.20733898878097534 1.0305942296981812
0.2455768883228302 -0.1902565360069275 1.0235532522201538
0.24677594006061554 -0.14263519644737244 0.9983014464378357
0.24680523574352264 -0.1286008358001709 0.9883558750152588
0.18934667110443115 -0.3687218129634857 0.9529470801353455
0.19681431353092194 -0.3212777078151703 0.9495932459831238
0.18949531018733978 -0.34611964225769043 0.9203809499740601
0.19166044890880585 -0.34010520577430725 0.9499732255935669
0.2889562249183655 -0.03460538759827614 1.0404170751571655
0.29203662276268005 -0.0024574697017669678 1.0215846300125122
0.2874293625354767 -0.016213513910770416 1.0247821807861328
0.2841494679450989 -0.017907623201608658 1.015110731124878
0.27817100286483765 -0.029953356832265854 1.009782314300537
0.25917595624923706 -0.09035815298557281 0.982896089553833
0.25389859080314636 -0.11120806634426117 0.9764193892478943
0.26464349031448364 -0.18216407299041748 1.0483880043029785
0.21400578320026398 -0.41250547766685486 1.041932225227356
0.19860348105430603 -0.4505072236061096 1.028120756149292
0.16875779628753662 -0.48714369535446167 0.9429681301116943
0.16414281725883484 -0.4826463460922241 0.9482146501541138
0.21808217465877533 -0.1791670322418213 0.8846356868743896
0.20892028510570526 -0.18506336212158203 0.8804477453231812
0.27712953090667725 -0.09047466516494751 1.0056318044662476
0.2737925946712494 -0.11395595222711563 1.002342939376831
0.2211071401834488 -0.4121978282928467 1.0446404218673706
0.20902982354164124 -0.29567044973373413 0.9412134289741516
0.21291044354438782 -0.3123661279678345 0.9445703029632568
0.23618502914905548 -0.30771589279174805 1.0057107210159302
0.23389121890068054 -0.32793620228767395 1.0069551467895508
0.22820328176021576 -0.34481900930404663 1.0055192708969116
0.23957520723342896 -0.22901621460914612 0.9343229532241821
0.2880244553089142 -0.059957027435302734 1.0070079565048218
0.28382647037506104 -0.06717714667320251 0.9955804347991943
0.18227092921733856 -0.5311360955238342 0.9804259538650513
0.2510359287261963 -0.25365081429481506 0.9868000149726868
0.245863139629364 -0.2700680196285248 0.9775320291519165
0.24688731133937836 -0.2279779613018036 0.9527145624160767
0.2361076921224594 -0.22147850692272186 0.9260926842689514
0.22937211394309998 -0.24654223024845123 0.936867892742157
0.2642316520214081 -0.22695282101631165 0.9845849275588989
0.2658751904964447 -0.22359168529510498 1.000920057296753
0.26120084524154663 -0.23488600552082062 0.9969758987426758
0.2563353478908539 -0.2376004457473755 0.9796435236930847
0.23285022377967834 -0.20219343900680542 0.993460476398468
0.23100827634334564 -0.1748111993074417 0.982282817363739
0.22694851458072662 -0.1902366429567337 0.9904258251190186
0.22508160769939423 -0.19494569301605225 0.9776249527931213
0.17761823534965515 -0.4478965997695923 0.9888348579406738
0.21707847714424133 -0.19179847836494446 0.9465469121932983
0.18309688568115234 -0.48942044377326965 1.0120484828948975
0.2090652585029602 -0.25714725255966187 0.9549862146377563
0.27334079146385193 -0.05249602347612381 1.0171490907669067
0.26932665705680847 -0.06361434608697891 1.0085196495056152
0.26783132553100586 -0.0567154586315155 0.9973549842834473
0.24211320281028748 -0.22980940341949463 1.0147680044174194
0.24481704831123352 -0.24680982530117035 1.0323373079299927
0.24201107025146484 -0.23949772119522095 1.0231446027755737
0.21537616848945618 -0.20675863325595856 0.9136719107627869
0.20581889152526855 -0.2042073756456375 0.873502790927887
0.19120512902736664 -0.42395374178886414 0.9641839265823364
0.1830550581216812 -0.43768107891082764 0.9624777436256409
0.17882001399993896 -0.446541965007782 0.9635406732559204
0.2541620433330536 -0.17470437288284302 1.0008693933486938
0.25685787200927734 -0.25321727991104126 1.035109519958496
0.24962908029556274 -0.2576446533203125 1.0302554368972778
0.24788910150527954 -0.2472347915172577 1.0225883722305298
0.2404400259256363 -0.23971188068389893 1.0076285600662231
0.1644400805234909 -0.5129200220108032 0.9500100612640381
0.16844984889030457 -0.551849901676178 0.9711392521858215
0.2910107672214508 -0.018438614904880524 1.0155054330825806
0.2904288172721863 0.003856971859931946 0.9959380626678467
0.29334792494773865 -0.0011088550090789795 1.0114496946334839
0.29160261154174805 -0.013549752533435822 1.0082658529281616
0.286777138710022 -0.018867377191781998 0.9973532557487488
0.28662872314453125 -0.009121604263782501 0.992490828037262
0.28136783838272095 -0.020563572645187378 0.9912706613540649
0.21856532990932465 -0.24890083074569702 0.9314864873886108
0.2797684371471405 -0.03687293455004692 0.9853999018669128
0.27969610691070557 -0.08710060268640518 0.9845629334449768
0.2678298354148865 -0.10208646953105927 0.9796853065490723
0.2780299484729767 -0.11726415902376175 0.9915669560432434
0.26532429456710815 -0.17613133788108826 0.9924955368041992
0.27049630880355835 -0.1885848343372345 1.0045751333236694
0.23521117866039276 -0.2187040001153946 0.9157889485359192
0.24170982837677002 -0.30673009157180786 0.9812847375869751
0.24076691269874573 -0.28398358821868896 0.9658066034317017
0.21992123126983643 -0.4327799081802368 0.9866995811462402
0.23791179060935974 -0.33353179693222046 0.9792642593383789
0.2356429100036621 -0.35531362891197205 0.9791527986526489
0.23131293058395386 -0.3440355062484741 0.979765772819519
0.23194140195846558 -0.37457752227783203 0.9746341109275818
0.20439574122428894 -0.3062952160835266 0.9961551427841187
0.20165587961673737 -0.31509655714035034 0.9917830228805542
0.21645310521125793 -0.28222134709358215 1.0023435354232788
0.20606227219104767 -0.3024899363517761 0.9840307235717773
0.16814430058002472 -0.49907320737838745 0.9726067185401917
0.2448098063468933 -0.13806234300136566 0.9806662797927856
0.24402892589569092 -0.15602296590805054 0.9793797731399536
0.24235284328460693 -0.156696617603302 0.9942798018455505
0.2571772038936615 -0.10470618307590485 1.0005230903625488
0.2605578899383545 -0.11740615218877792 1.0026267766952515
0.20388510823249817 -0.40834489464759827 1.029456377029419
0.20375974476337433 -0.41165032982826233 1.0238146781921387
0.21412619948387146 -0.38891690969467163 1.0230218172073364
0.1780414581298828 -0.458935022354126 0.9593685865402222
0.22216133773326874 -0.14396421611309052 0.8926982879638672
0.21514667570590973 -0.16082626581192017 0.8895329236984253
0.2873709201812744 0.012374483048915863 1.003880262374878
0.28547438979148865 0.0055469125509262085 0.9999545216560364
0.2977665364742279 -0.05569900572299957 1.0415070056915283
0.2911455035209656 -0.05534340813755989 1.0395472049713135
0.18396992981433868 -0.5243704915046692 1.010624885559082
0.18079853057861328 -0.5429346561431885 0.9986534118652344
0.188230961561203 -0.5153257846832275 0.9852567315101624
0.21625657379627228 -0.2794523239135742 0.933745801448822
0.3009534180164337 -0.020844362676143646 1.0242817401885986
0.30415987968444824 -0.023094482719898224 1.0338008403778076
0.3006211519241333 -0.04065665230154991 1.022510051727295
0.26801374554634094 -0.22128713130950928 1.0144871473312378
0.2224787324666977 -0.40878599882125854 0.9869915843009949
0.24829110503196716 -0.1897718906402588 0.9380614757537842
0.2488754540681839 -0.2057296633720398 0.9418439269065857
0.17546361684799194 -0.4264708459377289 0.9972938299179077
0.16897954046726227 -0.43440914154052734 0.9990886449813843
0.2371196150779724 -0.19127157330513 1.0072588920593262
0.21425198018550873 -0.25082075595855713 0.9738572239875793
0.20781543850898743 -0.2738112211227417 0.9835617542266846
0.24867388606071472 -0.1678185760974884 0.9973058104515076
0.2752135396003723 -0.02057967334985733 0.9974743127822876
0.27269938588142395 -0.03386479616165161 0.9920958876609802
0.271221786737442 -0.03387703374028206 0.9886334538459778
0.2888715863227844 -0.04854128137230873 1.0462019443511963
0.2836783528327942 -0.05273176729679108 1.044061541557312
0.28270065784454346 -0.047232307493686676 1.026606559753418
0.17397843301296234 -0.5387719869613647 1.005793571472168
0.18944151699543 -0.34962940216064453 0.934788703918457
0.18734322488307953 -0.3406365215778351 0.913261890411377
0.28408193588256836 -0.0013415887951850891 0.994648277759552
0.20323678851127625 -0.45944997668266296 1.0275189876556396
0.19616688787937164 -0.4833390712738037 1.0332045555114746
0.2634153664112091 -0.13725689053535461 1.0002236366271973
0.25772491097450256 -0.15612976253032684 1.0033435821533203
0.2087835818529129 -0.1998387575149536 0.8700622320175171
0.2938542664051056 -0.03505057841539383 1.0355658531188965
0.2940087616443634 -0.004968717694282532 1.0232880115509033
0.2945089042186737 -0.014612704515457153 1.0194275379180908
0.23108111321926117 -0.14668963849544525 0.8905172348022461
0.23086610436439514 -0.17556478083133698 0.9080915451049805
0.2855159640312195 -0.07763861119747162 1.0004193782806396
0.2026512771844864 -0.3559136986732483 0.933489978313446
0.1985570788383484 -0.338221937417984 0.9124467372894287
0.2389865666627884 -0.3198549151420593 1.0181257724761963
0.22214195132255554 -0.370656281709671 0.9696721434593201
0.2224862426519394 -0.3760259747505188 0.9747023582458496
0.2271127700805664 -0.33156031370162964 0.9673397541046143
0.2246457040309906 -0.3435298800468445 0.9700424671173096
0.21695350110530853 -0.24894528090953827 0.9895104765892029
0.2204185277223587 -0.29356491565704346 1.0073035955429077
0.21353720128536224 -0.3169711232185364 1.0035234689712524
0.1954129934310913 -0.38304418325424194 0.95136559009552
0.21862956881523132 -0.17120829224586487 0.9054690599441528
0.2115621566772461 -0.17739634215831757 0.8937280178070068
0.21361078321933746 -0.19656088948249817 0.9115514755249023
0.2555370628833771 -0.23866429924964905 1.0335395336151123
0.2494317889213562 -0.2361312359571457 1.015044927597046
0.19947661459445953 -0.4832598567008972 1.0338835716247559
0.29524746537208557 -0.034895412623882294 1.0156738758087158
0.27439752221107483 -0.12777888774871826 0.9973457455635071
0.2655147612094879 -0.13186439871788025 0.9757980108261108
0.23404622077941895 -0.20976632833480835 1.0062774419784546
0.22531013190746307 -0.2186562865972519 0.9949230551719666
0.2214372605085373 -0.2299938052892685 0.9945709109306335
0.22351525723934174 -0.21146422624588013 0.9827904105186462
0.2350112497806549 -0.16021014750003815 0.981202244758606
0.25941771268844604 -0.08656864613294601 0.993485689163208
0.26259222626686096 -0.193995863199234 1.0456137657165527
0.26287445425987244 -0.1861322820186615 1.0417046546936035
