0.6554363369941711 -0.10446088016033173 0.8534660339355469
-0.6076171398162842 0.025164548307657242 0.9694743752479553
-0.5900676846504211 0.016284696757793427 0.9295571446418762
-0.5959832668304443 0.00752619281411171 0.8983455300331116
-0.5832630395889282 0.0025396645069122314 0.9318904876708984
-0.5743199586868286 0.014808658510446548 0.8696244955062866
-0.5639919638633728 -0.004254989326000214 0.8558214902877808
-0.6071053743362427 0.07404067367315292 1.0364809036254883
-0.5714855194091797 0.017206724733114243 1.059220552444458
-0.5785954594612122 0.021590542048215866 1.009661316871643
-0.5647213459014893 0.01755126565694809 1.0018465518951416
-0.5625913739204407 0.01355612650513649 0.9294244050979614
-0.5506142973899841 -0.016540726646780968 0.8934337496757507
-0.5709519982337952 -0.020110350102186203 0.8662729263305664
-0.5600816607475281 -0.008707575500011444 0.7763636112213135
-0.5538457632064819 -0.028908325359225273 0.7908497452735901
-0.5328523516654968 -0.0543496273458004 0.7452006936073303
-0.5323117971420288 -0.013571258634328842 0.9500206708908081
-0.5448676347732544 -0.001081034541130066 0.8914026021957397
-0.5470549464225769 -0.00018737837672233582 0.7695615291595459
-0.5446702837944031 -0.01682361215353012 0.878468930721283
-0.537021279335022 -0.005299333482980728 0.9056152701377869
-0.5476363301277161 -0.022740397602319717 0.8566323518753052
-0.526630163192749 -0.04993138462305069 0.8505903482437134
-0.5082846879959106 0.015343211591243744 1.1737231016159058
-0.5048844218254089 -0.1088557243347168 0.709865927696228
-0.505949079990387 -0.10748700797557831 0.6304761171340942
-0.49223804473876953 -0.019962191581726074 1.2662465572357178
-0.523141622543335 -0.0002810060977935791 1.2005674839019775
-0.5001133680343628 0.01036723330616951 1.1437346935272217
-0.5069299936294556 -0.011244919151067734 1.2940380573272705
-0.5225293040275574 0.04548335820436478 1.2498046159744263
-0.4901200234889984 -0.09884760528802872 0.9082252979278564
-0.4876581132411957 0.02567077800631523 1.4310269355773926
-0.461056649684906 0.011256031692028046 1.3649497032165527
-0.45516693592071533 -0.012448959052562714 0.7657836675643921
-0.4634350538253784 -0.001549025997519493 0.6882609128952026
-0.46854227781295776 -0.008466601371765137 0.9084848761558533
-0.44551050662994385 -0.027420852333307266 0.6667958498001099
-0.44049787521362305 -0.036635011434555054 1.0598564147949219
-0.46600449085235596 -0.054680876433849335 0.9984495043754578
-0.4434988498687744 -0.019481204450130463 0.963356077671051
-0.4172218441963196 -0.026234140619635582 0.9997014999389648
-0.41383862495422363 -0.005978833884000778 1.007461667060852
-0.42336711287498474 -0.0355105996131897 1.0764641761779785
-0.4163307547569275 -0.036074861884117126 1.463786005973816
-0.4408970773220062 0.006358098238706589 1.5023642778396606
-0.3875466585159302 -0.00850544311106205 1.0937031507492065
-0.407511442899704 -0.0003586523234844208 1.264197826385498
-0.42440304160118103 -0.03309173509478569 1.2399694919586182
-0.36452388763427734 -0.04946300759911537 1.5569572448730469
-0.38626155257225037 -0.03788391500711441 1.4455738067626953
-0.3949733078479767 -0.010331250727176666 1.5506527423858643
-0.3709731101989746 -0.02744387835264206 1.1751155853271484
-0.3679514229297638 -0.001619681715965271 1.1975880861282349
-0.37217509746551514 -0.022903861477971077 1.1405366659164429
-0.3651198744773865 -0.012647625058889389 1.135593295097351
-0.3539433479309082 -0.0006290189921855927 1.3880051374435425
-0.33428868651390076 0.00024764612317085266 1.322737693786621
-0.2744709253311157 -0.046585358679294586 1.4789563417434692
-0.28573915362358093 -0.0028511807322502136 1.1231621503829956
-0.3116667568683624 -0.021059144288301468 1.5691156387329102
-0.20338383316993713 -0.05026652291417122 1.450956106185913
-0.24770009517669678 -0.0119276512414217 1.4528850317001343
-0.20551687479019165 -0.04416559636592865 1.3812860250473022
-0.19559581577777863 -0.009856240823864937 1.3817319869995117
-0.18986979126930237 -0.0065569691359996796 1.2893733978271484
-0.16804492473602295 -0.014517968520522118 1.248999834060669
0.1491648256778717 -0.049377620220184326 1.1734412908554077
0.13403873145580292 -0.07079426944255829 1.1820403337478638
0.15033255517482758 -0.05807271599769592 1.130436658859253
0.22411024570465088 -0.06831414252519608 1.292594075202942
0.16783282160758972 -0.08793071657419205 1.223996639251709
0.18180695176124573 -0.06309229880571365 1.23921537399292
0.21637871861457825 -0.05503416061401367 1.1768454313278198
0.22490952908992767 -0.08464556932449341 1.1546542644500732
0.20042717456817627 -0.04372049868106842 1.0854125022888184
0.20610877871513367 -0.042032383382320404 1.0539060831069946
0.19909657537937164 -0.058799583464860916 1.082768201828003
0.2102644294500351 -0.05777865648269653 1.0569219589233398
0.23994138836860657 -0.04280532896518707 1.0606915950775146
0.3248993754386902 -0.09274479001760483 1.4127973318099976
0.30575525760650635 -0.11527306586503983 1.3677438497543335
0.27780285477638245 -0.04246259108185768 1.0292571783065796
0.26149606704711914 -0.06990694254636765 1.0351197719573975
0.23916512727737427 -0.05461977422237396 1.0627912282943726
0.2643278241157532 -0.0505848228931427 1.023890733718872
0.29091522097587585 -0.04413817077875137 0.9858734011650085
0.30582195520401 -0.1082560271024704 1.276366114616394
0.3571861982345581 -0.06341552734375 1.0946862697601318
0.28452879190444946 -0.08312481641769409 1.0453788042068481
0.29338976740837097 -0.06369280070066452 1.0651646852493286
0.3760654330253601 -0.07781309634447098 1.2252910137176514
0.33618634939193726 -0.0871114581823349 1.0814082622528076
0.36170727014541626 -0.058705419301986694 1.0070654153823853
0.3578898310661316 -0.05579719692468643 1.0573596954345703
0.35186612606048584 -0.0663686990737915 1.0233988761901855
0.36514517664909363 -0.09710503369569778 1.0394054651260376
0.40706562995910645 -0.08589745312929153 1.2616649866104126
0.3903799057006836 -0.08037297427654266 1.148303508758545
0.37987059354782104 -0.10918065905570984 1.1630195379257202
0.4462759494781494 -0.13119187951087952 1.3743451833724976
0.3937673568725586 -0.06867217272520065 1.0370100736618042
0.4657087028026581 -0.0991000384092331 1.356429934501648
0.4598773121833801 -0.10177730768918991 1.2969155311584473
0.48442667722702026 -0.12723618745803833 1.332059383392334
0.43107870221138 -0.07028999924659729 0.8383485078811646
0.49144425988197327 -0.12592285871505737 1.2617073059082031
0.5099055767059326 -0.120158851146698 1.2195098400115967
0.4776810109615326 -0.08627881109714508 1.1861275434494019
0.4699839949607849 -0.1099029928445816 1.0856618881225586
0.47000062465667725 -0.07646577805280685 1.092202067375183
0.5063017010688782 -0.08587417006492615 1.1921091079711914
0.5059127807617188 -0.08299489319324493 1.1305028200149536
0.518619179725647 -0.0838417261838913 1.0665483474731445
0.5495932698249817 -0.08496005833148956 1.2102713584899902
0.5500905513763428 -0.10181134194135666 1.1801897287368774
0.4595486521720886 -0.1402139961719513 0.6727067232131958
0.457272469997406 -0.1309247761964798 0.5424357652664185
0.48077356815338135 -0.07727336883544922 0.5441818833351135
0.4576610326766968 -0.09002698957920074 0.574562132358551
0.5211038589477539 -0.09658331423997879 0.873645007610321
0.5140537023544312 -0.08686231821775436 0.8357669711112976
0.561772346496582 -0.07613161951303482 1.0560559034347534
0.5157577991485596 -0.028614595532417297 0.589655876159668
0.5154723525047302 -0.04174301028251648 0.652515709400177
0.5917889475822449 -0.07781174033880234 0.8227721452713013
0.593784749507904 -0.08182068169116974 0.7295787930488586
0.5466499924659729 -0.08341776579618454 0.7405838966369629
0.5845035314559937 -0.10191026329994202 0.7428582310676575
-0.6098240613937378 0.0037152543663978577 0.8483097553253174
-0.600290060043335 -0.015671659260988235 0.8529280424118042
-0.5812700390815735 0.05445880815386772 1.2076057195663452
-0.5777034163475037 0.06775869429111481 1.220932960510254
-0.5687516331672668 0.05340404808521271 1.167731761932373
-0.5511544942855835 0.02590058743953705 1.061934471130371
-0.5273141860961914 0.013137377798557281 1.099301815032959
-0.5605852007865906 -0.0061537884175777435 1.0151283740997314
-0.5218691229820251 0.007081437855958939 1.0142930746078491
-0.5205423831939697 -0.015889890491962433 1.1402796506881714
-0.5200339555740356 0.007295049726963043 1.3054395914077759
-0.5229207277297974 0.013647221028804779 1.2697359323501587
-0.4678560495376587 -0.01126047596335411 0.8132330179214478
-0.5224769115447998 0.005776632577180862 0.7810985445976257
-0.4922792911529541 0.0021855495870113373 0.7064627408981323
-0.49486246705055237 0.025993511080741882 1.3056796789169312
-0.5181297659873962 0.0074465274810791016 1.3517433404922485
-0.49880561232566833 -0.06338632851839066 0.8800122737884521
-0.4943491816520691 -0.07182129472494125 0.8586227893829346
-0.4930223226547241 -0.07230036705732346 0.7029487490653992
-0.49012166261672974 -0.08978977799415588 0.6524959206581116
-0.47822701930999756 -0.005599290132522583 1.004860758781433
-0.5105291604995728 0.011571753770112991 1.4512505531311035
-0.4773271679878235 -0.0069651491940021515 1.0454800128936768
-0.4644210934638977 0.0048099905252456665 0.9745938777923584
-0.48737776279449463 -0.040240056812763214 1.0686817169189453
-0.4875750243663788 -0.04300715774297714 1.0458667278289795
-0.4445026218891144 -0.004696216434240341 1.0544373989105225
-0.4756796360015869 -0.029992328956723213 1.1544345617294312
-0.45243144035339355 -0.013198509812355042 0.9235687255859375
-0.44939446449279785 -0.021385639905929565 0.8578431606292725
-0.4820210933685303 0.013098940253257751 1.236071228981018
-0.44348177313804626 -0.003912001848220825 1.1668871641159058
-0.4553757309913635 -0.02979443036019802 1.1273114681243896
-0.45138299465179443 -0.009801093488931656 1.492142915725708
-0.47317084670066833 -0.0289978738874197 1.3041231632232666
-0.4191088378429413 -0.03488180786371231 1.2000732421875
-0.42021191120147705 -0.03073335811495781 1.5402076244354248
-0.3860136866569519 0.0041993893682956696 1.4424504041671753
-0.4215565323829651 -0.02826877310872078 1.3311182260513306
-0.37715479731559753 -0.009120013564825058 1.1364773511886597
-0.39708080887794495 -0.031234033405780792 1.1469085216522217
-0.40518918633461 0.0023935511708259583 1.3348289728164673
-0.3855147063732147 0.003214515745639801 1.2666898965835571
-0.3183925747871399 -0.00951419398188591 1.4934314489364624
-0.3468140661716461 -0.031666286289691925 1.3184239864349365
-0.3195146322250366 -0.03538388013839722 1.2293617725372314
-0.3071712851524353 -0.006066426634788513 1.2286655902862549
-0.31126055121421814 -0.00807948037981987 1.1648468971252441
-0.2717393636703491 -0.03859192132949829 1.2547065019607544
-0.28497612476348877 -0.0023384708911180496 1.1710989475250244
-0.3097732663154602 -0.004607342183589935 1.4070364236831665
-0.2749405801296234 -0.03439253568649292 1.3611429929733276
-0.2414712756872177 -0.0065398383885622025 1.1567541360855103
-0.21669168770313263 -0.005696114152669907 1.177802562713623
-0.1688469648361206 -0.02295919694006443 1.4523508548736572
-0.19787009060382843 -0.039230845868587494 1.2917630672454834
0.1729666143655777 -0.06590566039085388 1.1026839017868042
0.21410050988197327 -0.07623229175806046 1.38246750831604
0.24583402276039124 -0.04677652195096016 1.1294466257095337
0.23476232588291168 -0.06935019791126251 1.1152360439300537
0.21950379014015198 -0.03666786104440689 1.0677443742752075
0.31112080812454224 -0.07393499463796616 1.2130159139633179
0.2937372326850891 -0.09094539284706116 1.1280766725540161
0.30170881748199463 -0.03734612464904785 0.9915291666984558
0.4046664237976074 -0.09187185764312744 1.334716558456421
0.36227208375930786 -0.09833449870347977 1.0678843259811401
0.4759202301502228 -0.09608352184295654 1.2571243047714233
0.4289170503616333 -0.06127264350652695 0.7539190053939819
0.4410926103591919 -0.04755622148513794 0.7372691035270691
0.42162275314331055 -0.04060793295502663 0.6329903602600098
0.4139835238456726 -0.029547713696956635 0.5657462477684021
0.41187670826911926 -0.04932499676942825 0.575914740562439
0.4854412376880646 -0.07299637049436569 1.010811686515808
0.43873661756515503 -0.02950264886021614 0.6401659846305847
0.4264184534549713 -0.02062331698834896 0.5700166821479797
0.44698578119277954 -0.111766017973423 0.7936159372329712
0.45709219574928284 -0.1317337602376938 0.8370986580848694
0.43965744972229004 -0.1421307921409607 0.806835949420929
0.4479970335960388 -0.11374717205762863 0.7451044917106628
0.47290727496147156 -0.03507126495242119 0.6592406034469604
0.4630994498729706 -0.0338115468621254 0.5818934440612793
0.49832847714424133 -0.06777413934469223 0.8087100982666016
0.4645073115825653 -0.1113111823797226 0.7857709527015686
0.483082115650177 -0.11592402309179306 0.7307421565055847
0.46660900115966797 -0.1313602179288864 0.7875232100486755
0.46997320652008057 -0.14425456523895264 0.715645432472229
0.48446351289749146 -0.10869485139846802 0.8566309213638306
0.5162413120269775 -0.10284941643476486 0.8017886877059937
0.4796075224876404 -0.09506762027740479 0.5787878632545471
0.4553481340408325 -0.11350728571414948 0.5215921401977539
0.4864264726638794 -0.04735206812620163 0.5417754650115967
0.525478184223175 -0.0774916559457779 0.8783409595489502
0.4937974214553833 -0.0639377236366272 0.6785469055175781
0.48122692108154297 -0.12576065957546234 0.636236846446991
0.5004563927650452 -0.11397593468427658 0.6312379837036133
0.5070658326148987 -0.08773056417703629 0.558281421661377
0.5638688802719116 -0.06984314322471619 0.8090025186538696
0.5760924220085144 -0.06628801673650742 0.7757647037506104
0.5495090484619141 -0.06725870072841644 0.6114668846130371
0.5504634976387024 -0.08406147360801697 0.6299782991409302
0.5450536608695984 -0.07548820972442627 0.9720829129219055
0.6208431720733643 -0.05503241717815399 0.9223827719688416
0.5871744751930237 -0.07321175932884216 0.9154448509216309
0.6272159814834595 -0.08016157150268555 1.0960440635681152
0.6135830879211426 -0.07243581116199493 1.0563420057296753
0.6065183281898499 -0.06771575659513474 1.0529958009719849
0.6092123985290527 -0.08242251724004745 1.0359545946121216
0.6257187128067017 -0.06328482925891876 0.9755614399909973
0.6211563348770142 -0.07287582755088806 0.9922771453857422
-0.5963056087493896 0.04434124752879143 1.016413688659668
-0.589619517326355 0.021799661219120026 1.0238717794418335
-0.5936458706855774 0.0005136542022228241 0.9911604523658752
-0.5069080591201782 -0.04512685909867287 0.6846325993537903
-0.5105423331260681 -0.08734209090471268 0.6435536742210388
-0.492896169424057 -0.06720629334449768 0.8583627939224243
-0.516168475151062 -0.06835009902715683 0.8097268342971802
-0.5052649974822998 -0.10295934230089188 0.8379240036010742
-0.5225152969360352 -0.08843132108449936 0.7400311231613159
-0.4920860528945923 -0.07437868416309357 0.7460588216781616
-0.49125608801841736 -0.09834596514701843 0.7076134085655212
-0.49146273732185364 -0.05524420365691185 0.994253396987915
-0.48542582988739014 -0.07772722095251083 0.9431896209716797
-0.4975394904613495 -0.059338413178920746 0.9507699012756348
-0.49056124687194824 -0.09999828040599823 0.7721239328384399
-0.48633521795272827 -0.074445441365242 0.7794150710105896
-0.4855632781982422 -0.09356863796710968 0.866053581237793
-0.4950055778026581 -0.06885240972042084 0.8288354873657227
-0.4787099361419678 0.0076791830360889435 1.1435658931732178
-0.4374139904975891 -0.007029816508293152 0.9820933938026428
-0.3944407105445862 -0.0255535077303648 1.0062906742095947
-0.3956368565559387 -0.005339901894330978 1.007400393486023
-0.42194676399230957 -0.036452822387218475 1.1487960815429688
-0.3850627839565277 -0.022455958649516106 1.089532732963562
-0.3898003101348877 -0.003871031105518341 1.0373358726501465
-0.38872164487838745 -0.021337900310754776 1.0249717235565186
-0.32089823484420776 -0.03557612746953964 1.3667105436325073
-0.3419901430606842 -0.00601707398891449 1.116023063659668
-0.3148738741874695 -0.03561919182538986 1.1474930047988892
-0.3117172122001648 -0.00011255405843257904 1.1148631572723389
-0.24720589816570282 -0.02164364606142044 1.1470773220062256
-0.27135002613067627 -0.003999777138233185 1.1250971555709839
-0.19559642672538757 -0.01659477688372135 1.203068733215332
0.37679266929626465 -0.05603671073913574 0.9589252471923828
0.5091936588287354 -0.1267637014389038 1.4035062789916992
0.4490823447704315 -0.06437982618808746 0.9093517661094666
0.3890816271305084 -0.043925222009420395 0.903457760810852
0.41608503460884094 -0.07549694180488586 0.8890550136566162
0.4192355275154114 -0.06035429239273071 0.884584367275238
0.446699321269989 -0.08126818388700485 1.075974464416504
0.43823277950286865 -0.10740917176008224 0.8990297913551331
0.4437529146671295 -0.10642556846141815 0.8448540568351746
0.43879514932632446 -0.13380014896392822 0.8610634803771973
0.43684738874435425 -0.12562017142772675 0.834617555141449
0.43798595666885376 -0.10284093022346497 0.7885397672653198
0.4286315441131592 -0.07483290880918503 0.6040880680084229
0.42971667647361755 -0.06794381141662598 0.5583828687667847
0.4543241858482361 -0.05734426528215408 0.5454589128494263
0.4793820083141327 -0.0794946551322937 0.8816870450973511
0.48197078704833984 -0.07150379568338394 0.8483797907829285
0.4719911515712738 -0.11885838955640793 0.8120625615119934
0.45390579104423523 -0.11906368285417557 0.776262640953064
0.4435337781906128 -0.1411432921886444 0.7403027415275574
0.5184832811355591 -0.12120665609836578 1.1660597324371338
0.5265898704528809 -0.07840032875537872 0.8087456226348877
0.5428013205528259 -0.0780966728925705 0.7625596523284912
0.5489794611930847 -0.0965564101934433 0.9246930480003357
0.5417219996452332 -0.09876328706741333 0.589729368686676
0.528041422367096 -0.06160351634025574 0.5680770874023438
0.549748420715332 -0.09710215032100677 0.7848163843154907
0.5465966463088989 -0.09891754388809204 0.7349595427513123
0.6562650799751282 -0.07406482845544815 0.9027514457702637
0.6089169383049011 -0.10519975423812866 0.8617491722106934
0.6204193830490112 -0.08356063812971115 0.8607445359230042
0.6100994348526001 -0.08735866099596024 0.7329839468002319
0.6092696189880371 -0.07893197238445282 0.7490178346633911
-0.578524649143219 0.0533103346824646 1.1738338470458984
-0.5408806800842285 -0.023120786994695663 0.6471826434135437
-0.5231463313102722 -0.04507870227098465 0.9445874094963074
-0.5133157968521118 -0.06336459517478943 0.9117809534072876
-0.5281476974487305 -0.021953798830509186 0.9955900311470032
-0.4793192446231842 -0.004659857600927353 1.4283325672149658
-0.5017564296722412 0.007876962423324585 1.0312024354934692
-0.49883177876472473 -0.004676997661590576 0.9970511198043823
-0.4762027859687805 -0.04566037654876709 0.6596534252166748
-0.46461546421051025 -0.017765184864401817 0.6605749726295471
-0.4731730818748474 -0.061802301555871964 0.9456262588500977
-0.47712841629981995 -0.07228860259056091 0.8935288786888123
-0.47275298833847046 -0.07949227839708328 0.9302345514297485
-0.4731670320034027 -0.01964215189218521 1.3794658184051514
-0.4646579623222351 0.007368165999650955 1.2790733575820923
-0.24952557682991028 0.000291530042886734 1.2233803272247314
0.12073478102684021 -0.06171762943267822 1.2202425003051758
0.11115973442792892 -0.07619485259056091 1.2256314754486084
0.192135289311409 -0.07862399518489838 1.1318472623825073
0.17125000059604645 -0.04766721650958061 1.0753353834152222
0.2789856791496277 -0.06191924586892128 1.1565661430358887
0.3087173104286194 -0.05527441203594208 1.029790997505188
0.29802238941192627 -0.06537802517414093 1.0143558979034424
0.4142332673072815 -0.10442839562892914 1.1240248680114746
0.46439772844314575 -0.12345296144485474 1.1883904933929443
0.43622589111328125 -0.10212322324514389 1.0174560546875
0.43494582176208496 -0.13530275225639343 0.7476177215576172
0.4547981917858124 -0.11392392218112946 0.703809916973114
0.4432010054588318 -0.12994132936000824 0.6577022075653076
0.4463055729866028 -0.10408838093280792 0.6150751709938049
0.5028319954872131 -0.10179365426301956 0.9341390132904053
0.4709054231643677 -0.12456114590167999 0.5386041402816772
-0.577703595161438 0.0075813159346580505 1.0114240646362305
-0.4519174098968506 -0.03962289169430733 0.8054592609405518
-0.44885385036468506 -0.04271190986037254 0.7534823417663574
-0.4573899805545807 -0.016606923192739487 1.5243561267852783
-0.3412242531776428 -0.008776690810918808 1.1027196645736694
-0.33617857098579407 -0.005857411772012711 1.0737465620040894
-0.31052103638648987 -0.013878878206014633 1.094619870185852
-0.2524605393409729 -0.002506272867321968 1.1291685104370117
-0.144891619682312 -0.027875486761331558 1.2692680358886719
-0.1478838324546814 -0.04746464639902115 1.267504096031189
0.3917400538921356 -0.1168370246887207 1.2598196268081665
0.4385344982147217 -0.1259237825870514 1.2950955629348755
0.4813115894794464 -0.07560477405786514 0.9106641411781311
0.4572468400001526 -0.05960829183459282 0.8464439511299133
0.46894940733909607 -0.11115927994251251 1.0077672004699707
0.4330557882785797 -0.09583479166030884 0.7366219162940979
0.5294251441955566 -0.10097004473209381 0.9704189300537109
0.5377087593078613 -0.1016501858830452 1.0551831722259521
0.5868520736694336 -0.09291817247867584 0.8932853937149048
0.5738431215286255 -0.0948653370141983 0.833162784576416
0.5519494414329529 -0.10332897305488586 0.673719584941864
0.48807138204574585 -0.10798285901546478 0.5975635647773743
0.5586673021316528 -0.0811830684542656 0.6679344773292542
-0.5265104174613953 -0.04958394542336464 0.6597870588302612
-0.4911290407180786 -0.02431182749569416 0.6557780504226685
-0.49673521518707275 -0.06782840937376022 0.8531348705291748
-0.49911367893218994 -0.06373275816440582 0.7097048759460449
-0.46714094281196594 -0.058071963489055634 0.6961308121681213
-0.4432004690170288 -0.03455565869808197 0.9993312954902649
-0.2614617347717285 -0.029541702941060066 1.2281414270401
-0.2668260633945465 -0.021177465096116066 1.1758720874786377
-0.2779361307621002 -0.009922299534082413 1.1524159908294678
-0.22593173384666443 -0.03399389982223511 1.2160272598266602
-0.22090637683868408 -0.033686283975839615 1.1487144231796265
-0.22365134954452515 -0.015924980863928795 1.1405150890350342
0.17486366629600525 -0.03295215964317322 1.083986520767212
0.4282724857330322 -0.09734154492616653 0.9487941861152649
0.46904271841049194 -0.11730661243200302 0.9344950914382935
0.4709376096725464 -0.12097269296646118 0.8896782398223877
0.5336005687713623 -0.11320739984512329 0.7214016914367676
-0.5595093369483948 -0.021169446408748627 0.7482866048812866
-0.5595986247062683 -0.03952306509017944 0.7108676433563232
-0.5573613047599792 -0.027796175330877304 0.7071409821510315
-0.5120859146118164 0.0025103650987148285 0.9197977185249329
-0.47390955686569214 -0.05516430735588074 0.8677446842193604
-0.4683525562286377 -0.06688262522220612 0.9112806916236877
-0.1848313808441162 -0.03500794991850853 1.2307801246643066
-0.11551662534475327 -0.047853194177150726 1.3453288078308105
-0.10717067867517471 -0.038672175258398056 1.336158037185669
0.11834187805652618 -0.0873018205165863 1.2330236434936523
0.314333438873291 -0.13484147191047668 1.5286632776260376
0.45274364948272705 -0.11081861704587936 1.4428850412368774
0.48422396183013916 -0.13053643703460693 1.4466575384140015
0.5112974047660828 -0.11954964697360992 1.3717358112335205
0.5886901021003723 -0.08753292262554169 1.1236023902893066
0.6236826777458191 -0.08571463078260422 1.1519432067871094
0.6011307239532471 -0.06019657477736473 1.1039538383483887
0.6073867678642273 -0.08036889135837555 1.0819833278656006
0.6347445249557495 -0.06679938733577728 1.0982894897460938
-0.5957570672035217 0.047886840999126434 1.1098374128341675
-0.5865170955657959 0.06081780791282654 1.0969274044036865
-0.5566492676734924 0.04976293072104454 1.3392252922058105
-0.542701005935669 0.051100924611091614 1.3199454545974731
-0.5220339298248291 0.004106372594833374 0.693352460861206
-0.5200852751731873 -0.003249380737543106 0.6519308090209961
-0.5154070854187012 -0.07027901709079742 0.7497668862342834
-0.5117529034614563 -0.004452697932720184 0.872514545917511
-0.4939154386520386 0.01120532676577568 1.0771048069000244
-0.43871548771858215 -0.01721172407269478 1.565574288368225
0.1944691240787506 -0.05344443768262863 1.1410614252090454
0.30032527446746826 -0.08156482875347137 1.3329278230667114
0.3349422812461853 -0.06128234416246414 1.0351552963256836
0.354457825422287 -0.0675664097070694 1.1590213775634766
0.3667988181114197 -0.06315562129020691 0.9587934017181396
0.37867075204849243 -0.06441959738731384 0.9078603386878967
0.39278796315193176 -0.09666095674037933 0.9768378138542175
0.4318790137767792 -0.06717399507761002 0.7031189799308777
0.4396357834339142 -0.07481559365987778 0.6903707981109619
0.474107563495636 -0.12325022369623184 0.7349165678024292
0.5651827454566956 -0.08013997226953506 0.8984386920928955
0.5411535501480103 -0.055868372321128845 0.6957448124885559
-0.5426765084266663 -0.037983525544404984 0.6747912168502808
-0.5170155167579651 -0.0287907887250185 0.6343411207199097
-0.3243846893310547 0.007978338748216629 1.0770533084869385
-0.2569807171821594 0.004765812307596207 1.1505088806152344
-0.20674251019954681 -0.026912743225693703 1.189692497253418
0.5225075483322144 -0.06021683290600777 0.7306982278823853
0.5022376775741577 -0.05933069437742233 0.5133071541786194
0.514552891254425 -0.06523695588111877 0.5247642397880554
-0.5083725452423096 -0.06668758392333984 0.8901388645172119
-0.46795719861984253 -0.04406528174877167 0.8190577626228333
-0.4686335027217865 -0.05972400680184364 0.7743597030639648
0.5198359489440918 -0.11108827590942383 1.2945302724838257
0.5145629048347473 -0.04088693857192993 0.5225429534912109
0.5973504185676575 -0.0939059853553772 0.7954866290092468
-0.24237020313739777 -0.0047047995030879974 1.2989013195037842
0.5963011980056763 -0.08684294670820236 0.8846607208251953
-0.4491990804672241 -0.03199619799852371 0.890832781791687
0.4434376358985901 -0.11674553900957108 0.5588557720184326
0.5833935737609863 -0.08254296332597733 0.8745744228363037
-0.511343240737915 -0.08575762808322906 0.8548017740249634
-0.3338549733161926 -0.0354062058031559 0.899600625038147
-0.3406057059764862 -0.03392767906188965 0.9109517931938171
-0.3301370143890381 -0.06455372273921967 0.9034026861190796
-0.34145304560661316 -0.06294772773981094 0.9112208485603333
-0.3077079653739929 -0.042255740612745285 0.9766743779182434
-0.31578904390335083 -0.04684082791209221 0.9518432021141052
-0.2977760434150696 -0.024063460528850555 0.9295830726623535
-0.289289653301239 -0.011689011938869953 0.9708315134048462
-0.31186017394065857 -0.07053287327289581 0.9513746500015259
-0.32284921407699585 -0.09460804611444473 0.9311866164207458
-0.2841951549053192 -0.0389203205704689 1.0456533432006836
-0.30265045166015625 -0.09882941842079163 0.936637282371521
-0.3052947521209717 -0.05778534710407257 0.9472264051437378
-0.3045881688594818 -0.09787503629922867 0.9762752652168274
-0.2941570281982422 -0.06779909133911133 0.9794174432754517
-0.26458966732025146 -0.016462737694382668 1.0273058414459229
-0.2851560115814209 -0.05782187730073929 0.9819602966308594
-0.29017794132232666 -0.07899686694145203 1.0020005702972412
-0.28976970911026 -0.06500709801912308 1.0361828804016113
-0.29448944330215454 -0.03509162738919258 1.0803358554840088
-0.30671513080596924 -0.08930367976427078 1.0569732189178467
-0.2423943728208542 0.0008552558720111847 1.1265883445739746
-0.24744077026844025 0.00835566595196724 1.0840147733688354
-0.2887658178806305 -0.053702253848314285 1.1110804080963135
-0.21349188685417175 0.009358461946249008 1.0801990032196045
-0.24315842986106873 -0.06744275987148285 1.171173334121704
-0.2791447341442108 -0.11308556795120239 1.1085405349731445
-0.2104295790195465 0.012215717695653439 1.1255086660385132
-0.18149763345718384 -0.007359689567238092 1.1401145458221436
-0.1896108239889145 -0.024620559066534042 1.1939483880996704
-0.16364619135856628 -0.02653437666594982 1.2003569602966309
-0.18483486771583557 -0.1167246550321579 1.247331142425537
-0.23611652851104736 -0.11830642819404602 1.1661710739135742
-0.16185811161994934 -0.04466850310564041 1.2430191040039062
-0.19811004400253296 -0.07151186466217041 1.2321138381958008
-0.15924885869026184 -0.062143873423337936 1.2789194583892822
-0.15013130009174347 -0.07888561487197876 1.3155860900878906
-0.15124914050102234 -0.12821064889431 1.3081352710723877
-0.1857987493276596 -0.14622263610363007 1.1966336965560913
-0.11859574168920517 -0.09196591377258301 1.7004890441894531
-0.09084520488977432 0.0037559829652309418 1.4233165979385376
-0.13220913708209991 0.06407986581325531 0.8455041646957397
-0.1764100193977356 0.012953820638358593 0.8379536867141724
-0.14826752245426178 -0.0823996365070343 0.8466963768005371
-0.1903320848941803 -0.1106351912021637 0.8326461315155029
-0.10853489488363266 -0.06687285006046295 1.6177639961242676
-0.12338887155056 -0.10703738033771515 1.719469428062439
-0.0957469567656517 -0.09314677119255066 1.6735529899597168
-0.08058357238769531 -0.05654727667570114 1.6355528831481934
-0.09475743770599365 -0.06943678110837936 1.5837637186050415
-0.11910685896873474 -0.014021910727024078 1.0392160415649414
-0.16165608167648315 -0.05514797195792198 0.9908545017242432
-0.16897675395011902 -0.12089033424854279 0.9714982509613037
-0.09973669052124023 -0.08070531487464905 1.519263744354248
-0.16803361475467682 -0.09051661938428879 -0.003243744373321533
-0.1741509884595871 -0.17097988724708557 -0.006672385148704052
-0.17808859050273895 -0.18641602993011475 0.02271437458693981
-0.11711426824331284 -0.1275297850370407 1.3627054691314697
-0.10797368735074997 -0.07540085911750793 1.3287352323532104
-0.10477443784475327 -0.09471207857131958 1.303223967552185
-0.12815015017986298 -0.13792245090007782 1.3464961051940918
-0.11541697382926941 -0.1662505567073822 1.2941488027572632
-0.1402842104434967 -0.06636565923690796 0.43182411789894104
-0.1340712159872055 -0.09232912212610245 0.3453257977962494
-0.14344444870948792 -0.03997756540775299 0.2855377495288849
-0.1501651406288147 -0.06802573800086975 0.31181782484054565
-0.09227916598320007 -0.08100631088018417 1.645621418952942
-0.11032824218273163 -0.1271909773349762 1.2630505561828613
-0.11980172991752625 -0.1234404444694519 1.225440502166748
-0.11907114088535309 -0.15660890936851501 1.2431977987289429
-0.1438370794057846 -0.17167755961418152 1.2342197895050049
-0.13174647092819214 -0.02898333966732025 0.21392033994197845
-0.09985094517469406 -0.14227543771266937 1.5020592212677002
-0.0870073214173317 -0.0746639221906662 1.5199530124664307
-0.09510131180286407 -0.10456971824169159 1.5077048540115356
-0.11870510876178741 -0.10362004488706589 0.5323259830474854
-0.04011669009923935 -0.10563398897647858 1.7266765832901
-0.11399812996387482 -0.15823163092136383 1.1842371225357056
-0.11044546961784363 -0.0753265917301178 1.1598005294799805
-0.09504714608192444 -0.14691239595413208 0.719494104385376
-0.043773554265499115 -0.05398470163345337 1.6921675205230713
-0.09481492638587952 -0.15792900323867798 1.3652617931365967
-0.09050817787647247 -0.12573927640914917 0.8346595764160156
-0.13407281041145325 -0.13468068838119507 0.853088915348053
-0.12417859584093094 -0.19866862893104553 0.9030954837799072
-0.10223566740751266 -0.21593809127807617 0.8444619178771973
-0.15054118633270264 -0.21144750714302063 0.058728814125061035
-0.009044291451573372 -0.03641608729958534 1.6935386657714844
-0.03481627255678177 -0.09432563930749893 1.7136132717132568
-0.10645999014377594 -0.11457206308841705 1.4220786094665527
-0.0856308713555336 -0.14115813374519348 1.4611179828643799
-0.10898368805646896 -0.018434960395097733 0.28370267152786255
-0.1242767870426178 -0.031551383435726166 0.1718026101589203
-0.1462460458278656 -0.19243866205215454 0.0924944281578064
-0.12027175724506378 0.0018707923591136932 -0.0042596012353897095
-0.08049619197845459 -0.09163940697908401 1.31003999710083
-0.09682948887348175 -0.1294676959514618 0.507357656955719
-0.10313953459262848 -0.19421494007110596 -0.012878465466201305
-0.1435217261314392 -0.2019628882408142 -0.018420618027448654
-0.0515439435839653 -0.08264407515525818 1.5312436819076538
-0.060209110379219055 -0.10777479410171509 1.4856889247894287
-0.03151552751660347 -0.2166314721107483 0.906295657157898
-0.08281037956476212 0.08739785850048065 0.8555994033813477
-0.1275968849658966 -0.14484074711799622 0.2188972532749176
-0.09967370331287384 -0.127376526594162 0.13916395604610443
-0.10093654692173004 -0.0015964694321155548 0.05112996697425842
-0.07129214704036713 -0.08125746250152588 1.282182216644287
-0.08418882638216019 -0.09080198407173157 1.2407877445220947
-0.05549134314060211 -0.20243878662586212 1.2684719562530518
-0.08901836723089218 -0.053783345967531204 0.6319370269775391
-0.0754624754190445 -0.14921492338180542 0.7155482172966003
-0.05175051838159561 -0.12883701920509338 0.8020551204681396
-0.0870828628540039 -0.12593334913253784 0.10580898821353912
-0.09554346650838852 -0.19356074929237366 0.060526832938194275
-0.08020897209644318 -0.1874879002571106 1.448061227798462
-0.061659056693315506 -0.08918117731809616 1.3437697887420654
-0.04089713469147682 -0.07852756232023239 1.2894032001495361
-0.0671173557639122 -0.13079515099525452 0.5321214199066162
-0.047668974846601486 -0.11127553135156631 0.5341269373893738
-0.08218265324831009 -0.014556233771145344 0.47386404871940613
-0.05973246693611145 -0.1727190613746643 1.4202861785888672
-0.03543366119265556 -0.13334710896015167 1.4065780639648438
-0.06495694071054459 -0.08433827757835388 1.3874058723449707
-0.055536266416311264 -0.051419228315353394 0.4820854663848877
0.007054110988974571 -0.0816153734922409 1.7202043533325195
-0.06762538850307465 -0.23807424306869507 1.565117597579956
-0.03768955543637276 -0.19123953580856323 0.9721776247024536
-0.03734343498945236 -0.1442243456840515 1.4200255870819092
-0.02205166406929493 -0.17105945944786072 1.4004011154174805
-0.04117261990904808 -0.15481264889240265 1.3931478261947632
-0.021315699443221092 -0.22853192687034607 1.5019363164901733
-0.060273606330156326 -0.2166733592748642 1.455324411392212
-0.011440150439739227 -0.11764231324195862 1.4363986253738403
-0.04286446422338486 -0.07067257910966873 0.6111027002334595
0.04734792560338974 -0.12397727370262146 1.7275155782699585
0.031312085688114166 -0.020072711631655693 1.6701316833496094
-0.016054708510637283 -0.2398172914981842 1.451224446296692
-0.032156217843294144 -0.2145984172821045 1.4114247560501099
-0.000655490905046463 -0.1223318949341774 1.4091793298721313
-0.008330387994647026 -0.21975813806056976 1.4119871854782104
0.027869589626789093 -0.10160113871097565 1.3913122415542603
-0.005678549408912659 -0.0878213495016098 1.278672456741333
0.05065404623746872 -0.07170766592025757 1.7167277336120605
0.022702809423208237 -0.12753932178020477 1.4362152814865112
0.011803915724158287 -0.1710818111896515 1.4157605171203613
0.07806045562028885 -0.05349256470799446 1.6841589212417603
0.058217890560626984 -0.11210668087005615 1.7124069929122925
0.008873267099261284 -0.16585968434810638 1.4039571285247803
0.05144130438566208 -0.19037242233753204 1.4350053071975708
0.020835965871810913 -0.1458815336227417 1.4124295711517334
0.0326227992773056 -0.09300003945827484 0.5579290986061096
0.056739699095487595 -0.10293623805046082 1.470951795578003
0.06243307143449783 -0.12111852318048477 0.4727797508239746
0.0005752239376306534 -0.23695342242717743 1.2231796979904175
0.059044331312179565 -0.11810071021318436 1.244630217552185
0.04976441711187363 -0.10503467917442322 1.1403955221176147
0.08072652667760849 -0.2572516202926636 0.05461331829428673
0.1076669842004776 -0.2684536874294281 0.02664366364479065
0.07749391347169876 -0.06927348673343658 -0.0006214994937181473
0.013865436427295208 -0.21804454922676086 1.2154821157455444
0.003812745213508606 -0.22666501998901367 1.1355699300765991
0.03670699521899223 -0.14216214418411255 0.6986181735992432
0.0702795535326004 -0.15660232305526733 -0.02986668050289154
0.10066099464893341 -0.11281435936689377 1.671895980834961
0.048291079699993134 -0.2430216670036316 1.5650761127471924
0.040148161351680756 -0.21988621354103088 1.4911935329437256
0.03611886501312256 -0.21867620944976807 1.4485009908676147
0.08370545506477356 -0.15949687361717224 0.8477741479873657
0.14972946047782898 -0.12377788871526718 1.694629192352295
0.06639187037944794 -0.10798085480928421 1.515342354774475
0.06142178177833557 -0.12510699033737183 1.4859133958816528
0.08227252960205078 -0.05498092249035835 0.27790915966033936
0.0757368877530098 -0.048303212970495224 0.21491095423698425
0.09427312761545181 -0.06978350877761841 -0.02777758240699768
0.10018867999315262 -0.13691233098506927 1.7470974922180176
0.08405786007642746 -0.12988539040088654 1.3796533346176147
0.08834782987833023 -0.21858736872673035 0.8404659032821655
0.06730902940034866 -0.13153405487537384 0.8304727077484131
0.11470159143209457 -0.19395731389522552 0.8296535015106201
0.0680965781211853 -0.04087229073047638 0.7195514440536499
0.12869012355804443 -0.2671399712562561 0.04398461431264877
0.11282621324062347 -0.12301652133464813 1.6808629035949707
0.034932415932416916 -0.19182053208351135 1.1134252548217773
0.03708387911319733 -0.22621171176433563 1.2319934368133545
0.035493411123752594 -0.24524930119514465 1.226880669593811
0.12992358207702637 -0.1919061243534088 0.8989605903625488
0.0859690010547638 -0.17744243144989014 1.5151171684265137
0.094972163438797 -0.10498657077550888 1.5271615982055664
0.09092661738395691 -0.12840202450752258 1.5087224245071411
0.0950637087225914 -0.14202925562858582 1.5028109550476074
0.09868504106998444 -0.15426787734031677 1.4781687259674072
0.09821004420518875 -0.06824583560228348 0.6134390830993652
0.09484148025512695 -0.13483336567878723 0.6319989562034607
0.08640230447053909 -0.1928386092185974 1.3544362783432007
0.09537385404109955 -0.1503026932477951 1.3039687871932983
0.06406804919242859 -0.14350298047065735 1.3275325298309326
0.06600366532802582 -0.15311700105667114 1.2998464107513428
0.09821750223636627 -0.11982859671115875 0.7948419451713562
0.13836920261383057 -0.11196810007095337 -0.02423745021224022
0.15087862312793732 -0.1509668081998825 -0.02374584786593914
0.1155017763376236 -0.12612241506576538 1.6373313665390015
0.10443242639303207 -0.13975396752357483 1.3509738445281982
0.14269602298736572 -0.10712240636348724 0.26273417472839355
0.13921591639518738 -0.10636140406131744 1.6170141696929932
0.11746107041835785 -0.08276045322418213 1.6269179582595825
0.12415316700935364 -0.10526293516159058 1.5878572463989258
0.15213610231876373 -0.1353893131017685 0.06720411777496338
0.1570371836423874 -0.23252764344215393 0.0230790376663208
0.13153508305549622 -0.2469550520181656 0.07219789177179337
0.16630055010318756 -0.0198705792427063 0.9336262941360474
0.1364254206418991 -0.01742030680179596 0.8275457620620728
0.14713704586029053 -0.13875585794448853 1.6877250671386719
0.15970319509506226 0.035393308848142624 0.8344764113426208
0.1847645342350006 -0.003043655538931489 0.8916813731193542
0.11718638241291046 -0.16822445392608643 1.2912986278533936
0.11897686123847961 -0.1989017128944397 1.2718126773834229
0.09167122840881348 -0.20118403434753418 1.3256995677947998
0.11544419825077057 -0.1852678656578064 1.233382225036621
0.10069295018911362 -0.18489813804626465 1.2152645587921143
0.10035355389118195 -0.27008000016212463 1.1958385705947876
0.12253943830728531 -0.22659173607826233 1.2277805805206299
0.12335313111543655 -0.20247553288936615 1.1580660343170166
0.1149873435497284 -0.20554709434509277 1.0775463581085205
0.14223416149616241 -0.21229684352874756 1.0849002599716187
0.14831116795539856 -0.22827917337417603 1.1376781463623047
0.13256484270095825 -0.2647550106048584 1.162814974784851
0.13714127242565155 -0.23218931257724762 1.0331872701644897
0.17719325423240662 -0.28377819061279297 1.078366756439209
0.17547880113124847 -0.26303631067276 1.0585969686508179
0.15836851298809052 -0.24197819828987122 1.0355873107910156
0.14282162487506866 -0.3254106044769287 1.0709258317947388
0.15159524977207184 -0.2923550605773926 1.039350986480713
0.14684726297855377 -0.2734825611114502 1.0254366397857666
0.1864887773990631 -0.32870641350746155 0.9298876523971558
0.13632725179195404 -0.310147762298584 1.0393214225769043
0.138619065284729 -0.3260035514831543 1.013175368309021
0.16737785935401917 -0.292604923248291 0.9590660929679871
0.137530118227005 -0.3111935257911682 0.9898702502250671
0.138220876455307 -0.33669960498809814 0.9905287623405457
0.1562255620956421 -0.3255707621574402 0.9629397392272949
0.17150622606277466 -0.32494205236434937 0.958392858505249
0.13992652297019958 -0.3527121841907501 0.9668199419975281
0.15593858063220978 -0.3409190773963928 0.9584895968437195
0.1482176035642624 -0.34535324573516846 0.9661940336227417
0.18239644169807434 -0.33254873752593994 0.911704957485199
0.15386739373207092 -0.35780930519104004 0.9535319805145264
0.16551180183887482 -0.3229852318763733 0.927673876285553
0.1739794909954071 -0.35179460048675537 0.9235070943832397
0.18592306971549988 -0.3440527319908142 0.9268027544021606
-0.26477813720703125 -0.017362670972943306 1.0507943630218506
-0.2752930223941803 -0.07494357228279114 1.021971583366394
-0.2533645033836365 -0.057498618960380554 1.026512861251831
-0.2913418114185333 -0.10765104740858078 1.0460551977157593
-0.20629069209098816 -0.023751772940158844 1.057926893234253
-0.2635059356689453 -0.10914341360330582 1.0367413759231567
-0.1504497230052948 -0.06353769451379776 1.2192260026931763
-0.16812071204185486 -0.11533463001251221 1.1766672134399414
-0.1837456226348877 -0.09669332206249237 0.9398456811904907
-0.18817807734012604 -0.014760809019207954 0.9101748466491699
-0.13638469576835632 0.05134870857000351 0.9110453724861145
-0.07110857218503952 0.06193319708108902 1.3155031204223633
-0.07234833389520645 0.06967367231845856 1.263373851776123
-0.07016240060329437 0.09660590440034866 1.2458298206329346
-0.16453789174556732 -0.010379335843026638 0.943406343460083
-0.1312214881181717 -0.10742993652820587 1.6893868446350098
-0.11550214141607285 -0.09099894762039185 1.3434977531433105
-0.13256672024726868 -0.06999672204256058 1.2776306867599487
-0.015691328793764114 0.11238264292478561 1.1588859558105469
-0.04321994632482529 0.1255398988723755 1.0912972688674927
-0.1747869998216629 -0.08101718872785568 0.06185567378997803
-0.18343140184879303 -0.15775983035564423 0.0388638898730278
-0.10899224877357483 -0.11601321399211884 1.6716498136520386
-0.09899689257144928 -0.09859727323055267 1.6225917339324951
-0.1331862509250641 -0.1859104037284851 1.2077116966247559
-0.13333941996097565 -0.19447988271713257 1.179203748703003
-0.14046171307563782 -0.21358954906463623 1.1683913469314575
-0.06779452413320541 0.011015718802809715 1.4046183824539185
-0.05803317949175835 0.0065272171050310135 1.4004528522491455
-0.11545447260141373 -0.19210819900035858 1.2246007919311523
-0.13055190443992615 -0.1087675616145134 1.1987969875335693
-0.15149816870689392 -0.11414331942796707 0.12777836620807648
-0.15831562876701355 -0.06958601623773575 0.14473962783813477
-0.0254733394831419 0.04932603985071182 1.3051410913467407
-0.11177342385053635 -0.12856891751289368 1.4307823181152344
-0.11259552091360092 -0.12076916545629501 1.410968542098999
-0.10238941758871078 -0.11957598477602005 1.3909895420074463
-0.11603610962629318 -0.11501489579677582 1.390660047531128
-0.11945322155952454 -0.1287950873374939 1.374153971672058
-0.12172827124595642 -0.12659691274166107 0.7622824311256409
-0.13561809062957764 -0.08903366327285767 0.7506388425827026
-0.004233323037624359 0.15980011224746704 1.1789212226867676
-0.0036964556202292442 0.14930471777915955 1.2219843864440918
-0.107072614133358 -0.1844809651374817 1.224110722541809
-0.11798325926065445 -0.11621870845556259 0.8416833877563477
-0.14906272292137146 -0.011441539973020554 0.05276912823319435
-0.1525486707687378 -0.019233666360378265 0.006014622747898102
-0.13344939053058624 -0.18887275457382202 0.8389483690261841
-0.026509420946240425 0.10547035932540894 1.3030431270599365
-0.10248230397701263 -0.21026182174682617 1.569047451019287
-0.07750429958105087 -0.09699396044015884 1.5118746757507324
-0.04450645670294762 -0.012438183650374413 1.5111699104309082
-0.042368266731500626 -0.0525435209274292 1.5488176345825195
-0.06424775719642639 -0.0521877221763134 1.5261170864105225
-0.05733935907483101 -0.019199656322598457 1.4626476764678955
0.00039229169487953186 0.006256375461816788 1.5549585819244385
-0.0736255943775177 -0.12629123032093048 1.4603724479675293
-0.09485951066017151 0.044722121208906174 0.9697746634483337
-0.06641606241464615 -0.11942105740308762 1.7614314556121826
-0.07499323040246964 -0.12496024370193481 1.7543206214904785
-0.08231707662343979 -0.1328389197587967 1.7406303882598877
0.020628204569220543 -0.026711804792284966 1.4561140537261963
-0.03211729973554611 0.01966181956231594 1.4458775520324707
-0.08436106145381927 -0.10690478980541229 -0.010027029551565647
0.01208619587123394 0.06552737951278687 1.4041624069213867
-0.0755971372127533 -0.2016235589981079 1.4859875440597534
-0.08569595962762833 -0.09258601814508438 0.3527250587940216
-0.01422213762998581 -0.043308865278959274 1.5009057521820068
-0.03846345469355583 -0.08662864565849304 1.4687782526016235
0.013965796679258347 0.025556843727827072 1.4875714778900146
-0.03430907800793648 0.050488196313381195 0.8547542095184326
-0.09111236035823822 -0.02921712026000023 0.3043125867843628
0.03393774479627609 0.14626839756965637 1.0949152708053589
-0.030380116775631905 0.024166913703083992 1.045404314994812
-0.09111683070659637 -0.2093944102525711 1.2150845527648926
-0.09947147965431213 -0.18651428818702698 1.1267517805099487
-0.07626412808895111 -0.057759739458560944 0.2822572886943817
-0.056948333978652954 -0.07112700492143631 0.22115442156791687
-0.08854258060455322 -0.023898262530565262 0.21700643002986908
-0.017362724989652634 -0.06420166045427322 1.5081865787506104
-0.036152031272649765 -0.12799765169620514 0.6686887741088867
-0.062056079506874084 -0.05576765164732933 0.6288154721260071
0.04656616598367691 0.15936172008514404 1.2137093544006348
0.04535092040896416 0.16843119263648987 1.1412930488586426
-0.053112175315618515 -0.22319741547107697 1.1403260231018066
-0.07205981016159058 -0.0680270791053772 0.07834205776453018
0.03391702100634575 0.12473681569099426 1.122757077217102
0.026292793452739716 0.09701453149318695 1.1505858898162842
0.045259155333042145 -0.059844009578228 1.5041859149932861
-0.058812953531742096 -0.1817779392004013 1.355223536491394
0.06210115924477577 0.07515539228916168 1.3889461755752563
0.06308698654174805 -0.028333276510238647 1.4442458152770996
0.03670543432235718 -0.0707322508096695 1.4967485666275024
0.08144914358854294 0.12066619843244553 1.128451943397522
0.09446586668491364 0.11811796575784683 1.0862582921981812
-0.005702061578631401 -0.19999492168426514 1.3482036590576172
0.01987963542342186 0.022460026666522026 1.0425056219100952
-0.03164234012365341 -0.22335819900035858 1.0792145729064941
0.12264324724674225 0.05280977487564087 1.4008166790008545
0.030660878866910934 -0.0910579264163971 1.2904491424560547
0.09957661479711533 0.006924649700522423 1.485158085823059
0.06561172753572464 -0.035253532230854034 1.478887677192688
0.0347515270113945 -0.08396665751934052 1.2075403928756714
0.04730958491563797 0.09280884265899658 0.9191312789916992
0.05121525377035141 -0.15180285274982452 1.6890074014663696
0.05549752339720726 -0.20393800735473633 0.04202847182750702
0.060282450169324875 -0.23544037342071533 0.011395331472158432
0.05196697264909744 -0.11759211122989655 0.03168071061372757
0.006571978330612183 -0.24746188521385193 1.5614118576049805
0.035150814801454544 -0.06321980059146881 0.6841877698898315
0.11739103496074677 -0.038832053542137146 1.4476070404052734
