0.7290818691253662 -0.19481809437274933 0.7128205299377441
-0.5602179765701294 0.07277162373065948 0.9244961738586426
-0.37378281354904175 0.016317598521709442 0.752316415309906
-0.35748517513275146 0.00854954868555069 0.6939173936843872
-0.5613423585891724 0.12226089835166931 1.4904749393463135
-0.33647429943084717 0.0810103490948677 1.0711358785629272
-0.32393020391464233 0.08043378591537476 1.040181279182434
-0.3062780499458313 0.06912511587142944 1.0748579502105713
-0.24876047670841217 0.07735417783260345 1.1093788146972656
-0.16510120034217834 0.05205594003200531 1.2679758071899414
-0.17380359768867493 0.03524588793516159 1.2715768814086914
0.42361849546432495 -0.026341980323195457 1.4254179000854492
0.44796624779701233 -0.03242616727948189 1.4820058345794678
0.6351755857467651 -0.06433399021625519 1.0848875045776367
0.6328932046890259 -0.05937785282731056 1.0076733827590942
0.583500862121582 -0.07750727236270905 1.194312334060669
0.6409516334533691 -0.12196872383356094 0.8991915583610535
0.6548941135406494 -0.08446836471557617 1.1685693264007568
0.6363130211830139 -0.06704378128051758 1.2538305521011353
0.7348072528839111 -0.09726294130086899 1.0929397344589233
0.7365943193435669 -0.11242437362670898 1.0277180671691895
0.7668077945709229 -0.1484747678041458 0.863231360912323
0.7304573655128479 -0.1677783876657486 0.7702640891075134
0.7844699621200562 -0.1301315277814865 0.8535468578338623
-0.41529011726379395 -0.022913441061973572 0.5940832495689392
-0.3705994486808777 0.00491497665643692 0.5867735147476196
-0.44192713499069214 -0.01721448451280594 0.8035502433776855
-0.40140509605407715 -0.02818409726023674 0.651253342628479
-0.3597535789012909 -0.02616959810256958 0.6401670575141907
-0.42317014932632446 0.04569646343588829 0.9562129378318787
-0.28682151436805725 0.06535615026950836 1.2180479764938354
-0.28121575713157654 0.06509751081466675 1.1605706214904785
-0.2854419946670532 0.07945220172405243 1.1348307132720947
-0.24525046348571777 0.05620778352022171 1.2096316814422607
-0.22993233799934387 0.048456184566020966 1.1422096490859985
-0.2263534963130951 0.06217271834611893 1.1296117305755615
0.2923503518104553 0.019262459129095078 1.1477032899856567
0.5675679445266724 -0.07581968605518341 1.1157166957855225
0.6054491400718689 -0.1021704226732254 1.1208369731903076
0.6202791333198547 -0.11456312984228134 1.0750129222869873
0.7351898550987244 -0.14826729893684387 0.9083521366119385
-0.46933555603027344 0.015815529972314835 0.6626614332199097
-0.4643215537071228 -0.013327224180102348 0.6321225762367249
-0.459140419960022 -0.00020578503608703613 0.628846287727356
-0.465787410736084 0.059943776577711105 0.8520055413246155
-0.418475866317749 -0.0007978901267051697 0.8189285397529602
-0.42322397232055664 -0.0028126761317253113 0.8689963817596436
-0.2021164745092392 0.05092662572860718 1.2302122116088867
-0.15085092186927795 0.0360599085688591 1.3464534282684326
-0.13750119507312775 0.04406287521123886 1.336025595664978
0.16231797635555267 -0.010005651041865349 1.2832518815994263
0.22899296879768372 0.010217621922492981 1.681278944015503
0.4060558080673218 0.018747001886367798 1.6297935247421265
0.4323883652687073 0.0010491088032722473 1.649950385093689
0.4903748631477356 -0.008632345125079155 1.5821558237075806
0.6609214544296265 -0.034303877502679825 1.3315978050231934
0.6873337626457214 -0.03855641186237335 1.3691493272781372
0.688937246799469 -0.018344895914196968 1.3036057949066162
0.6962770223617554 -0.04267764464020729 1.2898685932159424
0.7172356843948364 -0.026042941957712173 1.3032947778701782
-0.594929039478302 0.11979812383651733 1.0163037776947021
-0.5877352952957153 0.1314840167760849 0.9923511743545532
-0.6158697009086609 0.15781831741333008 1.2531678676605225
-0.5934939980506897 0.15630298852920532 1.243896722793579
-0.4108615815639496 0.032923199236392975 0.6116867065429688
-0.398680180311203 0.019847676157951355 0.5666211247444153
-0.42905929684638977 -0.026898955926299095 0.6901769638061523
-0.4448450803756714 0.0503772534430027 0.8013120889663696
-0.48339760303497314 0.09206326305866241 1.0123249292373657
-0.545779824256897 0.12181699275970459 1.5405057668685913
0.2873757481575012 0.01658099703490734 1.2112706899642944
0.3111353814601898 0.020804762840270996 1.4465932846069336
0.46331214904785156 -0.016638992354273796 1.1667206287384033
0.43657368421554565 0.00614787545055151 1.2926592826843262
0.5148059725761414 -0.0313437357544899 1.1027867794036865
0.5384528636932373 -0.04005158692598343 1.0552181005477905
0.5226908326148987 -0.06281054019927979 1.1380096673965454
0.6486278772354126 -0.09278855472803116 0.8562107682228088
0.6604769825935364 -0.1126822829246521 0.8436669707298279
0.6699540615081787 -0.1557004451751709 0.9184313416481018
0.7154470086097717 -0.08004491031169891 1.0897796154022217
0.7629426717758179 -0.09577324986457825 0.8687196969985962
-0.43388044834136963 -0.007381204515695572 0.6012938022613525
-0.39358270168304443 -0.005872748792171478 0.5584174990653992
-0.31493404507637024 0.08953143656253815 1.042445421218872
-0.2604115605354309 0.08983637392520905 1.1297478675842285
-0.22031381726264954 0.056610651314258575 1.1817522048950195
0.7307429909706116 -0.09816045314073563 0.8999313712120056
0.7734493017196655 -0.1369784027338028 0.667206883430481
0.7846521735191345 -0.14045818150043488 0.6843653321266174
-0.4582481384277344 -0.008873283863067627 0.8385450839996338
-0.3933594524860382 0.007978010922670364 0.7707163691520691
-0.3861139416694641 -0.012926749885082245 0.7251396179199219
0.5327049493789673 -0.023046091198921204 1.501282811164856
0.7880833148956299 -0.1183810606598854 0.6757870316505432
0.7809592485427856 -0.11886908113956451 0.9929441213607788
-0.27752184867858887 0.09369122236967087 1.2837486267089844
0.7462400794029236 -0.08851344883441925 1.084717035293579
-0.39975279569625854 0.02636958286166191 0.8428832292556763
0.6935093402862549 -0.1802419275045395 0.7263866066932678
0.740080714225769 -0.09629397094249725 1.0681884288787842
-0.45813804864883423 -0.02842952311038971 0.8002951145172119
-0.3648790717124939 -0.13604432344436646 0.9470224380493164
-0.3690948486328125 -0.13184764981269836 0.960300624370575
-0.3550931513309479 -0.15609973669052124 0.9579012393951416
-0.35937193036079407 -0.15554091334342957 0.9694036841392517
-0.3406287431716919 -0.10760273039340973 1.0200246572494507
-0.34411507844924927 -0.12224407494068146 0.9988630414009094
-0.3344143331050873 -0.10249797999858856 0.9712166786193848
-0.3310282230377197 -0.08118226379156113 1.0068835020065308
-0.33271968364715576 -0.13745850324630737 1.008715271949768
-0.3371606171131134 -0.1697339564561844 0.9968574643135071
-0.3197675943374634 -0.07178598642349243 1.0890278816223145
-0.3143148124217987 -0.16575980186462402 0.9991719722747803
-0.3295170068740845 -0.1280343234539032 0.995897114276886
-0.3134860694408417 -0.14941063523292542 1.0412088632583618
-0.31444215774536133 -0.12201853096485138 1.028562307357788
-0.3067038059234619 -0.05554330721497536 1.0593827962875366
-0.3062700033187866 -0.11167246848344803 1.0309340953826904
-0.31115028262138367 -0.12320798635482788 1.0536644458770752
-0.31818506121635437 -0.10083699971437454 1.0830448865890503
-0.33450010418891907 -0.054908014833927155 1.1201093196868896
-0.32483237981796265 -0.11026106774806976 1.1152920722961426
-0.29726558923721313 -0.0069310604594647884 1.1518216133117676
-0.30523931980133057 -0.00890001654624939 1.1045832633972168
-0.32623010873794556 -0.06067373603582382 1.1541417837142944
-0.26809918880462646 -0.009148309007287025 1.0969990491867065
-0.2774217128753662 -0.04961463436484337 1.2136445045471191
-0.2912406921386719 -0.1098797619342804 1.1666264533996582
-0.2699922025203705 0.008590870536863804 1.1402617692947388
-0.23413501679897308 0.00012341514229774475 1.1561765670776367
-0.24394086003303528 0.0037286728620529175 1.2135616540908813
-0.2181725651025772 0.004036322236061096 1.2170844078063965
-0.21646904945373535 -0.058539148420095444 1.2894868850708008
-0.25385066866874695 -0.08405475318431854 1.219774603843689
-0.21175159513950348 0.007496997714042664 1.2632125616073608
-0.23787857592105865 -0.023875772953033447 1.2684447765350342
-0.20094333589076996 0.004067353904247284 1.3030064105987549
-0.18743525445461273 -0.002329457551240921 1.3400962352752686
-0.17900650203227997 -0.05217384546995163 1.3499248027801514
-0.20270445942878723 -0.09578901529312134 1.2461236715316772
-0.18912507593631744 0.05138783156871796 1.755515694618225
-0.14544497430324554 0.10491487383842468 1.4140236377716064
-0.1340743601322174 0.06618872284889221 0.8718067407608032
-0.18022769689559937 0.016984635964035988 0.8757420182228088
-0.15609604120254517 -0.07529406249523163 0.882978081703186
-0.1988159716129303 -0.10475382208824158 0.8725237846374512
-0.17453013360500336 0.05975709483027458 1.658294439315796
-0.19318395853042603 0.03304224833846092 1.778382420539856
-0.16336026787757874 0.043294601142406464 1.7248355150222778
-0.14577613770961761 0.07394660264253616 1.6721088886260986
-0.1568242311477661 0.05696980282664299 1.6238514184951782
-0.11727045476436615 0.0008765794336795807 1.048192024230957
-0.15478771924972534 -0.05261984467506409 1.010577917098999
-0.15965408086776733 -0.12223890423774719 0.9995036125183105
-0.14948873221874237 0.03517565131187439 1.5518789291381836
-0.257860392332077 -0.09297534823417664 0.05851004272699356
-0.2705899477005005 -0.15704306960105896 0.0285324864089489
-0.27042871713638306 -0.1825026571750641 0.04615194723010063
-0.1472853273153305 -0.03724022954702377 1.400971531867981
-0.14078959822654724 0.007160153239965439 1.3478507995605469
-0.13199028372764587 -0.01801985502243042 1.3290122747421265
-0.15556378662586212 -0.04999864846467972 1.3878555297851562
-0.1373235434293747 -0.09116983413696289 1.3455017805099487
-0.20958495140075684 -0.05588611587882042 0.4807088375091553
-0.20875075459480286 -0.08484483510255814 0.39860910177230835
-0.21839407086372375 -0.036941077560186386 0.3316005766391754
-0.22206942737102509 -0.05967072769999504 0.3647221326828003
-0.15906144678592682 0.05159508064389229 1.6937215328216553
-0.13353455066680908 -0.05919890105724335 1.2974413633346558
-0.13536491990089417 -0.06771081686019897 1.2535927295684814
-0.13617271184921265 -0.09861458837985992 1.2834749221801758
-0.1613609790802002 -0.11506897211074829 1.2834343910217285
-0.21227800846099854 -0.025955546647310257 0.26306256651878357
-0.14691513776779175 -0.03462735190987587 1.550016164779663
-0.14149881899356842 0.03968888148665428 1.5524049997329712
-0.14576852321624756 0.01081482321023941 1.5470325946807861
-0.17857162654399872 -0.087203748524189 0.5797008872032166
-0.10550728440284729 0.03755921870470047 1.7912405729293823
-0.12136680632829666 -0.11570586264133453 1.2220590114593506
-0.11496531963348389 -0.036816395819187164 1.1698808670043945
-0.12987302243709564 -0.1304476261138916 0.7558581829071045
-0.1150241419672966 0.09026367962360382 1.7335375547409058
-0.12476889789104462 -0.07183881849050522 1.4159624576568604
-0.10413377732038498 -0.11767569184303284 0.8569598197937012
-0.14203664660453796 -0.13148653507232666 0.8792363405227661
-0.12457244098186493 -0.20301371812820435 0.9209882020950317
-0.1080908328294754 -0.2178167998790741 0.8561838865280151
-0.24450349807739258 -0.21647468209266663 0.07116220146417618
-0.07332221418619156 0.11668060719966888 1.732093334197998
-0.09919067472219467 0.04889468848705292 1.7772927284240723
-0.1492936760187149 -0.011743664741516113 1.4572128057479858
-0.1279170662164688 -0.038617923855781555 1.5087052583694458
-0.17827197909355164 -0.011011863127350807 0.3305530250072479
-0.20576781034469604 -0.034537214785814285 0.2158496081829071
-0.2357579469680786 -0.2110106498003006 0.11139853298664093
-0.2103205919265747 -0.024310190230607986 0.06507693231105804
-0.10763829946517944 -0.015164695680141449 1.3310627937316895
-0.15849441289901733 -0.11544632166624069 0.5537297129631042
-0.19957533478736877 -0.17775003612041473 0.013248695991933346
-0.2421906739473343 -0.1821281909942627 0.00508110411465168
-0.10309787839651108 0.03660615161061287 1.5691664218902588
-0.1016397774219513 0.0033200010657310486 1.5254921913146973
-0.03014754131436348 -0.21953421831130981 0.9139336347579956
-0.08365154266357422 0.08901950716972351 0.8679649233818054
-0.2061474472284317 -0.13954374194145203 0.2727140784263611
-0.18096859753131866 -0.13540711998939514 0.1959049254655838
-0.19025860726833344 -0.034005239605903625 0.1122850626707077
-0.09215863049030304 -0.01042068749666214 1.2981696128845215
-0.09982260316610336 -0.029629526659846306 1.2557282447814941
-0.06722725182771683 -0.13389012217521667 1.3283432722091675
-0.13223977386951447 -0.04200250655412674 0.6713641881942749
-0.11096392571926117 -0.13312625885009766 0.7450910806655884
-0.07256034761667252 -0.11743908375501633 0.8176619410514832
-0.1728573888540268 -0.14074774086475372 0.16343775391578674
-0.1904011219739914 -0.20625101029872894 0.08214724063873291
-0.11907634139060974 -0.08977851271629333 1.5034364461898804
-0.09084639698266983 -0.001996435225009918 1.367539882659912
-0.06162942573428154 -0.005333397537469864 1.3006629943847656
-0.1278519481420517 -0.11878552287817001 0.5765646696090698
-0.10258512198925018 -0.09842406213283539 0.5783519744873047
-0.1450922191143036 -0.004554026760160923 0.515028715133667
-0.0884450227022171 -0.07863019406795502 1.4732275009155273
-0.06710787117481232 -0.03243713080883026 1.4505033493041992
-0.09822025895118713 0.007709961384534836 1.4091017246246338
-0.11347340047359467 -0.040000393986701965 0.5217026472091675
-0.05681498721241951 0.06765571236610413 1.7781316041946411
-0.10785771161317825 -0.12858371436595917 1.6440374851226807
-0.031315840780735016 -0.18941126763820648 1.0004658699035645
-0.06813251972198486 -0.04434173181653023 1.466015338897705
-0.04655897617340088 -0.073361337184906 1.4507224559783936
-0.06702210009098053 -0.057864874601364136 1.4440300464630127
-0.05312938988208771 -0.12387700378894806 1.5728670358657837
-0.09623700380325317 -0.12325511872768402 1.517266035079956
-0.045142725110054016 -0.012529388070106506 1.4762557744979858
-0.0913262814283371 -0.060330066829919815 0.6441827416419983
-0.008428405970335007 0.022040314972400665 1.8036816120147705
-0.032821547240018845 0.12658798694610596 1.7006502151489258
-0.04010239243507385 -0.14170703291893005 1.5246444940567017
-0.05601837486028671 -0.12306469678878784 1.4750977754592896
-0.02900640107691288 -0.01926586404442787 1.4506661891937256
-0.02943691611289978 -0.12093360722064972 1.4737037420272827
0.002180926501750946 0.0032817088067531586 1.4249361753463745
-0.023277392610907555 -0.014923777431249619 1.295454740524292
-0.006206020712852478 0.07823406904935837 1.7755321264266968
-0.0038373321294784546 -0.02398281916975975 1.4821370840072632
-0.00827423483133316 -0.06974492222070694 1.467289924621582
0.021140018478035927 0.09835988283157349 1.7309774160385132
0.007199235260486603 0.03458347171545029 1.7828088998794556
-0.004075378179550171 -0.061968229711055756 1.449493646621704
0.027674350887537003 -0.08901379257440567 1.4937915802001953
0.0009401040151715279 -0.03899737447500229 1.4584450721740723
0.06934134662151337 -0.0872393473982811 0.5990539789199829
0.02576044201850891 0.009778115898370743 1.5091016292572021
0.10216034948825836 -0.10339929163455963 0.5169112682342529
0.015027305111289024 -0.17163100838661194 1.2817182540893555
0.05823425203561783 -0.039086539298295975 1.2752196788787842
0.0593545064330101 -0.06431759893894196 1.1581430435180664
0.13563676178455353 -0.08608575165271759 0.0924554392695427
0.156622514128685 -0.07836135476827621 0.07720419019460678
0.1267302930355072 0.03672429174184799 0.09724226593971252
0.03062533587217331 -0.1520715355873108 1.2676106691360474
0.018121249973773956 -0.18974566459655762 1.191685676574707
0.06861842423677444 -0.1403430998325348 0.740949273109436
0.12013639509677887 -0.013249024748802185 0.06726943701505661
0.05917295441031456 0.02831004559993744 1.741534948348999
0.02316981740295887 -0.1298857480287552 1.651971459388733
0.011462576687335968 -0.11570648849010468 1.5634835958480835
0.01748942770063877 -0.11988182365894318 1.5166116952896118
0.09845289587974548 -0.1587812304496765 0.8819956183433533
0.10789330303668976 0.022941485047340393 1.767549753189087
0.03334025666117668 0.006895910948514938 1.566546082496643
0.03228769451379776 -0.009219344705343246 1.5368627309799194
0.12594717741012573 -0.004206866025924683 0.3431834876537323
0.11873119324445724 0.0121234729886055 0.28396090865135193
0.13866594433784485 0.04793844372034073 0.07955224812030792
0.05389153212308884 0.011530321091413498 1.8291854858398438
0.06912488490343094 -0.014119811356067657 1.4325507879257202
0.10063287615776062 -0.21789517998695374 0.8710867166519165
0.08847704529762268 -0.13067303597927094 0.8696070909500122
0.12938034534454346 -0.19313156604766846 0.8694428205490112
0.09495894610881805 -0.0424150750041008 0.7599021792411804
0.1831527054309845 -0.07664459943771362 0.08857382088899612
0.06458370387554169 0.015480048954486847 1.752265453338623
0.04948224872350693 -0.15647083520889282 1.1590332984924316
0.059060804545879364 -0.14063678681850433 1.2872679233551025
0.0627560168504715 -0.15757814049720764 1.2829943895339966
0.1300445944070816 -0.18703755736351013 0.9391627311706543
0.05742979049682617 -0.06636132299900055 1.5836966037750244
0.06228424608707428 0.009365946054458618 1.5739244222640991
0.05878294259309769 -0.01663031429052353 1.5655641555786133
0.06673716753721237 -0.03252585977315903 1.5598222017288208
0.0804542824625969 -0.04480982571840286 1.5357177257537842
0.13272301852703094 -0.0643753707408905 0.6582844853401184
0.13053885102272034 -0.13043588399887085 0.677035927772522
0.08907380700111389 -0.057879041880369186 1.406964659690857
0.090766541659832 -0.0021995529532432556 1.3500406742095947
0.05323701351881027 -0.006089754402637482 1.3635118007659912
0.0643981397151947 -0.0274190790951252 1.3401246070861816
0.12336590886116028 -0.11847209185361862 0.838354766368866
0.18273548781871796 0.02968912571668625 0.08296718448400497
0.19936662912368774 0.0026521384716033936 0.07475018501281738
0.08005490899085999 0.005594965070486069 1.7055236101150513
0.09617962688207626 -0.028890378773212433 1.404332160949707
0.18876761198043823 -0.04698525741696358 0.3262803256511688
0.10098733007907867 0.026042085140943527 1.6775531768798828
0.07651019096374512 0.05239277705550194 1.679978370666504
0.086399145424366 0.02212679758667946 1.645833969116211
0.19975997507572174 -0.011219494044780731 0.15073351562023163
0.20800603926181793 -0.05134718120098114 0.08563509583473206
0.18899865448474884 -0.08089333772659302 0.11251062899827957
0.15790098905563354 -0.01197065319865942 0.9780255556106567
0.1517656445503235 -0.014261596836149693 0.8780239820480347
0.10771945118904114 -0.0006337836384773254 1.767786979675293
0.17004068195819855 0.03974192589521408 0.8862086534500122
0.184543639421463 0.003387127071619034 0.9481484889984131
0.12072115391492844 -0.010412521660327911 1.3421714305877686
0.13777096569538116 -0.03147188574075699 1.3252294063568115
0.10046212375164032 -0.06103764846920967 1.3710085153579712
0.13463269174098969 -0.012065127491950989 1.2865382432937622
0.12237866222858429 -0.016989193856716156 1.2664393186569214
0.1536254584789276 -0.09656700491905212 1.2378956079483032
0.16138410568237305 -0.04791456460952759 1.2825756072998047
0.17786279320716858 -0.010491404682397842 1.219146490097046
0.19649983942508698 -0.008250683546066284 1.1408839225769043
0.22400051355361938 -0.02017819508910179 1.158810019493103
0.21004579961299896 -0.04432334378361702 1.2032371759414673
0.19272001087665558 -0.0909784734249115 1.2211378812789917
0.23245395720005035 -0.02718190848827362 1.1047471761703491
0.25764405727386475 -0.10444676131010056 1.1480741500854492
0.2665114998817444 -0.07423089444637299 1.1312264204025269
0.2561051547527313 -0.047827400267124176 1.1050307750701904
0.22932103276252747 -0.14550940692424774 1.1264047622680664
0.24502724409103394 -0.1068522036075592 1.0953588485717773
0.24495895206928253 -0.0829925537109375 1.0866731405258179
0.29552313685417175 -0.14488546550273895 0.9722998142242432
0.22931775450706482 -0.12795664370059967 1.0932728052139282
0.22812819480895996 -0.13984277844429016 1.0654395818710327
0.26631787419319153 -0.10985402017831802 1.0130479335784912
0.2331455945968628 -0.12769131362438202 1.041359543800354
0.2332209050655365 -0.15546217560768127 1.0414960384368896
0.25689706206321716 -0.14271637797355652 1.0083025693893433
0.28075602650642395 -0.14768525958061218 1.0000752210617065
0.236504927277565 -0.18147502839565277 1.008178949356079
0.2619166076183319 -0.16220685839653015 0.9985703825950623
0.24888555705547333 -0.17039340734481812 1.00810968875885
0.2891582250595093 -0.15149861574172974 0.9523106813430786
0.2585165798664093 -0.18387222290039062 0.9947526454925537
0.27072691917419434 -0.14106200635433197 0.968479573726654
0.2762781083583832 -0.17455455660820007 0.963476836681366
0.2947441041469574 -0.16609203815460205 0.9673953652381897
-0.31427204608917236 -0.04659347981214523 1.0836434364318848
-0.29934263229370117 -0.11080417037010193 1.0728787183761597
-0.2886572778224945 -0.09191904217004776 1.0694009065628052
-0.3076426684856415 -0.13362380862236023 1.1075935363769531
-0.2515435218811035 -0.04290151223540306 1.0823403596878052
-0.2771666646003723 -0.12937533855438232 1.0965986251831055
-0.19543875753879547 -0.017044739797711372 1.2402936220169067
-0.19124186038970947 -0.07530269771814346 1.215925931930542
-0.17584529519081116 -0.10008219629526138 0.9718564748764038
-0.1804153174161911 -0.017762456089258194 0.9475346803665161
-0.13017858564853668 0.05051802843809128 0.9357033371925354
-0.12626227736473083 0.15479902923107147 1.2627170085906982
-0.11990904808044434 0.15274715423583984 1.202645182609558
-0.12539222836494446 0.17770525813102722 1.1673935651779175
-0.15592068433761597 -0.012690456584095955 0.9735573530197144
-0.20520062744617462 0.02609175443649292 1.74795663356781
-0.14957883954048157 -0.002832610160112381 1.367332100868225
-0.16922876238822937 -0.0010207705199718475 1.2971867322921753
-0.05389074981212616 0.1765119433403015 1.0655182600021362
-0.08598655462265015 0.18284671008586884 0.9824672937393188
-0.262201189994812 -0.10567453503608704 0.1184631884098053
-0.2727668881416321 -0.1633445769548416 0.07706499844789505
-0.177366241812706 0.0237959623336792 1.7277500629425049
-0.16207270324230194 0.030064042657613754 1.6728415489196777
-0.14491263031959534 -0.13608960807323456 1.2608587741851807
-0.14341431856155396 -0.15405070781707764 1.2318161725997925
-0.1472848355770111 -0.1742248237133026 1.22867751121521
-0.120292067527771 0.11373641341924667 1.3876270055770874
-0.11192695796489716 0.10481152683496475 1.3804739713668823
-0.12471138685941696 -0.13523076474666595 1.2768434286117554
-0.14507240056991577 -0.06003313511610031 1.218414306640625
-0.23632419109344482 -0.12487030029296875 0.1875065565109253
-0.2391231209039688 -0.08081497251987457 0.19360455870628357
-0.07181566953659058 0.13340896368026733 1.2567014694213867
-0.1532743126153946 -0.02254781685769558 1.4698264598846436
-0.15375590324401855 -0.016666390001773834 1.4474940299987793
-0.1402585208415985 -0.021850869059562683 1.4287021160125732
-0.15297752618789673 -0.01499256119132042 1.4245903491973877
-0.15166306495666504 -0.03630007803440094 1.4164090156555176
-0.14547386765480042 -0.11150439083576202 0.7968353629112244
-0.15683981776237488 -0.0743427649140358 0.7905575037002563
-0.05345548316836357 0.2382907271385193 1.0713788270950317
-0.05410871282219887 0.23582175374031067 1.1247947216033936
-0.11683046072721481 -0.12770211696624756 1.2757635116577148
-0.13030242919921875 -0.10829638689756393 0.8695826530456543
-0.23576009273529053 -0.04059436917304993 0.11813168227672577
-0.24100521206855774 -0.04131698980927467 0.0777161568403244
-0.1408008188009262 -0.18923208117485046 0.8583971858024597
-0.07607430964708328 0.19542089104652405 1.2363641262054443
-0.15077616274356842 -0.09818343818187714 1.6413204669952393
-0.1271289587020874 0.018892712891101837 1.5509858131408691
-0.10202097147703171 0.10958358645439148 1.515458583831787
-0.10031835734844208 0.06987956911325455 1.5756549835205078
-0.11869063228368759 0.0678703561425209 1.5485336780548096
-0.10696227848529816 0.08823998272418976 1.461321234703064
-0.054969560354948044 0.1352229118347168 1.5562779903411865
-0.11523560434579849 -0.021166730672121048 1.5017414093017578
-0.08886536210775375 0.043904710561037064 0.9817191362380981
-0.13290081918239594 0.028726577758789062 1.8314727544784546
-0.14729821681976318 0.02062080055475235 1.8270256519317627
-0.14416220784187317 0.009062372148036957 1.812596321105957
-0.021797439083456993 0.0761939138174057 1.4498177766799927
-0.087122842669487 0.12702852487564087 1.4300521612167358
-0.17843776941299438 -0.10766587406396866 0.04266734421253204
-0.04064624384045601 0.16780675947666168 1.370732307434082
-0.1109669953584671 -0.09860943257808685 1.5524184703826904
-0.1579623818397522 -0.08902496844530106 0.40176644921302795
-0.05986974760890007 0.07058294117450714 1.5156383514404297
-0.08090027421712875 0.02666240930557251 1.4998488426208496
-0.03676349297165871 0.13862673938274384 1.4747891426086426
-0.03434620052576065 0.05315248295664787 0.8636283874511719
-0.1639726310968399 -0.026057232171297073 0.3500424027442932
-0.007887833751738071 0.20436030626296997 0.9758397340774536
-0.03364481031894684 0.038778163492679596 1.0416169166564941
-0.09706088155508041 -0.15931257605552673 1.2727984189987183
-0.09314550459384918 -0.15731823444366455 1.1693822145462036
-0.1521351933479309 -0.05373015254735947 0.3299306333065033
-0.13513042032718658 -0.07065518200397491 0.26842889189720154
-0.16545070707798004 -0.02070721611380577 0.2623637914657593
-0.06514252722263336 0.05245174840092659 1.5364387035369873
-0.078932985663414 -0.11358693242073059 0.6952406764030457
-0.10283953696489334 -0.041707515716552734 0.6637833118438721
0.004223315045237541 0.24597617983818054 1.1132831573486328
0.007130291312932968 0.23619890213012695 1.0228633880615234
-0.04356202110648155 -0.18847686052322388 1.196441650390625
-0.1600264012813568 -0.08681388944387436 0.131415456533432
-0.00011222902685403824 0.18399539589881897 1.0210219621658325
-0.005059801507741213 0.16341504454612732 1.059788465499878
0.005574434995651245 0.054983124136924744 1.525647521018982
-0.07625094801187515 -0.09228295832872391 1.4089316129684448
0.014931604266166687 0.18074312806129456 1.3462375402450562
0.02418227307498455 0.06765918433666229 1.4393484592437744
-0.0021275095641613007 0.04331398382782936 1.5271817445755005
0.056469473987817764 0.1829889416694641 1.0270764827728271
0.07201418280601501 0.16888684034347534 0.9840575456619263
-0.01142510212957859 -0.11013022810220718 1.404555320739746
0.01442040130496025 0.03901343420147896 1.039668321609497
-0.01809818483889103 -0.20042523741722107 1.1244574785232544
0.08510713279247284 0.15283943712711334 1.3686751127243042
0.016981694847345352 -0.014134956523776054 1.3121453523635864
0.06230582296848297 0.1224786788225174 1.4807757139205933
0.029361095279455185 0.06933692842721939 1.4840452671051025
0.0323924757540226 -0.026503877714276314 1.2215977907180786
0.04355146363377571 0.09654876589775085 0.9276639223098755
0.0075133442878723145 -0.015644270926713943 1.7671043872833252
0.11684457212686539 -0.061234407126903534 0.10289968550205231
0.11036109179258347 -0.066032774746418 0.07976395636796951
0.10963904857635498 -0.009205266833305359 0.11286292970180511
-0.025964729487895966 -0.1410473883152008 1.6444851160049438
0.06288652122020721 -0.06138847768306732 0.7248639464378357
0.08928479254245758 0.06312654167413712 1.4507927894592285
0.04080035537481308 -0.05289145186543465 1.5044662952423096
0.07879488170146942 -0.04064786061644554 1.4458590745925903
0.03404255956411362 -0.003813639283180237 1.4219329357147217
0.10614153742790222 -0.019843239337205887 0.4099242091178894
0.1273225098848343 -0.090340755879879 0.2508243918418884
0.12538892030715942 0.0003576315939426422 0.22213314473628998
0.126681849360466 0.1737619787454605 1.0364937782287598
0.11717773228883743 0.20371714234352112 1.0004125833511353
0.10202722251415253 -0.14527279138565063 0.751720666885376
0.10447175800800323 -0.051077812910079956 0.666801929473877
0.009684810414910316 -0.06593307852745056 1.7557685375213623
0.04835979640483856 -0.0741778239607811 1.70960533618927
0.11880941689014435 -0.12516218423843384 0.5595475435256958
0.024316538125276566 -0.009457845240831375 1.7802844047546387
0.04812256619334221 -0.026616699993610382 1.7306193113327026
0.07016405463218689 -0.09375612437725067 1.1541407108306885
0.07489685714244843 -0.08076296001672745 1.1260737180709839
0.06701984256505966 -0.15514802932739258 1.1094492673873901
0.03694835305213928 -0.11728603392839432 1.6434779167175293
0.0541558600962162 -0.047961581498384476 1.5319336652755737
0.04191732034087181 -0.08657971769571304 1.5344330072402954
0.16377682983875275 0.1535997986793518 0.9934231638908386
0.08011719584465027 -0.09373700618743896 1.3105556964874268
0.09206681698560715 -0.16080120205879211 1.2684522867202759
0.08467318117618561 -0.10072162747383118 1.2591185569763184
0.17237766087055206 0.013189636170864105 0.1711413860321045
0.17611798644065857 -0.06569921970367432 0.1852594017982483
0.19216600060462952 -0.05648570880293846 0.169686421751976
0.06929012387990952 0.0008278079330921173 1.7514625787734985
0.09028802812099457 -0.10469774901866913 1.3095556497573853
0.17902526259422302 -0.028573816642165184 0.4473523199558258
0.15865620970726013 -0.0852506160736084 0.4972144067287445
0.18795645236968994 -0.038050003349781036 0.39235618710517883
0.09310374408960342 -0.05657569319009781 1.4396777153015137
0.08070872724056244 -0.04928821325302124 1.4364006519317627
0.0997467115521431 -0.036522794514894485 1.3939660787582397
0.12076587229967117 0.06699161231517792 0.9342817664146423
0.12989090383052826 -0.1158846914768219 0.8695721626281738
0.20031984150409698 -0.012203909456729889 0.2678990364074707
0.21134857833385468 -0.043922338634729385 0.2735975384712219
0.10690951347351074 -0.01696915179491043 1.3900762796401978
0.16000020503997803 0.10008449107408524 1.2835830450057983
0.16728995740413666 0.12695753574371338 1.2562333345413208
0.10245779901742935 -0.23213346302509308 1.1638416051864624
0.1538429856300354 -0.06306128203868866 1.004911184310913
0.15693747997283936 -0.12111326307058334 0.9995542764663696
0.1365109384059906 -0.001607447862625122 1.2093639373779297
0.17678232491016388 -0.09904476255178452 1.0964163541793823
0.19032691419124603 -0.05967724695801735 1.0826151371002197
0.18469072878360748 -0.13837018609046936 1.1561923027038574
-0.2943700850009918 -0.06219419091939926 1.0605671405792236
-0.30328819155693054 -0.12260443717241287 1.0384900569915771
-0.23115119338035583 -0.1114562451839447 1.1439355611801147
-0.24612641334533691 -0.1147623062133789 1.190666913986206
-0.20562975108623505 -0.0725254938006401 1.1539428234100342
-0.2050965428352356 -0.03041912615299225 1.177781343460083
-0.19403547048568726 -0.1549074947834015 0.8813745379447937
-0.11827786266803741 0.18432563543319702 1.021565556526184
-0.12133488059043884 0.17177234590053558 1.1268659830093384
-0.14955569803714752 -0.23794066905975342 1.1327283382415771
-0.13919320702552795 -0.16285915672779083 0.9678195714950562
-0.25223803520202637 -0.0695372074842453 0.28163012862205505
-0.22855490446090698 -0.12054583430290222 0.2974645495414734
-0.18283380568027496 -0.013561143539845943 0.5032000541687012
-0.15239711105823517 -0.19553953409194946 0.8639872670173645
-0.16359642148017883 -0.06781597435474396 0.6458314061164856
-0.15370942652225494 -0.10509117692708969 0.7010233402252197
-0.14073550701141357 -0.043595969676971436 0.7039134502410889
-0.102397620677948 -0.016450494527816772 1.108052372932434
-0.11007421463727951 -0.07865072786808014 1.1359999179840088
-0.03898704797029495 0.22349777817726135 1.2018792629241943
-0.11475983262062073 -0.01764191873371601 0.8625341653823853
-0.18546554446220398 -0.13447080552577972 0.31092703342437744
-0.11539943516254425 -0.02135826088488102 1.216436743736267
-0.09331050515174866 -0.0394832082092762 1.1419925689697266
-0.1725107878446579 -0.10913044214248657 0.45100292563438416
-0.1372321993112564 0.006222207099199295 1.7466305494308472
-0.14225736260414124 -0.030956298112869263 1.7394813299179077
-0.1006079614162445 -0.06876011937856674 1.7493536472320557
-0.11697179079055786 -0.10911339521408081 1.7065025568008423
-0.131510391831398 -0.0988653153181076 1.6045777797698975
-0.15936973690986633 -0.08809852600097656 0.34611383080482483
-0.0765295922756195 -0.12273330241441727 0.7472582459449768
-0.13775117695331573 -0.09899171441793442 0.27681881189346313
-0.15500761568546295 -0.1266084611415863 0.28059715032577515
-0.17187905311584473 -0.04732994735240936 0.21236124634742737
-0.050184473395347595 0.0655035600066185 0.9730708003044128
-0.08961336314678192 0.017635952681303024 1.794698715209961
-0.10483331233263016 0.003503192216157913 1.780665636062622
0.047406189143657684 0.14637458324432373 1.1805152893066406
-0.04522331431508064 0.1554141640663147 1.1869738101959229
0.02578522451221943 0.12918683886528015 1.2426588535308838
0.0019569024443626404 -0.03220468759536743 1.2620843648910522
0.03558782488107681 0.21606886386871338 1.2344558238983154
0.039091069251298904 0.16565540432929993 1.0653021335601807
0.10032918304204941 0.22810734808444977 1.1493728160858154
0.016831330955028534 0.11576828360557556 1.671196460723877
0.07309278845787048 0.15672826766967773 1.0717253684997559
0.044110000133514404 -0.21888846158981323 0.9150845408439636
0.09231840074062347 -0.058625899255275726 0.2717030346393585
0.11997293680906296 -0.06057363748550415 0.21473027765750885
0.06225953623652458 -0.1276121586561203 0.706948459148407
0.035112135112285614 0.013776654377579689 1.0756826400756836
0.08539377152919769 -0.04530368372797966 0.5781792998313904
0.09164641052484512 0.10662675648927689 1.3156167268753052
0.06382861733436584 -0.06807921081781387 1.4263173341751099
0.04855657368898392 0.10247742384672165 1.6346533298492432
0.043113503605127335 0.03153444081544876 1.6075608730316162
0.04916045814752579 0.048487402498722076 1.5782275199890137
0.02276645228266716 -0.0014119036495685577 1.828975796699524
0.06866870075464249 -0.08557968586683273 1.3582195043563843
0.14902395009994507 -0.01175124291330576 0.5138183832168579
0.11459925770759583 -0.0003322158008813858 0.5107238292694092
0.14341846108436584 0.0048094987869262695 0.36362725496292114
0.16463421285152435 0.004888191819190979 0.33640730381011963
0.07641257345676422 -0.04114926606416702 1.5246996879577637
0.06203553080558777 -0.05051538348197937 1.5345444679260254
0.07881853729486465 -0.050839297473430634 1.5164676904678345
0.13104794919490814 -0.05258075147867203 0.7724006175994873
0.1440589725971222 -0.0935479998588562 0.6418151259422302
0.12004303932189941 0.02754370868206024 0.9746297001838684
0.1061927005648613 -0.07326674461364746 1.099189043045044
0.10047262907028198 -0.12754479050636292 1.0918028354644775
0.10852093994617462 -0.15246467292308807 1.0388052463531494
0.08185755461454391 -0.0027970969676971436 1.6477110385894775
0.09214179217815399 -0.010132912546396255 1.5613975524902344
0.08561649173498154 -0.14993251860141754 1.2520620822906494
0.10826776176691055 0.06534166634082794 1.5476857423782349
0.0983252227306366 0.0387849435210228 1.5889866352081299
0.1960504800081253 0.01833854615688324 0.10161024332046509
0.208954319357872 -0.02233164757490158 0.093796007335186
0.11766450107097626 0.04579589143395424 1.5135598182678223
0.1243918389081955 0.06019981577992439 1.4779192209243774
0.13061007857322693 0.04909113422036171 1.439699411392212
0.1333944946527481 0.06582529097795486 1.4249500036239624
0.09462610632181168 -0.23459458351135254 1.183739185333252
0.17777489125728607 -0.15468542277812958 0.8850470185279846
0.11471419036388397 -0.20791366696357727 1.196099042892456
0.111769899725914 -0.23316924273967743 1.1813302040100098
0.20700354874134064 -0.11054570972919464 0.9044002294540405
0.20902810990810394 -0.08840520679950714 0.8849997520446777
0.2166985273361206 -0.0533030740916729 0.8943601250648499
-0.21368718147277832 -0.10501556098461151 1.2004594802856445
-0.1718481183052063 -0.10605771839618683 1.275022029876709
-0.1779898703098297 -0.10233743488788605 1.2566876411437988
-0.16905179619789124 -0.09624344110488892 1.2647125720977783
-0.16761434078216553 -0.09212851524353027 1.281494379043579
-0.2004408836364746 0.0019116774201393127 0.8839420676231384
-0.14291192591190338 -0.05543272942304611 1.3032207489013672
-0.14473256468772888 -0.06542082130908966 1.0834519863128662
-0.13953107595443726 0.09807807207107544 1.554694652557373
-0.14288774132728577 -0.08662182092666626 1.20713472366333
-0.14052025973796844 -0.08115381002426147 1.155192255973816
-0.1111062541604042 0.10214859992265701 1.4475593566894531
-0.10054177045822144 0.10000620037317276 1.4062278270721436
-0.13131825625896454 -0.14153555035591125 1.0525944232940674
-0.09736163914203644 -0.16804403066635132 1.011116623878479
-0.13388094305992126 -0.030934063717722893 0.7891372442245483
-0.042418986558914185 0.1975553035736084 1.2749748229980469
-0.08300407230854034 0.12874525785446167 1.6469699144363403
-0.167009636759758 -0.052179284393787384 0.07418723404407501
-0.17905893921852112 -0.04230619966983795 0.06457304954528809
-0.08568114042282104 0.026631971821188927 0.8739721179008484
-0.002337813377380371 0.09711328893899918 0.8592694997787476
-0.06665585190057755 -0.017968816682696342 0.8516128063201904
0.01907573640346527 0.09892459958791733 1.3397290706634521
-0.045442722737789154 -0.08170324563980103 0.7718621492385864
-0.06230098009109497 -0.12646442651748657 1.6229430437088013
-0.009571926668286324 0.01631159707903862 0.8791459798812866
-0.006337787955999374 -0.023928172886371613 0.8579148650169373
0.01593947969377041 -0.11731033772230148 0.8626129031181335
-0.0802193284034729 -0.1666359305381775 0.8631980419158936
-0.00552615150809288 -0.22672288119792938 0.8563647270202637
0.033573560416698456 -0.1092374175786972 0.8416703343391418
-0.005774705670773983 -0.1623050570487976 0.8684102296829224
-0.007401943206787109 0.02654441073536873 1.4998188018798828
0.02791149914264679 -0.03548552468419075 0.8539847731590271
0.03027459979057312 -0.04965389519929886 0.8378919363021851
0.0034752413630485535 0.03765936195850372 1.5783917903900146
0.008479882031679153 0.03957933187484741 1.551354169845581
0.0422377735376358 -0.12340445816516876 0.857215404510498
0.13095209002494812 0.05960019677877426 0.8654665946960449
0.0948973074555397 -0.029352646321058273 0.2733234763145447
0.05446545407176018 -0.03608215972781181 0.8248531222343445
0.0881715714931488 0.14168259501457214 1.2157621383666992
0.12628142535686493 -0.07195388525724411 0.3957681953907013
0.11969649791717529 -0.042836133390665054 0.3341982960700989
0.13676978647708893 -0.06675273925065994 0.3469286561012268
0.13482123613357544 -0.10230758041143417 0.2921266555786133
0.09143327176570892 0.07718928158283234 1.5143123865127563
0.08030205965042114 -0.01611742377281189 0.8602021336555481
0.10970756411552429 -0.036453768610954285 0.8407720327377319
0.08177022635936737 -0.07238098978996277 1.2585030794143677
0.15379047393798828 -0.08636431396007538 0.4424208700656891
0.08071508258581161 0.05093030259013176 1.6241083145141602
0.06788568198680878 -0.028883252292871475 1.312469244003296
0.16558966040611267 -0.06715697795152664 0.3503229320049286
0.1144944578409195 0.2012433260679245 1.21013605594635
0.0855073630809784 -0.05102046579122543 1.232530117034912
0.16150060296058655 0.0031089521944522858 0.2279893308877945
0.15630021691322327 0.20153722167015076 1.1284127235412598
0.15500140190124512 0.013504192233085632 0.2672792077064514
0.17715147137641907 -0.10300825536251068 0.26358556747436523
0.13570474088191986 0.08977168798446655 1.3317822217941284
0.090227410197258 -0.03886314108967781 1.4803380966186523
0.0999833270907402 -0.03381368890404701 1.4431086778640747
0.08857734501361847 -0.03931703045964241 1.4765608310699463
0.11460749059915543 -0.027359871193766594 1.4220775365829468
0.10471710562705994 -0.17653527855873108 1.2386131286621094
0.09192559868097305 -0.1855401247739792 1.2327162027359009
0.162442147731781 0.11559079587459564 1.2385752201080322
0.18226253986358643 0.1506057232618332 1.173648476600647
0.17892664670944214 0.14222176373004913 1.1399608850479126
0.1149134486913681 -0.03410143032670021 1.2638685703277588
0.10935381054878235 -0.06895608454942703 1.2755711078643799
0.16134339570999146 -0.17892557382583618 0.8943483233451843
0.11514539271593094 -0.08204667270183563 1.28237783908844
0.1243215873837471 -0.09916143864393234 1.1761573553085327
0.1375218629837036 -0.026073478162288666 1.1654348373413086
0.1287352442741394 -0.07693266123533249 1.1487566232681274
0.19384609162807465 -0.12187650054693222 1.190385103225708
0.21534955501556396 -0.08700088411569595 1.0666831731796265
0.19840668141841888 -0.14063651859760284 1.111007809638977
-0.15460380911827087 -0.2263091504573822 1.172791838645935
-0.15734167397022247 -0.1549188196659088 1.2217206954956055
-0.16302722692489624 -0.142378568649292 1.2400702238082886
-0.14426878094673157 -0.21039289236068726 1.1728308200836182
-0.12979373335838318 0.10508541762828827 1.4759563207626343
-0.13662540912628174 0.0956215038895607 1.4593260288238525
-0.13609609007835388 0.11250325292348862 1.4161758422851562
-0.16067512333393097 0.0034093186259269714 1.7084957361221313
-0.1643613874912262 -0.03397512063384056 1.623760461807251
-0.2164558619260788 -0.08782993257045746 0.3430083692073822
-0.13352134823799133 -0.06693195551633835 0.863021731376648
-0.1358499526977539 -0.09148040413856506 0.8426390886306763
-0.1024988442659378 0.2009609490633011 0.9992067217826843
-0.10782435536384583 -0.12550874054431915 1.2653148174285889
-0.1202668622136116 -0.028802884742617607 0.8353148698806763
-0.1135961040854454 -0.010086297988891602 1.7616658210754395
-0.10043759644031525 -0.12224063277244568 1.1423990726470947
-0.06714267283678055 -0.18541088700294495 1.1400835514068604
-0.044653281569480896 0.1743922084569931 1.109302043914795
0.03115980327129364 0.16447724401950836 1.1065679788589478
-0.07082784175872803 -0.02157025784254074 1.1584694385528564
-0.05514738708734512 -0.11316244304180145 0.8549431562423706
-0.056885216385126114 -0.18838970363140106 1.0724067687988281
-0.05203239619731903 0.01753169298171997 1.0626988410949707
-0.05557122081518173 -0.11543763428926468 1.7215855121612549
0.03121875412762165 -0.1021939069032669 0.777881383895874
-0.03315119445323944 0.11501972377300262 1.3113824129104614
0.10600601881742477 -0.0304318368434906 0.06535819917917252
0.1439460813999176 0.21801210939884186 1.0604710578918457
0.10225499421358109 0.1598174273967743 1.1289337873458862
0.08485891669988632 0.23872219026088715 1.0703963041305542
0.10007041692733765 0.08880671858787537 0.8699349761009216
0.16914309561252594 0.046439461410045624 0.09502190351486206
0.12286171317100525 -0.03772192448377609 0.866438090801239
0.15854711830615997 -0.07438883185386658 0.39913618564605713
0.0963689535856247 -0.06111608445644379 1.404104471206665
0.0968514010310173 -0.07772455364465714 1.3229892253875732
0.20127440989017487 0.0007315268740057945 0.8858572840690613
0.20201894640922546 -0.04891003668308258 0.9500592947006226
0.21023647487163544 -0.12029317766427994 1.0789096355438232
-0.2547481656074524 -0.12671127915382385 1.1572067737579346
-0.19947093725204468 -0.08658041059970856 0.9437541961669922
-0.2177686095237732 -0.0734434574842453 0.889269232749939
-0.13944989442825317 0.09362010657787323 1.4121893644332886
-0.12464676797389984 0.1308104693889618 1.2663373947143555
-0.14577855169773102 0.014935407787561417 1.5396993160247803
-0.13744503259658813 -0.058665428310632706 1.050876498222351
-0.1437206268310547 -0.0860065370798111 1.0917187929153442
-0.14555738866329193 0.019782770425081253 1.5408670902252197
-0.14649640023708344 0.0065340399742126465 1.5263943672180176
-0.14432691037654877 0.011174630373716354 1.534040927886963
-0.14604368805885315 0.011483147740364075 1.539219856262207
-0.1506272405385971 -0.0005947984755039215 1.527529239654541
-0.2084786593914032 -0.1446056067943573 0.19094297289848328
-0.16026444733142853 -0.07125141471624374 1.677462100982666
-0.04273295775055885 -0.015480048954486847 1.2139182090759277
-0.16911131143569946 -0.162339985370636 0.06996220350265503
-0.0574616976082325 -0.022468240931630135 1.2565693855285645
-0.013964381068944931 -0.025441201403737068 1.1699050664901733
-0.03832534700632095 0.09404037147760391 0.9357174634933472
-0.0483219251036644 -0.019330531358718872 1.7796882390975952
-0.06339118629693985 -0.07813812792301178 0.7105245590209961
-0.006769708823412657 0.11887583881616592 1.2730640172958374
0.0019456595182418823 -0.19209778308868408 1.0209132432937622
-0.042443759739398956 -0.18561460077762604 1.2404141426086426
0.03883574903011322 0.1485607773065567 1.151050090789795
0.11545033752918243 -0.025956930592656136 0.2053341418504715
0.062042705714702606 -0.17919087409973145 1.003090739250183
0.11145126819610596 -0.1724405288696289 0.9872545599937439
0.06379333883523941 0.05010804533958435 1.5470480918884277
0.0568414032459259 -0.16424725949764252 1.188809871673584
0.02941412664949894 -0.03447185456752777 1.1679426431655884
0.08609077334403992 -0.02657661773264408 1.091357946395874
0.07828408479690552 0.06017661839723587 0.9660633206367493
0.1594230830669403 -0.05319737643003464 0.04287083446979523
0.13450780510902405 -0.045907579362392426 0.0416576974093914
0.19139517843723297 -0.03316099941730499 0.04973077401518822
0.19805966317653656 -0.07728788256645203 0.2507041394710541
0.0867108479142189 -0.03842819482088089 1.476020336151123
0.0854804664850235 -0.03657107055187225 1.4739525318145752
0.08074872195720673 -0.049845654517412186 1.3339006900787354
0.09632600098848343 -0.07103421539068222 1.3130778074264526
0.196511372923851 0.16720452904701233 1.0693303346633911
0.19276705384254456 0.14825600385665894 1.0209121704101562
0.20228619873523712 0.15353576838970184 1.0179983377456665
0.23055395483970642 -0.07862003147602081 1.065744161605835
0.21764633059501648 -0.13909706473350525 1.0560429096221924
0.22715803980827332 -0.16420435905456543 1.0490533113479614
-0.2470640242099762 -0.08121545612812042 1.0828299522399902
-0.16455836594104767 -0.18590694665908813 1.2091703414916992
-0.18852755427360535 -0.0932641327381134 0.3703368902206421
-0.06469013541936874 0.18484756350517273 0.972933828830719
-0.1080366000533104 -0.14282891154289246 1.0906885862350464
-0.03663380816578865 -0.040645845234394073 0.850134551525116
-0.060268886387348175 -0.029592134058475494 0.8162326216697693
-0.05379655957221985 -0.08219195157289505 0.8183672428131104
-0.007512445095926523 0.012530921027064323 1.1080209016799927
0.02618025243282318 -0.20911067724227905 0.8464670181274414
0.09685461223125458 0.015690628439188004 0.8762673139572144
0.12167352437973022 0.1588367521762848 1.0918402671813965
0.08630011975765228 0.013521958142518997 1.5643666982650757
0.09767144918441772 0.03631553053855896 1.5400315523147583
0.18930798768997192 -0.1178068295121193 0.9507281184196472
-0.16818572580814362 -0.19795042276382446 1.1771981716156006
-0.14617426693439484 0.06683512032032013 1.5717754364013672
-0.037694696336984634 0.19316697120666504 1.0200283527374268
-0.1260586977005005 0.09522543847560883 1.6032339334487915
-0.10100317001342773 0.055057089775800705 1.5931657552719116
-0.0676741674542427 0.04637698084115982 1.5718077421188354
0.02760487049818039 -0.19419226050376892 1.0777181386947632
0.046527475118637085 -0.14159175753593445 1.2762380838394165
0.14916564524173737 -0.074991375207901 0.17489875853061676
0.08461736142635345 -0.12594051659107208 1.2335151433944702
0.093792624771595 -0.11789844930171967 1.1801044940948486
