-0.014299653470516205 -0.09180530905723572 1.4037699699401855
0.019013389945030212 -0.1211099922657013 1.4354809522628784
-0.00557737797498703 -0.07342056185007095 1.4092473983764648
0.0621330626308918 -0.09164629876613617 0.5766128301620483
0.02441791445016861 -0.036641284823417664 1.4641413688659668
0.09692717343568802 -0.11429803818464279 0.49262338876724243
-0.008773804642260075 -0.18977618217468262 1.2371962070465088
0.046011291444301605 -0.07729345560073853 1.2407304048538208
0.04435103014111519 -0.0877319797873497 1.1348222494125366
0.12566865980625153 -0.1859215795993805 0.06162891536951065
0.14403769373893738 -0.18426021933555603 0.036786340177059174
0.11385553330183029 -0.03280419483780861 0.04822364076972008
0.004661044105887413 -0.1739412546157837 1.226173758506775
-0.0038183312863111496 -0.20242390036582947 1.1499532461166382
0.05896710604429245 -0.14070475101470947 0.7149897217750549
0.10958689451217651 -0.09743761271238327 0.021466344594955444
0.05414493754506111 -0.03611811250448227 1.6724839210510254
0.004205964505672455 -0.17088629305362701 1.572031855583191
0.002895958721637726 -0.15129540860652924 1.4934582710266113
0.0010469816625118256 -0.1502341777086258 1.450953483581543
0.09140054881572723 -0.16168543696403503 0.863326907157898
0.101981021463871 -0.04829609766602516 1.6997148990631104
0.030541440472006798 -0.03865952417254448 1.5102741718292236
0.02723350003361702 -0.05915701016783714 1.4814330339431763
0.11827680468559265 -0.03515103831887245 0.30612489581108093
0.11129898577928543 -0.028801213949918747 0.24329732358455658
0.12795627117156982 -0.027711033821105957 0.026913609355688095
0.047880977392196655 -0.05293403938412666 1.751920461654663
0.05712348222732544 -0.06211963668465614 1.3786470890045166
0.09315131604671478 -0.21929708123207092 0.8517760038375854
0.07984858006238937 -0.13237135112285614 0.8482024669647217
0.12306578457355499 -0.19583173096179962 0.849507212638855
0.08564168214797974 -0.03955116868019104 0.7369472980499268
0.16780336201190948 -0.18505236506462097 0.05092085525393486
0.06670374423265457 -0.04617878049612045 1.683089017868042
0.03030097857117653 -0.17404159903526306 1.1218652725219727
0.03063785471022129 -0.16885411739349365 1.2415125370025635
0.029689569026231766 -0.18620780110359192 1.2386072874069214
0.12517668306827545 -0.19140470027923584 0.916929304599762
0.047826796770095825 -0.11036475002765656 1.5160958766937256
0.05910426378250122 -0.03824332728981972 1.523685336112976
0.0549488291144371 -0.06264146417379379 1.5062174797058105
0.05904721841216087 -0.07739677280187607 1.5017307996749878
0.06285669654607773 -0.09059155732393265 1.4782259464263916
0.12285251915454865 -0.06639423966407776 0.6339313983917236
0.12020005285739899 -0.13198675215244293 0.6524925827980042
0.06297394633293152 -0.1061730906367302 1.3603346347808838
0.07080582529306412 -0.0641121044754982 1.3035614490509033
0.04152976721525192 -0.06275002658367157 1.324671745300293
0.04723756015300751 -0.07872648537158966 1.2986681461334229
0.11433550715446472 -0.119501993060112 0.8148884177207947
0.17286397516727448 -0.05552469193935394 0.029275082051753998
0.18443723022937775 -0.0831829383969307 0.02771473303437233
0.07097813487052917 -0.05242473632097244 1.6387003660202026
0.0796295553445816 -0.07333111017942429 1.3537647724151611
0.18046578764915466 -0.08424489945173264 0.2912498712539673
0.09716614335775375 -0.03614814579486847 1.617519497871399
0.0759831964969635 -0.010155882686376572 1.6245522499084473
0.08366169035434723 -0.03669777885079384 1.5870046615600586
0.1873134970664978 -0.08104609698057175 0.10826238989830017
0.19331364333629608 -0.1503395140171051 0.04463939741253853
0.17924581468105316 -0.1749042570590973 0.07947481423616409
0.15556588768959045 -0.01905393972992897 0.9548789262771606
0.14432293176651 -0.01800198294222355 0.8538437485694885
0.09858982264995575 -0.0625881627202034 1.6934030055999756
0.16367775201797485 0.03491341322660446 0.8601590991020203
0.17977750301361084 -0.0022572111338377 0.9210414290428162
0.09190547466278076 -0.07783002406358719 1.2963839769363403
0.09711296856403351 -0.102352574467659 1.281530499458313
0.07142958045005798 -0.10976988077163696 1.3316926956176758
0.0974741131067276 -0.09183785319328308 1.2416584491729736
0.08680518716573715 -0.09251358360052109 1.2220593690872192
0.08868821710348129 -0.16902446746826172 1.2117092609405518
0.10634063929319382 -0.12789452075958252 1.2417407035827637
0.12088536471128464 -0.10986161231994629 1.1742762327194214
0.12597157061100006 -0.11804265528917313 1.0980228185653687
0.15059664845466614 -0.13058939576148987 1.1090419292449951
0.1445717215538025 -0.14214889705181122 1.1620142459869385
0.11759405583143234 -0.17329978942871094 1.1838717460632324
0.15000571310520172 -0.1570686399936676 1.0585200786590576
0.17114907503128052 -0.2108343243598938 1.1116379499435425
0.17618072032928467 -0.1929539144039154 1.0912795066833496
0.16563673317432404 -0.16953596472740173 1.0657517910003662
0.1268465220928192 -0.24650296568870544 1.1008598804473877
0.14797252416610718 -0.21891938149929047 1.067652702331543
0.14718779921531677 -0.20166906714439392 1.0520334243774414
0.17718686163425446 -0.2797704041004181 0.9591114521026611
0.1277250349521637 -0.23337425291538239 1.0686951875686646
0.12922565639019012 -0.2529212534427643 1.0412460565567017
0.16486477851867676 -0.2323966920375824 0.985430121421814
0.13087858259677887 -0.2410537451505661 1.0162514448165894
0.12521016597747803 -0.2667226195335388 1.019629716873169
0.1463346630334854 -0.26380717754364014 0.9918540716171265
0.16096779704093933 -0.2672731280326843 0.9883236885070801
0.12154138088226318 -0.28422102332115173 0.9971164464950562
0.14101767539978027 -0.2809080183506012 0.9884541034698486
0.13099221885204315 -0.28057780861854553 0.9967122077941895
0.17103369534015656 -0.28384578227996826 0.9403796195983887
0.13586564362049103 -0.2950347065925598 0.9844306707382202
0.15591877698898315 -0.26800239086151123 0.9548261165618896
0.15801793336868286 -0.2988623380661011 0.9534034132957458
0.17121362686157227 -0.29347658157348633 0.9561483263969421
-0.28907135128974915 -0.031034786254167557 1.0660806894302368
-0.2890702486038208 -0.08403658121824265 1.048397421836853
-0.2717383801937103 -0.06834818422794342 1.0481131076812744
-0.29664346575737 -0.10468145459890366 1.0802984237670898
-0.23679178953170776 -0.03381194919347763 1.0654022693634033
-0.2723953127861023 -0.10843448340892792 1.0650980472564697
-0.18289953470230103 -0.02595255710184574 1.214490294456482
-0.1899418830871582 -0.07686489820480347 1.184766173362732
-0.17540431022644043 -0.09507502615451813 0.9492555856704712
-0.179286926984787 -0.014135058037936687 0.9275003671646118
-0.12881797552108765 0.05119863897562027 0.9177423715591431
-0.0740327537059784 0.11109361052513123 1.2675304412841797
-0.07038821280002594 0.11230126023292542 1.2113289833068848
-0.06492079049348831 0.13721580803394318 1.1909329891204834
-0.1544797271490097 -0.010085401125252247 0.9510458707809448
-0.1744622439146042 -0.011905118823051453 1.6794086694717407
-0.13920478522777557 -0.028042931109666824 1.3323785066604614
-0.1576853096485138 -0.0205095037817955 1.267931580543518
-0.0060561541467905045 0.13470834493637085 1.101052165031433
-0.027468062937259674 0.14092451333999634 1.0269289016723633
-0.25208163261413574 -0.08148488402366638 0.10012200474739075
-0.2686428725719452 -0.14195123314857483 0.059723641723394394
-0.15315254032611847 -0.02550419420003891 1.6637516021728516
-0.13953974843025208 -0.00986136868596077 1.612088918685913
-0.15088321268558502 -0.14107215404510498 1.2160027027130127
-0.15096867084503174 -0.15339764952659607 1.1905444860458374
-0.15671245753765106 -0.1728789508342743 1.1830945014953613
-0.08239217102527618 0.06937982887029648 1.3676453828811646
-0.07319971919059753 0.0633024051785469 1.3647308349609375
-0.13271303474903107 -0.14628782868385315 1.232176423072815
-0.1406768560409546 -0.07289448380470276 1.187943935394287
-0.22449570894241333 -0.10419075936079025 0.16403132677078247
-0.23280996084213257 -0.05891592428088188 0.17646512389183044
-0.029164984822273254 0.09202677756547928 1.2609728574752808
-0.14255104959011078 -0.05250507965683937 1.422703504562378
-0.14114142954349518 -0.046084556728601456 1.4028587341308594
-0.1288599669933319 -0.047081109136343 1.3849985599517822
-0.14363975822925568 -0.04286094382405281 1.3830962181091309
-0.14530861377716064 -0.05790087208151817 1.370369791984558
-0.1383109986782074 -0.11598703265190125 0.7775325775146484
-0.1515316665172577 -0.0774553120136261 0.7703449726104736
0.00691218301653862 0.18540173768997192 1.1164219379425049
0.0044699618592858315 0.18033549189567566 1.162428855895996
-0.12370758503675461 -0.13993704319000244 1.2278201580047607
-0.12200082838535309 -0.1126837283372879 0.8519121408462524
-0.22509725391864777 -0.0171307735145092 0.09350849688053131
-0.22989262640476227 -0.020218003541231155 0.05301878973841667
-0.13535283505916595 -0.18543148040771484 0.8418667912483215
-0.02676338702440262 0.14983250200748444 1.2502105236053467
-0.14309868216514587 -0.12789106369018555 1.5662965774536133
-0.1105099618434906 -0.019732702523469925 1.5001006126403809
-0.07236910611391068 0.060605745762586594 1.4857773780822754
-0.07441584020853043 0.025250107049942017 1.532822608947754
-0.09585779160261154 0.02614711970090866 1.5083129405975342
-0.08188755810260773 0.04832680523395538 1.435120701789856
-0.028999127447605133 0.07848938554525375 1.530674934387207
-0.1053195595741272 -0.05095432698726654 1.4515974521636963
-0.08681154996156693 0.04433083161711693 0.9664227962493896
-0.11625151336193085 -0.02243606373667717 1.7572051286697388
-0.12324248999357224 -0.027538755908608437 1.750016689300537
-0.13217058777809143 -0.036500416696071625 1.736975073814392
-0.0026664435863494873 0.030399054288864136 1.4318573474884033
-0.05072399973869324 0.08065041899681091 1.4112557172775269
-0.16657669842243195 -0.09218300133943558 0.023857546970248222
-0.0009056294802576303 0.11880739033222198 1.3647257089614868
-0.11277950555086136 -0.12609317898750305 1.4824726581573486
-0.14634887874126434 -0.06914340704679489 0.377907395362854
-0.043359313160181046 0.026272978633642197 1.4815093278884888
-0.0687769204378128 -0.013679571449756622 1.457162857055664
-0.008566978387534618 0.08902736008167267 1.458219051361084
-0.032412368804216385 0.04967650771141052 0.8511548042297363
-0.1544138640165329 -0.0071402620524168015 0.32977157831192017
0.04996538162231445 0.15360087156295776 1.0334148406982422
-0.029380496591329575 0.03048194944858551 1.0314278602600098
-0.10654246062040329 -0.16841433942317963 1.2247774600982666
-0.10514167696237564 -0.16227751970291138 1.132041096687317
-0.1417611539363861 -0.03576865792274475 0.3069995939731598
-0.1262059509754181 -0.04969797655940056 0.2452090084552765
-0.15723642706871033 -0.0019616903737187386 0.24088330566883087
-0.048539385199546814 0.0077531598508358 1.4937405586242676
-0.07195648550987244 -0.11110447347164154 0.6768283843994141
-0.09815100580453873 -0.03776847943663597 0.6454873085021973
0.054749540984630585 0.1835329830646515 1.1557729244232178
0.05890156328678131 0.18282049894332886 1.0797063112258911
-0.06084540858864784 -0.1976197063922882 1.1527241468429565
-0.15061473846435547 -0.06963163614273071 0.10762915015220642
0.046765413135290146 0.13698279857635498 1.064418077468872
0.03596187010407448 0.11265871673822403 1.0969364643096924
0.01520439051091671 0.004236800596117973 1.48960542678833
-0.08500906080007553 -0.11789815127849579 1.360163927078247
0.04972761869430542 0.12107348442077637 1.3508154153823853
0.04087132588028908 0.023085933178663254 1.4220459461212158
0.005100708454847336 -0.0027603693306446075 1.4860749244689941
0.0918213352560997 0.12657718360424042 1.0749366283416748
0.10818427801132202 0.11815616488456726 1.0310814380645752
-0.027282992377877235 -0.13527365028858185 1.3549120426177979
0.01622217521071434 0.027598531916737556 1.0293046236038208
-0.035775333642959595 -0.20853804051876068 1.086972713470459
0.10600095987319946 0.09332694858312607 1.3718230724334717
0.014757458120584488 -0.046124402433633804 1.2808899879455566
0.07478763163089752 0.061539795249700546 1.462640643119812
0.04020767658948898 0.02118837833404541 1.4599323272705078
0.02475803717970848 -0.056430570781230927 1.1968555450439453
0.046990081667900085 0.0913739949464798 0.9157660007476807
0.002314038574695587 -0.06973382085561752 1.6915749311447144
0.10368993133306503 -0.1468418836593628 0.06307696551084518
0.10048475861549377 -0.1650235801935196 0.03459981083869934
0.09881511330604553 -0.07877404987812042 0.06777632236480713
-0.03657512739300728 -0.1717308908700943 1.566746711730957
0.05678543820977211 -0.06267541646957397 0.7003862857818604
0.09309444576501846 0.007036777213215828 1.4307823181152344
0.02829507179558277 -0.08916571736335754 1.4464125633239746
0.06421680748462677 -0.08035719394683838 1.3952025175094604
0.0263077300041914 -0.052076131105422974 1.3797669410705566
0.09784408658742905 -0.046444810926914215 0.37419140338897705
0.11380349099636078 -0.13998764753341675 0.2221030294895172
0.11768053472042084 -0.05192431062459946 0.17688319087028503
0.14959922432899475 0.11412393301725388 1.080324649810791
0.14686846733093262 0.13891151547431946 1.0540969371795654
0.09315364062786102 -0.14596524834632874 0.7265142202377319
0.09828564524650574 -0.05218052119016647 0.6438047885894775
-0.0016342923045158386 -0.11436137557029724 1.6729227304458618
0.0384240448474884 -0.12483014166355133 1.6316542625427246
0.11188439279794693 -0.1319207102060318 0.537240207195282
0.025089625269174576 -0.06342004984617233 1.7048274278640747
0.04848332703113556 -0.0769088938832283 1.6554909944534302
0.05583992600440979 -0.11332450807094574 1.1271973848342896
0.06232002377510071 -0.10051438212394714 1.103542447090149
0.05158502608537674 -0.1697145700454712 1.0814292430877686
0.018531296402215958 -0.1568080186843872 1.5648751258850098
0.0425729863345623 -0.08990892767906189 1.4770472049713135
0.032485462725162506 -0.13004282116889954 1.4699991941452026
0.18665656447410583 0.09680446982383728 1.0454846620559692
0.04600309208035469 -0.1380367875099182 1.271281123161316
0.048766471445560455 -0.19550229609012604 1.2318882942199707
0.058365099132061005 -0.13327395915985107 1.2162351608276367
0.15692000091075897 -0.04522740840911865 0.12609128654003143
0.16431860625743866 -0.13438133895397186 0.15520180761814117
0.17824991047382355 -0.12358203530311584 0.13955026865005493
0.06207391247153282 -0.060773856937885284 1.6814522743225098
0.052586354315280914 -0.1511562466621399 1.2743374109268188
0.17262712121009827 -0.04832220450043678 0.4148573577404022
0.1518470048904419 -0.09991567581892014 0.47100138664245605
0.17896175384521484 -0.06670274585485458 0.3573516011238098
0.07454727590084076 -0.09838490933179855 1.3857635259628296
0.060973092913627625 -0.09628847986459732 1.3839185237884521
0.0793570801615715 -0.08409343659877777 1.345550537109375
0.11997032165527344 0.06050322949886322 0.9142508506774902
0.12112082540988922 -0.11732429265975952 0.8491982817649841
0.1843196004629135 -0.059140514582395554 0.22921909391880035
0.19891992211341858 -0.08912152051925659 0.2387004792690277
0.08342450857162476 -0.07342729717493057 1.3382314443588257
0.16489531099796295 0.03512593358755112 1.2892781496047974
0.17651201784610748 0.06192954629659653 1.2717097997665405
0.0472298264503479 -0.258457213640213 1.1278533935546875
0.15169936418533325 -0.07061387598514557 0.9839487075805664
0.15307271480560303 -0.12707935273647308 0.9738963842391968
0.09043069183826447 -0.09227108955383301 1.1677255630493164
0.0867789164185524 -0.20453691482543945 1.0668679475784302
0.10415630042552948 -0.1690133512020111 1.0440770387649536
0.09730792045593262 -0.23091328144073486 1.13340425491333
-0.27485722303390503 -0.042134419083595276 1.0406827926635742
-0.2923884987831116 -0.0952828973531723 1.0196540355682373
-0.2305077463388443 -0.09797883033752441 1.11383855342865
-0.24457648396492004 -0.10345020890235901 1.157433271408081
-0.20252761244773865 -0.07069966197013855 1.1299645900726318
-0.1933552324771881 -0.032670386135578156 1.15214204788208
-0.1870349645614624 -0.15168291330337524 0.8642700910568237
-0.054399918764829636 0.14799334108829498 1.064569115638733
-0.06720201671123505 0.13199055194854736 1.156044602394104
-0.16902881860733032 -0.22671416401863098 1.0909037590026855
-0.1419282853603363 -0.15763552486896515 0.9430904388427734
-0.23972560465335846 -0.05435348302125931 0.26348385214805603
-0.21868757903575897 -0.10275715589523315 0.27800607681274414
-0.17250891029834747 0.0012770898174494505 0.48208189010620117
-0.14604851603507996 -0.19145753979682922 0.8474695086479187
-0.15690946578979492 -0.05762267857789993 0.623532772064209
-0.1505790650844574 -0.10009156167507172 0.6780736446380615
-0.13350605964660645 -0.04359593242406845 0.6859102249145508
-0.10153333842754364 -0.028702381998300552 1.0899968147277832
-0.11577361077070236 -0.0864705741405487 1.1075143814086914
0.014848902821540833 0.16679933667182922 1.2239437103271484
-0.10993829369544983 -0.021795785054564476 0.8475536108016968
-0.17464150488376617 -0.11321164667606354 0.29158446192741394
-0.11212597787380219 -0.0436059944331646 1.190924048423767
-0.09271460771560669 -0.0513199120759964 1.1221259832382202
-0.161506786942482 -0.09120004624128342 0.4316410422325134
-0.12082988768815994 -0.03848820552229881 1.6793309450149536
-0.1291273981332779 -0.07093377411365509 1.6613221168518066
-0.09558612108230591 -0.10684099048376083 1.6678352355957031
-0.11582887917757034 -0.13713988661766052 1.6261065006256104
-0.130900576710701 -0.1292210817337036 1.5316040515899658
-0.1541091799736023 -0.0720810741186142 0.32361429929733276
-0.0683513954281807 -0.12209074944257736 0.7278668284416199
-0.12993620336055756 -0.08033107221126556 0.2519262135028839
-0.14850346744060516 -0.11000369489192963 0.25848379731178284
-0.1642598658800125 -0.025325428694486618 0.18986213207244873
-0.046317290514707565 0.06416044384241104 0.9593210220336914
-0.07703130692243576 -0.032124113291502 1.7206294536590576
-0.09468081593513489 -0.040192894637584686 1.7072786092758179
0.07342159748077393 0.09563878923654556 1.2077772617340088
-0.001235972624272108 0.11110060662031174 1.2014853954315186
0.050116557627916336 0.08541782200336456 1.2548637390136719
-0.005085878074169159 -0.058874234557151794 1.2316296100616455
0.07574991881847382 0.15218038856983185 1.2552213668823242
0.07774998992681503 0.1124659925699234 1.1019196510314941
0.1335683912038803 0.16138502955436707 1.1871287822723389
0.031059619039297104 0.05337757617235184 1.6304142475128174
0.10633085668087006 0.09637060761451721 1.1106350421905518
0.037592098116874695 -0.21763527393341064 0.8985718488693237
0.08136960119009018 -0.09969155490398407 0.2396325021982193
0.10904841125011444 -0.11575967073440552 0.17886367440223694
0.053394000977277756 -0.1299654245376587 0.6834750771522522
0.035022906959056854 -0.004615765530616045 1.0661180019378662
0.07811272889375687 -0.04767729341983795 0.5518680810928345
0.1079859808087349 0.050572577863931656 1.3119114637374878
0.04032948985695839 -0.11162656545639038 1.38070547580719
0.06000277400016785 0.03767423331737518 1.5942926406860352
0.044873811304569244 -0.023514142259955406 1.5531532764434814
0.05001974478363991 -0.0062612444162368774 1.5357513427734375
0.019555559381842613 -0.06028572469949722 1.7497444152832031
0.033576712012290955 -0.13408175110816956 1.3206548690795898
0.14267954230308533 -0.022269632667303085 0.47994905710220337
0.11123888194561005 -0.009457223117351532 0.47515302896499634
0.13736100494861603 -0.024083469063043594 0.32390666007995605
0.15961948037147522 -0.030455978587269783 0.2945438325405121
0.06575828790664673 -0.08916836977005005 1.4679453372955322
0.0552271343767643 -0.09715469181537628 1.4755260944366455
0.06565767526626587 -0.08957575261592865 1.4608725309371948
0.1193445697426796 -0.05343645066022873 0.7513359189033508
0.13615962862968445 -0.09604129195213318 0.621155858039856
0.12224705517292023 0.019805870950222015 0.9547696113586426
0.09531129896640778 -0.08999456465244293 1.0852354764938354
0.0861755758523941 -0.14206504821777344 1.0699559450149536
0.09861214458942413 -0.16329152882099152 1.0173091888427734
0.07114048302173615 -0.05897699296474457 1.5853252410888672
0.08165188133716583 -0.05905013158917427 1.508254051208496
0.04353643208742142 -0.18714942038059235 1.2133760452270508
0.10687137395143509 0.006835944950580597 1.5036742687225342
0.09178534150123596 -0.022928768768906593 1.5386213064193726
0.18661421537399292 -0.05600545555353165 0.05697481706738472
0.1982724666595459 -0.10855406522750854 0.04823625832796097
0.11382749676704407 -0.011134268715977669 1.4693509340286255
0.12066987156867981 0.0018736813217401505 1.4445983171463013
0.13034570217132568 -0.004101570695638657 1.4145177602767944
0.13315613567829132 0.007265515625476837 1.402809977531433
0.04654955491423607 -0.2612162232398987 1.1459823846817017
0.16986419260501862 -0.1592361330986023 0.8598005771636963
0.058748044073581696 -0.24043670296669006 1.1582502126693726
0.05386552959680557 -0.26433685421943665 1.1473406553268433
0.19767650961875916 -0.11532442271709442 0.8770343661308289
0.19856297969818115 -0.09232893586158752 0.857562780380249
0.20900866389274597 -0.057630620896816254 0.8676263093948364
-0.2150273323059082 -0.09997182339429855 1.1676807403564453
-0.17329947650432587 -0.10942139476537704 1.233777403831482
-0.1816023886203766 -0.10839050263166428 1.2182505130767822
-0.1728089451789856 -0.10044706612825394 1.225274682044983
-0.16696429252624512 -0.10326698422431946 1.243180274963379
-0.19433382153511047 0.00042761489748954773 0.8666711449623108
-0.14010761678218842 -0.07374200969934464 1.2652229070663452
-0.14671453833580017 -0.06949149072170258 1.0591199398040771
-0.11195512115955353 0.053737834095954895 1.5149047374725342
-0.14500120282173157 -0.09802895784378052 1.17600679397583
-0.147477388381958 -0.0879010334610939 1.1241947412490845
-0.08231353759765625 0.06185159087181091 1.4193981885910034
-0.06695733964443207 0.05656738579273224 1.385929822921753
-0.13757756352424622 -0.14191430807113647 1.0162911415100098
-0.10358209162950516 -0.1652858853340149 0.9788166284561157
-0.12873464822769165 -0.03381004557013512 0.7727837562561035
0.006762797012925148 0.14268773794174194 1.285358190536499
-0.05377751961350441 0.07090897113084793 1.607948899269104
-0.15573742985725403 -0.03593787923455238 0.047865450382232666
-0.17034539580345154 -0.019291164353489876 0.03686990216374397
-0.07991762459278107 0.023382341489195824 0.8566732406616211
0.0005781315267086029 0.09324532747268677 0.849563717842102
-0.06245236098766327 -0.024542801082134247 0.834969162940979
0.04255528748035431 0.05093641206622124 1.335503339767456
-0.04106813296675682 -0.08639867603778839 0.7554041147232056
-0.06918507814407349 -0.1595049500465393 1.5419378280639648
-0.006957581266760826 0.01409606821835041 0.8671889305114746
-0.005863615311682224 -0.028091661632061005 0.8452445268630981
0.011799950152635574 -0.11875689774751663 0.848853588104248
-0.07724851369857788 -0.16243647038936615 0.8516051769256592
-0.008370419964194298 -0.22337692975997925 0.8442254066467285
0.02717178501188755 -0.11110655963420868 0.8227198123931885
-0.010748074389994144 -0.15925836563110352 0.855438232421875
-0.006724651902914047 -0.019256947562098503 1.4535075426101685
0.022032402455806732 -0.03795766457915306 0.8395967483520508
0.026141783222556114 -0.05039398372173309 0.8188515305519104
0.009660270065069199 -0.015906155109405518 1.5298620462417603
0.01339571550488472 -0.00642254576086998 1.507636308670044
0.03704670071601868 -0.12453445792198181 0.8396745920181274
0.1265822798013687 0.05478198453783989 0.847922146320343
0.08338288962841034 -0.07120250910520554 0.23608464002609253
0.04480721056461334 -0.03578837588429451 0.806326687335968
0.10882287472486496 0.08654047548770905 1.232671856880188
0.11293633282184601 -0.09655670821666718 0.3622856140136719
0.11087407916784286 -0.08289983868598938 0.300969660282135
0.12657776474952698 -0.10331204533576965 0.31796830892562866
0.12188401818275452 -0.1439017355442047 0.26326611638069153
0.09490737318992615 0.023966073989868164 1.476630449295044
0.07569185644388199 -0.01756894774734974 0.841143786907196
0.09920147061347961 -0.03659064695239067 0.8177545070648193
0.061602070927619934 -0.10550624132156372 1.2236695289611816
0.14444082975387573 -0.10939820110797882 0.41214874386787415
0.07956980913877487 -0.00438336655497551 1.5741760730743408
0.05110827088356018 -0.07163520902395248 1.271336555480957
0.15781432390213013 -0.10388297587633133 0.3178166151046753
0.1378450244665146 0.14010603725910187 1.2387325763702393
0.07181040942668915 -0.0854240208864212 1.1999074220657349
0.1491280347108841 -0.043692074716091156 0.18664364516735077
0.17967931926250458 0.13029183447360992 1.1630947589874268
0.14344081282615662 -0.03293277323246002 0.22368678450584412
0.16518260538578033 -0.1465279906988144 0.23925693333148956
0.14202383160591125 0.030150793492794037 1.3329256772994995
0.07314425706863403 -0.08141789585351944 1.4192132949829102
0.07952658832073212 -0.08083416521549225 1.390398383140564
0.0728244036436081 -0.07817237079143524 1.4212794303894043
0.09254557639360428 -0.07213479280471802 1.370123028755188
0.05798850953578949 -0.20918437838554382 1.1981642246246338
0.0424887053668499 -0.21965348720550537 1.1928789615631104
0.16831302642822266 0.05198357626795769 1.2509443759918213
0.19761881232261658 0.08227017521858215 1.2005395889282227
0.19153070449829102 0.08148092031478882 1.1688793897628784
0.07039099186658859 -0.10564266890287399 1.224495768547058
0.057350076735019684 -0.13590629398822784 1.2405058145523071
0.15425211191177368 -0.18437641859054565 0.8716537952423096
0.06676798313856125 -0.14763601124286652 1.2516450881958008
0.05743621289730072 -0.17910265922546387 1.1524966955184937
0.07574447989463806 -0.1270621418952942 1.1269121170043945
0.06301450729370117 -0.16336750984191895 1.1190996170043945
0.1115729808807373 -0.20489099621772766 1.1634907722473145
0.12942737340927124 -0.2041686326265335 1.0325345993041992
0.1031353622674942 -0.2406749576330185 1.0900076627731323
-0.1707611083984375 -0.21497215330600739 1.1280012130737305
-0.16003726422786713 -0.15613409876823425 1.1797964572906494
-0.16808061301708221 -0.14439833164215088 1.200748324394226
-0.15936358273029327 -0.20429480075836182 1.1325926780700684
-0.09850770980119705 0.06527583301067352 1.4483200311660767
-0.10323050618171692 0.053378283977508545 1.431772232055664
-0.0996108278632164 0.07202019542455673 1.3932929039001465
-0.14313767850399017 -0.034131214022636414 1.6440949440002441
-0.14898020029067993 -0.06291279196739197 1.5605792999267578
-0.21210181713104248 -0.06889410316944122 0.31980860233306885
-0.1281912624835968 -0.07166813313961029 0.8417448997497559
-0.12916889786720276 -0.09702944755554199 0.8236715197563171
-0.03973875939846039 0.15946194529533386 1.0449504852294922
-0.1123475730419159 -0.13583791255950928 1.222466230392456
-0.11356208473443985 -0.03439750522375107 0.819474458694458
-0.09859130531549454 -0.05541471019387245 1.6856729984283447
-0.11095940321683884 -0.12956665456295013 1.1099034547805786
-0.07974553108215332 -0.1889796406030655 1.1006169319152832
0.003804504871368408 0.12973551452159882 1.1390869617462158
0.07054254412651062 0.11235153675079346 1.1378434896469116
-0.06984595209360123 -0.04097363352775574 1.1385829448699951
-0.050792280584573746 -0.1167248785495758 0.8439335823059082
-0.06711040437221527 -0.19287927448749542 1.0374045372009277
-0.05098482593894005 0.00941256619989872 1.0511268377304077
-0.05785122513771057 -0.1508668065071106 1.6365301609039307
0.02431010641157627 -0.10174175351858139 0.7564116716384888
-0.0025409385561943054 0.07073023915290833 1.3055908679962158
0.09849750250577927 -0.12008175998926163 0.023345809429883957
0.16909097135066986 0.14869612455368042 1.110386848449707
0.12901878356933594 0.1040443629026413 1.1567450761795044
0.12717173993587494 0.17152103781700134 1.1217042207717896
0.0963805541396141 0.08440381288528442 0.8530467748641968
0.15807999670505524 -0.024761296808719635 0.042735934257507324
0.11642849445343018 -0.039016738533973694 0.8426167964935303
0.14802207052707672 -0.10205653309822083 0.37026482820510864
0.07089713960886002 -0.10835764557123184 1.3615798950195312
0.05562832951545715 -0.13534757494926453 1.2898072004318237
0.19465473294258118 -0.0036290939897298813 0.8599134683609009
0.1956772804260254 -0.05508631095290184 0.9251449108123779
0.11747191846370697 -0.2289821207523346 1.0524537563323975
-0.2543303966522217 -0.11251470446586609 1.125870943069458
-0.19504612684249878 -0.08183075487613678 0.9204080700874329
-0.20951205492019653 -0.07444821298122406 0.8683081865310669
-0.10212855041027069 0.059406962245702744 1.3869396448135376
-0.07672754675149918 0.09228622168302536 1.2667746543884277
-0.12995010614395142 -0.016489218920469284 1.4904136657714844
-0.1411811113357544 -0.05790743604302406 1.026381015777588
-0.14785805344581604 -0.09032000601291656 1.062925100326538
-0.12808142602443695 -0.014478512108325958 1.490594744682312
-0.12893466651439667 -0.02643224224448204 1.4781944751739502
-0.13145922124385834 -0.018941067159175873 1.4874991178512573
-0.13182523846626282 -0.02392232045531273 1.4883297681808472
-0.1376449018716812 -0.03483015298843384 1.4771090745925903
-0.20015504956245422 -0.12332181632518768 0.16696377098560333
-0.15083077549934387 -0.0982503741979599 1.6057469844818115
-0.04165901988744736 -0.03735659271478653 1.1919357776641846
-0.1606200486421585 -0.13857148587703705 0.05333199352025986
-0.05920180678367615 -0.0440862812101841 1.2304679155349731
-0.01707698404788971 -0.048006556928157806 1.1500532627105713
-0.03614252060651779 0.09204454720020294 0.9199572801589966
-0.04591885954141617 -0.0719020739197731 1.699276089668274
-0.05805369094014168 -0.07294277846813202 0.6920334100723267
0.02066144347190857 0.07309313118457794 1.2778091430664062
-0.005379121750593185 -0.19430115818977356 0.9901682138442993
-0.061280153691768646 -0.1967867612838745 1.197015643119812
0.07272908836603165 0.09868749976158142 1.1756689548492432
0.101839080452919 -0.07606828212738037 0.16593068838119507
0.05140037089586258 -0.18235602974891663 0.9814777374267578
0.10680946707725525 -0.1765466332435608 0.9639818072319031
0.06890399008989334 -0.003180805593729019 1.5039606094360352
0.03359422832727432 -0.1832546591758728 1.1484123468399048
0.018861887976527214 -0.057708270847797394 1.149660348892212
0.08073581755161285 -0.04518428444862366 1.0816996097564697
0.08273426443338394 0.05418911576271057 0.9522233009338379
0.15189799666404724 -0.1635911613702774 -0.0005546640604734421
0.12848296761512756 -0.15550349652767181 -0.006209414452314377
0.17894627153873444 -0.13752108812332153 0.0034557171165943146
0.1825888603925705 -0.1283857673406601 0.22188429534435272
0.07162775844335556 -0.07946382462978363 1.4170727729797363
0.07396738231182098 -0.08071939647197723 1.4198496341705322
0.04977366700768471 -0.1001557856798172 1.2915350198745728
0.05398517847061157 -0.12872314453125 1.2780628204345703
0.20955733954906464 0.10397234559059143 1.1109976768493652
0.20650680363178253 0.08543607592582703 1.0685559511184692
0.2161221206188202 0.08878107368946075 1.0665796995162964
0.13826951384544373 -0.1965448558330536 1.0372470617294312
0.1153041422367096 -0.25068479776382446 1.034523367881775
0.12065961211919785 -0.27515146136283875 1.0280252695083618
-0.2399483025074005 -0.06551797688007355 1.0624034404754639
-0.17516429722309113 -0.18101131916046143 1.1677802801132202
-0.17978346347808838 -0.07374362647533417 0.35207951068878174
-0.006579652428627014 0.13958153128623962 1.022648811340332
-0.1183590218424797 -0.14540793001651764 1.057565450668335
-0.03307226300239563 -0.045921098440885544 0.836795449256897
-0.05425156652927399 -0.035125892609357834 0.7989553213119507
-0.0496295727789402 -0.08776022493839264 0.8030679225921631
-0.00938203651458025 -0.007990977726876736 1.0975730419158936
0.021365826949477196 -0.20651286840438843 0.8327412605285645
0.09366491436958313 0.0125734843313694 0.8570171594619751
0.14246556162834167 0.10216732323169708 1.1282423734664917
0.08190413564443588 -0.04138104245066643 1.5131537914276123
0.09429869055747986 -0.021050458773970604 1.4963860511779785
0.1822664439678192 -0.12334926426410675 0.9246445894241333
-0.17893508076667786 -0.1908096969127655 1.1376107931137085
-0.12151219695806503 0.025191649794578552 1.5273631811141968
0.019517794251441956 0.14481011033058167 1.0668950080871582
-0.09987159818410873 0.04447810351848602 1.559954285621643
-0.08173567801713943 0.012120336294174194 1.5445129871368408
-0.054900817573070526 0.0010212548077106476 1.5242211818695068
0.012151140719652176 -0.2016523778438568 1.0468515157699585
0.02046477049589157 -0.16584578156471252 1.233836054801941
0.13568440079689026 -0.13540947437286377 0.14109711349010468
0.05891081690788269 -0.15577736496925354 1.1944198608398438
0.07434584200382233 -0.14032727479934692 1.1455565690994263
0.11794684827327728 0.01230437308549881 1.414055585861206
0.1095646396279335 0.042160823941230774 1.4311476945877075
0.08182724565267563 -0.1025443896651268 1.1555702686309814
0.11976224929094315 -0.07644124329090118 0.8276968002319336
0.03168462961912155 -0.2023335099220276 1.2206144332885742
0.14504152536392212 0.04140801355242729 1.3518881797790527
-0.0762094110250473 0.08327047526836395 1.3421465158462524
-0.17285829782485962 0.0011209207586944103 0.35899171233177185
0.037336140871047974 -0.10262928903102875 0.7147244215011597
-0.01058797538280487 -0.1597549319267273 1.6205472946166992
-0.05341837927699089 0.15804730355739594 1.1046319007873535
-0.1606123149394989 -0.10329820960760117 1.2466108798980713
-0.1303262859582901 -0.037243690341711044 0.3902909755706787
0.036483414471149445 0.08074221014976501 1.4627034664154053
0.10862764716148376 -0.160088911652565 0.006047692149877548
0.07016503065824509 -0.09138727188110352 1.4578461647033691
0.06685157120227814 -0.08941583335399628 1.457872986793518
0.0664089247584343 -0.08596280962228775 1.3796470165252686
0.17641030251979828 -0.11581753194332123 0.1887613832950592
0.17834140360355377 -0.08142220228910446 0.1716795414686203
0.06699150800704956 -0.173785001039505 1.2000596523284912
-0.1717035174369812 -0.1545540690422058 0.9198951721191406
-0.08501975983381271 0.07049687206745148 1.3664324283599854
-0.08529767394065857 0.06769729405641556 1.3685543537139893
-0.0900588184595108 0.06722772121429443 1.3677667379379272
-0.14551903307437897 -0.06784687936306 0.18962472677230835
-0.0314934104681015 -0.09913633018732071 0.8396128416061401
0.1067546084523201 -0.11092543601989746 0.13078570365905762
0.07232172787189484 -0.2010059803724289 1.1628022193908691
0.05269439145922661 -0.12075063586235046 1.5827984809875488
0.13368582725524902 -0.09780484437942505 0.7794531583786011
0.13528850674629211 0.00761733204126358 1.386053204536438
0.1390480250120163 0.024955447763204575 1.3595117330551147
0.10336100310087204 -0.059874363243579865 0.028608299791812897
-0.0721253976225853 -0.5031088590621948 1.1032103300094604
-0.06418059021234512 -0.4825233221054077 1.0730735063552856
-0.06839336454868317 -0.48924440145492554 1.0776053667068481
-0.07374262809753418 -0.47921687364578247 1.0855010747909546
-0.07673296332359314 -0.500420093536377 1.0895135402679443
-0.06931712478399277 -0.49748292565345764 1.1012468338012695
0.007679436821490526 -0.39345216751098633 1.0592970848083496
-0.00420136284083128 -0.39407870173454285 1.057869791984558
-0.004556495696306229 -0.413347065448761 1.0671554803848267
-0.012637045234441757 -0.41928574442863464 1.0718622207641602
0.06656647473573685 -0.2875584661960602 0.9763436913490295
0.06234777718782425 -0.2912367284297943 0.9949156045913696
0.0657607838511467 -0.297763466835022 0.9722229838371277
-0.01690133661031723 -0.4073043763637543 1.026719093322754
-0.02130870707333088 -0.41957640647888184 1.0435302257537842
-0.012547874823212624 -0.4360377788543701 1.093213677406311
-0.011921267956495285 -0.42914533615112305 1.0832377672195435
0.04520953446626663 -0.3204224109649658 0.9617300033569336
0.038295771926641464 -0.3268532156944275 0.9813868999481201
0.044899459928274155 -0.34846991300582886 1.0490515232086182
0.04374905675649643 -0.3438231348991394 1.0418044328689575
-0.04856181889772415 -0.4858473837375641 1.1106375455856323
-0.053613245487213135 -0.4737834632396698 1.0673736333847046
0.06693099439144135 -0.29844069480895996 0.9606797099113464
0.05941532179713249 -0.3026489019393921 0.9564920663833618
0.18309110403060913 -0.17276617884635925 1.0157438516616821
0.17899996042251587 -0.1790776252746582 1.01554536819458
0.18091876804828644 -0.17194533348083496 0.994857668876648
-0.033684391528367996 -0.4547175168991089 1.091676950454712
-0.04209797829389572 -0.4708557724952698 1.097061038017273
0.06621991097927094 -0.3007611930370331 0.9559636116027832
0.06267023086547852 -0.30338549613952637 0.946472704410553
-0.08806988596916199 -0.5240296125411987 1.0550384521484375
-0.08906085789203644 -0.5311775207519531 1.0669903755187988
0.19738200306892395 -0.16108906269073486 1.0078027248382568
0.1916080266237259 -0.1685739904642105 1.0204651355743408
0.19164882600307465 -0.16132161021232605 1.0010836124420166
0.1845892071723938 -0.16832804679870605 0.9930431246757507
-0.09788383543491364 -0.5523121356964111 1.1218026876449585
-0.10338616371154785 -0.5675566792488098 1.1358788013458252
-0.10566973686218262 -0.5671883225440979 1.1170363426208496
0.011209750548005104 -0.3729180097579956 0.9966874122619629
0.0079867634922266 -0.38634198904037476 1.0013740062713623
-0.007151356898248196 -0.4002315104007721 0.993061900138855
0.002694416791200638 -0.396287739276886 0.9955591559410095
0.1907404661178589 -0.17743083834648132 1.0239770412445068
0.1948200762271881 -0.16395696997642517 0.9948015809059143
-0.0179606806486845 -0.4514765739440918 1.106787085533142
-0.01038338802754879 -0.45288246870040894 1.10994553565979
-0.027907030656933784 -0.4620341956615448 1.1102200746536255
-0.03496663272380829 -0.4774089753627777 1.1165096759796143
0.033776577562093735 -0.34818190336227417 0.9798761010169983
0.02608523890376091 -0.3592371940612793 0.9777342677116394
0.02240891009569168 -0.3582964539527893 0.9854472875595093
0.19810286164283752 -0.16621831059455872 1.0000203847885132
0.19112686812877655 -0.17663732171058655 1.0222456455230713
0.18846136331558228 -0.17702032625675201 0.9963815212249756
0.07020081579685211 -0.28630176186561584 0.9141898155212402
0.0668962374329567 -0.28903377056121826 0.908621072769165
0.06915687024593353 -0.29347676038742065 0.9327006936073303
0.06884085386991501 -0.29707950353622437 0.9228893518447876
0.06637769192457199 -0.2913464903831482 0.9176465272903442
-0.006771145388484001 -0.4196535646915436 0.991111159324646
-0.009390660561621189 -0.40853172540664673 0.9854708909988403
-0.010884535498917103 -0.41323423385620117 0.9747347831726074
-0.016944993287324905 -0.4129676818847656 0.9779700040817261
0.18795646727085114 -0.17634642124176025 1.0069423913955688
-0.09800831228494644 -0.5731052160263062 1.1411007642745972
-0.10510040074586868 -0.5710173845291138 1.1247587203979492
-0.10241985321044922 -0.5838038921356201 1.1394048929214478
-0.11117558181285858 -0.5813879370689392 1.1450093984603882
-0.10730938613414764 -0.5650055408477783 1.1091445684432983
0.08836639672517776 -0.2988121211528778 0.972471296787262
0.07186627388000488 -0.30459195375442505 0.9614290595054626
-0.07386491447687149 -0.5157524347305298 1.0485167503356934
-0.09187691658735275 -0.533881425857544 1.0607832670211792
-0.09382349997758865 -0.5456876754760742 1.0768839120864868
0.06028077006340027 -0.351701021194458 1.0447643995285034
0.05117055028676987 -0.3629949688911438 1.0497733354568481
0.0467873141169548 -0.3730062246322632 1.046750545501709
-0.010263100266456604 -0.4522552788257599 1.1094163656234741
-0.013475684449076653 -0.45869961380958557 1.1020432710647583
-0.037403326481580734 -0.4928911328315735 1.117079257965088
-0.004074413329362869 -0.43213462829589844 1.0899481773376465
-0.04910093545913696 -0.4968762993812561 1.0599383115768433
-0.07141700387001038 -0.5189439654350281 1.0642296075820923
0.06249019503593445 -0.3501351475715637 1.041377067565918
-0.005251675844192505 -0.4458596706390381 1.0745481252670288
0.008804716169834137 -0.43192750215530396 1.0675984621047974
-0.009505856782197952 -0.45527884364128113 1.0831197500228882
-0.08870578557252884 -0.5540558099746704 1.1102937459945679
-0.08329122513532639 -0.5446468591690063 1.0982338190078735
-0.01295764371752739 -0.432481586933136 1.0265198945999146
-0.009689978323876858 -0.4371710419654846 1.0378220081329346
-0.019910182803869247 -0.44970574975013733 1.0462275743484497
-0.013194095343351364 -0.4536629021167755 1.0543689727783203
0.02847839519381523 -0.3963538408279419 1.0509419441223145
0.0021930746734142303 -0.42014458775520325 1.0650099515914917
-0.040125370025634766 -0.4913727045059204 1.1002219915390015
-0.049084946513175964 -0.5107636451721191 1.0970808267593384
-0.05801846459507942 -0.5085570812225342 1.1040560007095337
-0.04001577943563461 -0.4885708689689636 1.0739874839782715
-0.04409225285053253 -0.4953991770744324 1.0702226161956787
0.014153714291751385 -0.41329264640808105 1.0215764045715332
0.0014629866927862167 -0.42518794536590576 1.0271852016448975
0.009609133936464787 -0.40294957160949707 1.005760908126831
0.0018335860222578049 -0.4224255681037903 1.0171641111373901
-0.008648684248328209 -0.4281078577041626 1.0280903577804565
0.023744521662592888 -0.39798587560653687 1.0295987129211426
0.032799482345581055 -0.3912856876850128 1.0298250913619995
0.03024822659790516 -0.379326194524765 1.0020829439163208
0.030765898525714874 -0.38796669244766235 1.017346978187561
-0.05160696059465408 -0.5023813843727112 1.0755304098129272
-0.05632111430168152 -0.5156369209289551 1.0852293968200684
-0.05613689869642258 -0.5074436068534851 1.0789023637771606
-0.04627242684364319 -0.5137135982513428 1.0818768739700317
0.09082852303981781 -0.31181544065475464 0.9868395924568176
-0.0538707859814167 -0.46392813324928284 1.0891388654708862
-0.06436731666326523 -0.4738054871559143 1.083330750465393
-0.022599119693040848 -0.42131656408309937 1.0664143562316895
-0.024541232734918594 -0.42108529806137085 1.06166672706604
-0.03377258777618408 -0.43035560846328735 1.0715185403823853
-0.030063237994909286 -0.4255681335926056 1.0618793964385986
-0.030528975650668144 -0.433184415102005 1.071830153465271
-0.002223631367087364 -0.40139853954315186 1.0400652885437012
-0.013714022934436798 -0.404622882604599 1.043273687362671
0.002664630301296711 -0.3880014419555664 1.0334938764572144
-0.030217276886105537 -0.43485528230667114 1.075475811958313
-0.06848600506782532 -0.49292540550231934 1.0576562881469727
-0.07538064569234848 -0.502712607383728 1.0819947719573975
-0.02676982805132866 -0.42600587010383606 1.0400502681732178
-0.08753473311662674 -0.5146259069442749 1.1000560522079468
-0.09449511021375656 -0.5339270830154419 1.1002442836761475
-0.08395209163427353 -0.522480845451355 1.0891685485839844
-0.10011764615774155 -0.5449343919754028 1.113901138305664
0.0829305425286293 -0.2850460708141327 0.9921467900276184
0.07883302122354507 -0.3172317147254944 1.0629205703735352
0.06999105960130692 -0.3182370662689209 1.0588288307189941
0.07617248594760895 -0.32116496562957764 1.065381407737732
0.03618498146533966 -0.3400075435638428 0.9838228225708008
0.1738378405570984 -0.1764151155948639 0.9867931604385376
0.17912635207176208 -0.1843571811914444 1.0293381214141846
0.17056556046009064 -0.19410713016986847 1.0244261026382446
0.1679856777191162 -0.1905745267868042 1.0152933597564697
0.014906301163136959 -0.40183502435684204 1.0687569379806519
-0.05497070029377937 -0.4974127411842346 1.1246953010559082
-0.10163521021604538 -0.5475335121154785 1.0931832790374756
0.13790513575077057 -0.21719308197498322 0.9879876375198364
0.1292421817779541 -0.23965251445770264 0.9847579002380371
0.024951640516519547 -0.3865465521812439 1.0709105730056763
0.014841602183878422 -0.39105868339538574 1.0659489631652832
-0.004199134185910225 -0.4177438020706177 1.0758458375930786
-0.10389872640371323 -0.5561702251434326 1.093680500984192
-0.10584339499473572 -0.5739257335662842 1.1462410688400269
-0.1059918999671936 -0.5809188485145569 1.1501251459121704
-0.11291209608316422 -0.5767894387245178 1.1322846412658691
0.09982787072658539 -0.27153289318084717 0.9891651272773743
0.09298025816679001 -0.2847030460834503 0.9933549761772156
0.005205078981816769 -0.42094454169273376 1.0740821361541748
0.0793762058019638 -0.28671136498451233 0.9755282402038574
-0.0924377515912056 -0.5386050343513489 1.0693448781967163
0.11052249372005463 -0.28937631845474243 1.073742151260376
0.11133529245853424 -0.29072996973991394 1.0693743228912354
0.10189837962388992 -0.2978121042251587 1.06208336353302
0.10070589184761047 -0.3022543787956238 1.0734695196151733
0.09584909677505493 -0.31243300437927246 1.075925588607788
0.08821514993906021 -0.2997044622898102 1.038100242614746
0.098402239382267 -0.2992631196975708 1.0436948537826538
-0.11019566655158997 -0.5814887285232544 1.151923418045044
-0.02813672088086605 -0.4395623803138733 1.03053617477417
-0.03054257668554783 -0.45042234659194946 1.037566065788269
-0.034045420587062836 -0.45093584060668945 1.0405360460281372
-0.01731126382946968 -0.42730414867401123 1.0125184059143066
0.10706540942192078 -0.30260759592056274 1.0698587894439697
0.09725875407457352 -0.31641316413879395 1.0739063024520874
0.06581826508045197 -0.30781614780426025 0.948547899723053
0.10630322247743607 -0.29882246255874634 1.0701613426208496
0.10175646096467972 -0.30089741945266724 1.0620814561843872
-0.011644545011222363 -0.4414485692977905 1.0967775583267212
0.06114955618977547 -0.31367868185043335 0.9236090779304504
0.06016664206981659 -0.31129568815231323 0.9155054092407227
0.0472702719271183 -0.3183279037475586 0.9106795787811279
0.04501771181821823 -0.3257501721382141 0.9173492193222046
0.10057257115840912 -0.297770619392395 0.9929239153862
0.08845970034599304 -0.3232828676700592 1.0612692832946777
-0.020974403247237206 -0.4613819718360901 1.0884990692138672
-0.03302091360092163 -0.4778066575527191 1.0985524654388428
0.06155259907245636 -0.32099202275276184 0.9497044086456299
0.06277230381965637 -0.32599589228630066 0.950158953666687
0.05577343329787254 -0.32102876901626587 0.9359194040298462
-0.02766503021121025 -0.47722482681274414 1.0915699005126953
-0.02035578154027462 -0.46324294805526733 1.079125165939331
-0.025325322523713112 -0.4694575369358063 1.063981056213379
-0.016048813238739967 -0.45947831869125366 1.0588265657424927
-0.08083727955818176 -0.5304451584815979 1.0809035301208496
-0.0752260759472847 -0.5329107046127319 1.08353590965271
0.0732506513595581 -0.32031914591789246 0.9653300046920776
0.08157296478748322 -0.32616540789604187 1.0117264986038208
0.07367989420890808 -0.34171611070632935 1.0103943347930908
0.0746459886431694 -0.3348584771156311 1.000810980796814
0.061126742511987686 -0.35058093070983887 1.016376256942749
0.05240825563669205 -0.35458463430404663 1.0105704069137573
-0.03052469901740551 -0.4848634600639343 1.0759416818618774
-0.020732687786221504 -0.47536501288414 1.0732407569885254
-0.03929855674505234 -0.5067867040634155 1.0907838344573975
0.01385480910539627 -0.4353007376194 1.0564652681350708
-0.0035231728106737137 -0.4551657438278198 1.0694100856781006
0.006029119715094566 -0.4370781183242798 1.0581328868865967
-0.007706303149461746 -0.4454743564128876 1.055572509765625
-0.0057624150067567825 -0.45395153760910034 1.0621567964553833
-0.006264016963541508 -0.4417826533317566 1.0631322860717773
-0.007453568279743195 -0.4565228819847107 1.0637282133102417
-0.04165860265493393 -0.5172332525253296 1.0907788276672363
-0.04477228224277496 -0.510826051235199 1.080379843711853
-0.06054362282156944 -0.477027952671051 1.0939831733703613
