0.46218323707580566 -0.031184706836938858 0.5808098316192627
0.4981801211833954 -0.06582950800657272 0.8074142932891846
0.46457135677337646 -0.10940653085708618 0.784434974193573
0.4831066131591797 -0.11381446570158005 0.7293134927749634
0.4668389856815338 -0.1294942945241928 0.7861414551734924
0.4701441824436188 -0.14212070405483246 0.7142138481140137
0.48468872904777527 -0.10706830024719238 0.8552275896072388
0.5163901448249817 -0.1009131669998169 0.8003308176994324
0.479140967130661 -0.09240801632404327 0.5775486826896667
0.4548981189727783 -0.11074335128068924 0.5202702879905701
0.4855874478816986 -0.04460476338863373 0.5406244993209839
0.5255734920501709 -0.07572121918201447 0.876987874507904
0.49334806203842163 -0.06162562221288681 0.6773161888122559
0.48119834065437317 -0.12336956709623337 0.6348244547843933
0.5002768039703369 -0.11145191639661789 0.62977135181427
0.5065067410469055 -0.08487382531166077 0.5569334626197815
0.5638927817344666 -0.06768819689750671 0.80756014585495
0.5760157108306885 -0.06406740844249725 0.7744096517562866
0.549028754234314 -0.06462927162647247 0.6101391315460205
0.5500574707984924 -0.0813753604888916 0.628580629825592
0.5454397201538086 -0.07403091341257095 0.9707082509994507
0.6210842132568359 -0.05314203351736069 0.9208827614784241
0.5874985456466675 -0.07135829329490662 0.9140263795852661
0.6279064416885376 -0.07883276045322418 1.0944995880126953
0.6141995191574097 -0.07104848325252533 1.0548431873321533
0.607093095779419 -0.06630221754312515 1.0514978170394897
0.6098330020904541 -0.08098051697015762 1.0343754291534424
0.6260932087898254 -0.061598435044288635 0.9740389585494995
0.6216762065887451 -0.07123662531375885 0.9907132983207703
-0.5993395447731018 0.04342958703637123 1.0188578367233276
-0.5925859808921814 0.020867586135864258 1.0261462926864624
-0.596653163433075 -0.0003260970115661621 0.993359386920929
-0.511508584022522 -0.04518618434667587 0.6861140727996826
-0.5153450965881348 -0.08732913434505463 0.6448749303817749
-0.49632275104522705 -0.06781583279371262 0.8597902655601501
-0.5199189186096191 -0.06889545172452927 0.8112530708312988
-0.508678674697876 -0.10367915034294128 0.83925461769104
-0.5266980528831482 -0.08877786248922348 0.741533637046814
-0.4962453246116638 -0.07460878044366837 0.7474845051765442
-0.4955626130104065 -0.09863579273223877 0.7088598608970642
-0.49409744143486023 -0.05632241442799568 0.9957164525985718
-0.4882575273513794 -0.07867326587438583 0.944515585899353
-0.5004769563674927 -0.0602293461561203 0.9522857666015625
-0.4944119453430176 -0.10049059987068176 0.7734376788139343
-0.49025487899780273 -0.07483889907598495 0.7807788252830505
-0.4888375699520111 -0.0943516343832016 0.867347002029419
-0.4985467195510864 -0.06942232698202133 0.8302152156829834
-0.4806230068206787 0.006350204348564148 1.1452020406723022
-0.4402598738670349 -0.007831893861293793 0.9834935665130615
-0.39706215262413025 -0.026447243988513947 1.0073351860046387
-0.3982502818107605 -0.006234470754861832 1.0085475444793701
-0.4235261082649231 -0.03785179555416107 1.1499890089035034
-0.38701507449150085 -0.023553140461444855 1.0905402898788452
-0.3921576738357544 -0.004833504557609558 1.0384502410888672
-0.39111804962158203 -0.022259386256337166 1.0260047912597656
-0.32106682658195496 -0.037346579134464264 1.3676880598068237
-0.3436204195022583 -0.007068857550621033 1.1169519424438477
-0.3160873055458069 -0.03680693730711937 1.1482003927230835
-0.31323695182800293 -0.0011754799634218216 1.115644931793213
-0.24820742011070251 -0.022586993873119354 1.14762544631958
-0.2726026177406311 -0.004959773272275925 1.1257658004760742
-0.1962236613035202 -0.01754745841026306 1.2035646438598633
0.3766048550605774 -0.05512037128210068 0.9578976035118103
0.5108658671379089 -0.12719838321208954 1.4021193981170654
0.4489803910255432 -0.06294266134500504 0.9081968665122986
0.3887227773666382 -0.04276786744594574 0.9024805426597595
0.41593873500823975 -0.07417750358581543 0.8879268169403076
0.41902709007263184 -0.05893835797905922 0.8834764957427979
0.4470866322517395 -0.08051016926765442 1.0747748613357544
0.4384615421295166 -0.10600372403860092 0.897816002368927
0.44389310479164124 -0.10481460392475128 0.8436229825019836
0.43911704421043396 -0.13229168951511383 0.8597165942192078
0.4370613098144531 -0.12405390292406082 0.8332794308662415
0.43796107172966003 -0.10108543932437897 0.7872939705848694
0.42797598242759705 -0.07241617888212204 0.6029238700866699
0.4289279282093048 -0.06531114131212234 0.5572689771652222
0.45345333218574524 -0.05467042699456215 0.5443576574325562
0.47942396998405457 -0.07788480073213577 0.8804195523262024
0.4819347858428955 -0.06978372484445572 0.8470728993415833
0.472192645072937 -0.11712902784347534 0.8106852173805237
0.4539806842803955 -0.11718595027923584 0.7749133706092834
0.4436888098716736 -0.1392965316772461 0.7389096021652222
0.5194279551506042 -0.1205553263425827 1.1645736694335938
0.5265788435935974 -0.07653210312128067 0.8073869943618774
0.5427068471908569 -0.07587992399930954 0.7611707448959351
0.5493878722190857 -0.09496627002954483 0.9232147932052612
0.5414867401123047 -0.09594839066267014 0.588347852230072
0.5273652672767639 -0.058798156678676605 0.5668400526046753
0.5498683452606201 -0.09496400505304337 0.7833611965179443
0.5465987324714661 -0.09661392867565155 0.7335089445114136
0.6566182971000671 -0.07204363495111465 0.9011802673339844
0.6093282699584961 -0.10311019420623779 0.8602019548416138
0.6207190155982971 -0.08140803128480911 0.8592055439949036
0.6101807355880737 -0.08494109660387039 0.7314566969871521
0.6091648936271667 -0.07654665410518646 0.7474859356880188
-0.5806291103363037 0.05191116780042648 1.1761448383331299
-0.5459190607070923 -0.023006636649370193 0.6488720774650574
-0.5261658430099487 -0.04594694823026657 0.9462552070617676
-0.5164815187454224 -0.06417059153318405 0.9133378267288208
-0.5309755206108093 -0.022929612547159195 0.9973957538604736
-0.47964873909950256 -0.006719205528497696 1.4300580024719238
-0.5044965147972107 0.006876740604639053 1.0329394340515137
-0.5016123056411743 -0.005572531372308731 0.9986628293991089
-0.4810028076171875 -0.045603085309267044 0.6609571576118469
-0.46933382749557495 -0.017647013068199158 0.6619476675987244
-0.476042777299881 -0.06266233325004578 0.9469681978225708
-0.48031291365623474 -0.07299886643886566 0.8949020504951477
-0.4756368398666382 -0.0803622379899025 0.9315739274024963
-0.473649799823761 -0.021590694785118103 1.3811061382293701
-0.4657942056655884 0.005691263824701309 1.280629277229309
-0.2502150237560272 -0.0008138678967952728 1.224088191986084
0.12055832147598267 -0.06208366900682449 1.2202847003936768
0.11108438670635223 -0.07666538655757904 1.2256587743759155
0.19191743433475494 -0.07870270311832428 1.131460428237915
0.1706138551235199 -0.04750148952007294 1.075085163116455
0.2789194583892822 -0.06188313290476799 1.1559622287750244
0.3083561956882477 -0.05471375584602356 1.0290273427963257
0.2976894974708557 -0.0648016557097435 1.013565182685852
0.4147668480873108 -0.10399527847766876 1.122814416885376
0.46532291173934937 -0.12314285337924957 1.1869779825210571
0.43660086393356323 -0.1011723130941391 1.0162221193313599
0.4350965619087219 -0.13344603776931763 0.7462462186813354
0.45462584495544434 -0.11175290495157242 0.7024849653244019
0.4431501626968384 -0.12773004174232483 0.6563585996627808
0.4458901882171631 -0.10169726610183716 0.613806962966919
0.5032532215118408 -0.10028663277626038 0.9327185153961182
0.47060316801071167 -0.12184873968362808 0.5372183322906494
-0.5806427597999573 0.006691116839647293 1.0135822296142578
-0.45572328567504883 -0.039946671575307846 0.8067331910133362
-0.4530084729194641 -0.04284735023975372 0.7546688318252563
-0.45723676681518555 -0.018827900290489197 1.525946855545044
-0.34283214807510376 -0.009880483150482178 1.1036087274551392
-0.33790671825408936 -0.006865125149488449 1.074629783630371
-0.3120648264884949 -0.014968398958444595 1.0954254865646362
-0.2535977363586426 -0.003449114039540291 1.129790186882019
-0.14503459632396698 -0.028813479468226433 1.2697590589523315
-0.1480075716972351 -0.04840656369924545 1.2680026292800903
0.3926401734352112 -0.11688806116580963 1.2586815357208252
0.43968698382377625 -0.1259922981262207 1.2938485145568848
0.48143601417541504 -0.07409471273422241 0.9093894958496094
0.4570114314556122 -0.05792747810482979 0.8452838659286499
0.46948036551475525 -0.11011373996734619 1.0064325332641602
0.43290406465530396 -0.09386039525270462 0.7353420257568359
0.5299391746520996 -0.0995802953839302 0.9690195322036743
0.5384340882301331 -0.1004815474152565 1.0537326335906982
0.5872142910957336 -0.09104811400175095 0.8917734026908875
0.5740234851837158 -0.09286800026893616 0.8316472172737122
0.5518302917480469 -0.10082171112298965 0.6722819805145264
0.48772987723350525 -0.10535949468612671 0.5961605310440063
0.5584680438041687 -0.07869093120098114 0.6665478348731995
-0.531342625617981 -0.049606114625930786 0.6613792181015015
-0.49595457315444946 -0.02422027476131916 0.6572371125221252
-0.5002498030662537 -0.0684797391295433 0.8545836210250854
-0.5034754276275635 -0.06394442915916443 0.7111011743545532
-0.47158530354499817 -0.058244407176971436 0.6973453164100647
-0.445870578289032 -0.03544985502958298 1.000653862953186
-0.26210957765579224 -0.030771100893616676 1.2287931442260742
-0.26776406168937683 -0.0223254207521677 1.176513671875
-0.2790658473968506 -0.01101398840546608 1.1531331539154053
-0.226496160030365 -0.03507053852081299 1.2165732383728027
-0.2218451201915741 -0.034586455672979355 1.149208664894104
-0.22466138005256653 -0.01685308665037155 1.1410365104675293
0.17425255477428436 -0.03284713625907898 1.0838123559951782
0.4285326600074768 -0.09620523452758789 0.9475212097167969
0.4694511294364929 -0.11592108756303787 0.9331552982330322
0.47127580642700195 -0.1194300651550293 0.888294517993927
0.533635139465332 -0.1109061986207962 0.7199043035507202
-0.563927948474884 -0.021334992721676826 0.7501274943351746
-0.564193844795227 -0.03965262323617935 0.7126486301422119
-0.5620067715644836 -0.02786213345825672 0.7089694738388062
-0.5154196619987488 0.0017667338252067566 0.9215907454490662
-0.4772988557815552 -0.05581778287887573 0.869093656539917
-0.4713953733444214 -0.06768535822629929 0.9125602841377258
-0.18518710136413574 -0.03595993295311928 1.2312796115875244
-0.11524885147809982 -0.048943862318992615 1.3459179401397705
-0.10693824291229248 -0.03963343799114227 1.3367727994918823
0.11833396553993225 -0.08777929842472076 1.2330217361450195
0.3161576986312866 -0.1363096386194229 1.5278486013412476
0.4544021487236023 -0.11153962463140488 1.4417306184768677
0.48602956533432007 -0.13120898604393005 1.445325493812561
0.5128487348556519 -0.11981774866580963 1.3703924417495728
0.5894263982772827 -0.08644306659698486 1.1221343278884888
0.6245742440223694 -0.08469810336828232 1.150382161140442
0.6017836928367615 -0.05897387117147446 1.1024922132492065
0.6081051826477051 -0.07906759530305862 1.0804705619812012
0.6353764533996582 -0.06548761576414108 1.0966960191726685
-0.5981993675231934 0.04674222320318222 1.1122667789459229
-0.5892031192779541 0.0596928671002388 1.0992496013641357
-0.5577166080474854 0.04803142324090004 1.3414061069488525
-0.5438080430030823 0.04932522773742676 1.3221486806869507
-0.5268297791481018 0.004104211926460266 0.6950889825820923
-0.5251070857048035 -0.003138255327939987 0.6535756587982178
-0.5195900201797485 -0.07059552520513535 0.751237154006958
-0.5153160691261292 -0.005012456327676773 0.874203085899353
-0.4962792992591858 0.010105632245540619 1.0788357257843018
-0.4382815957069397 -0.019566982984542847 1.5670889616012573
0.19416561722755432 -0.05343284457921982 1.1407370567321777
0.30107712745666504 -0.08203709125518799 1.3322820663452148
0.3347931206226349 -0.06075013428926468 1.034235954284668
0.35466286540031433 -0.06733900308609009 1.1580805778503418
0.3666198253631592 -0.06227228417992592 0.9577587246894836
0.3784513771533966 -0.06329909712076187 0.9068167209625244
0.3929060995578766 -0.0957818254828453 0.975674569606781
0.43133917450904846 -0.06512425094842911 0.7019909024238586
0.43917471170425415 -0.07272153347730637 0.6891595721244812
0.47416648268699646 -0.12114600837230682 0.733537495136261
0.5654364824295044 -0.07827982306480408 0.8970212340354919
0.5408034324645996 -0.053521886467933655 0.6944599151611328
-0.5474380850791931 -0.03798295184969902 0.6765223741531372
-0.5220911502838135 -0.02864643558859825 0.6358804106712341
-0.3261610269546509 0.006925184279680252 1.0779050588607788
-0.2581145465373993 0.0037958957254886627 1.1511821746826172
-0.2074335217475891 -0.02784579247236252 1.1901659965515137
0.522179126739502 -0.058029282838106155 0.7293729782104492
0.5013496279716492 -0.056400321424007416 0.512069046497345
0.5138383507728577 -0.06232985854148865 0.5234949588775635
-0.5115824937820435 -0.06750582158565521 0.8916329145431519
-0.47164079546928406 -0.04457615688443184 0.8204372525215149
-0.47260627150535583 -0.0600893571972847 0.7756839990615845
0.5211284756660461 -0.11099439859390259 1.2931092977523804
0.5137064456939697 -0.03798949718475342 0.5213413238525391
0.5975724458694458 -0.09158284962177277 0.7939290404319763
-0.2427365928888321 -0.006037868559360504 1.2996304035186768
0.5965425968170166 -0.08488848805427551 0.8831621408462524
-0.4525706171989441 -0.03266558796167374 0.892179012298584
0.4430180490016937 -0.1142285019159317 0.5575695633888245
0.5836862325668335 -0.08066986501216888 0.8730545043945312
-0.5147866606712341 -0.08644243329763412 0.8562076091766357
-0.3335975408554077 -0.034615833312273026 0.8988521695137024
-0.3403269648551941 -0.03317023068666458 0.9102246761322021
-0.3299957811832428 -0.06386587768793106 0.9026151299476624
-0.341226726770401 -0.06234158203005791 0.9104142189025879
-0.30743637681007385 -0.04191725701093674 0.9760674238204956
-0.3155023157596588 -0.04637427255511284 0.9511966109275818
-0.2974163591861725 -0.023340824991464615 0.9290837645530701
-0.28885316848754883 -0.011203902773559093 0.9704187512397766
-0.3116169273853302 -0.0701085552573204 0.950731635093689
-0.32274511456489563 -0.09422004967927933 0.9304196834564209
-0.2838307321071625 -0.03885895386338234 1.0452828407287598
-0.30249831080436707 -0.0984787791967392 0.9359363913536072
-0.30501672625541687 -0.0572943240404129 0.9465859532356262
-0.30437982082366943 -0.0976785346865654 0.9756487011909485
-0.2938494086265564 -0.06752008199691772 0.9788405299186707
-0.26408106088638306 -0.016208428889513016 1.0270240306854248
-0.2847604751586914 -0.05752003937959671 0.9814859628677368
-0.28994178771972656 -0.07889365404844284 1.001422643661499
-0.28951790928840637 -0.06502224504947662 1.035667061805725
-0.29413294792175293 -0.035071127116680145 1.079939842224121
-0.3065415918827057 -0.08941739052534103 1.0564067363739014
-0.24183158576488495 0.000666662584990263 1.1264913082122803
-0.24686327576637268 0.008524924516677856 1.083871603012085
-0.2885074317455292 -0.05393926799297333 1.110672116279602
-0.21280153095722198 0.009469391778111458 1.0801736116409302
-0.24279353022575378 -0.06806732714176178 1.1709625720977783
-0.27896982431411743 -0.113564632833004 1.1080271005630493
-0.20975029468536377 0.012118822894990444 1.125522494316101
-0.18076084554195404 -0.007564570754766464 1.1402087211608887
-0.18900330364704132 -0.025137335062026978 1.1940077543258667
-0.1629776805639267 -0.027091924101114273 1.200517177581787
-0.18445807695388794 -0.1177748292684555 1.2472567558288574
-0.23582777380943298 -0.11898352205753326 1.1658803224563599
-0.16132406890392303 -0.04547218978404999 1.2431952953338623
-0.19765780866146088 -0.07236692309379578 1.2321052551269531
-0.15878671407699585 -0.06310153007507324 1.279094934463501
-0.1497534215450287 -0.08004909753799438 1.3157885074615479
-0.1508673131465912 -0.129409521818161 1.30821692943573
-0.1853945106267929 -0.1471361517906189 1.1964683532714844
-0.11770825833082199 -0.09365472942590714 1.70084810256958
-0.09060315042734146 0.0025839172303676605 1.4240248203277588
-0.13233694434165955 0.0640723928809166 0.8454314470291138
-0.17650046944618225 0.012939621694386005 0.8376571536064148
-0.14831756055355072 -0.08242817968130112 0.8464770317077637
-0.1903638243675232 -0.11070093512535095 0.8323401212692261
-0.10780642181634903 -0.06852319091558456 1.618151307106018
-0.12244400382041931 -0.10885854065418243 1.7197785377502441
-0.09490634500980377 -0.0948270782828331 1.6738539934158325
-0.07980110496282578 -0.05814564600586891 1.6358954906463623
-0.09409503638744354 -0.07095086574554443 1.5841823816299438
-0.11917854845523834 -0.01418410986661911 1.0394818782806396
-0.16176176071166992 -0.055273327976465225 0.990976870059967
-0.16904184222221375 -0.12101589143276215 0.9715613722801208
-0.09909113496541977 -0.08216148614883423 1.5196502208709717
-0.16641521453857422 -0.09079422801733017 -0.004061713814735413
-0.17242930829524994 -0.17150640487670898 -0.007103411480784416
-0.17628948390483856 -0.1868680715560913 0.022402487695217133
-0.11660883575677872 -0.12882360816001892 1.3628520965576172
-0.10753803700208664 -0.07651510089635849 1.3290965557098389
-0.10432086139917374 -0.09573988616466522 1.3035318851470947
-0.1276824176311493 -0.13916870951652527 1.3465917110443115
-0.11499721556901932 -0.16732192039489746 1.294197678565979
-0.13926950097084045 -0.06679625064134598 0.43135637044906616
-0.13291974365711212 -0.0927344486117363 0.3448667824268341
-0.1422044336795807 -0.04040810093283653 0.2849956154823303
-0.1489294022321701 -0.06841930747032166 0.3113282322883606
-0.09149128943681717 -0.08264826238155365 1.6459836959838867
-0.10993249714374542 -0.1281317174434662 1.2632707357406616
-0.119465172290802 -0.12422707676887512 1.2256836891174316
-0.1186612918972969 -0.15756303071975708 1.2432571649551392
-0.14343523979187012 -0.17266806960105896 1.2341899871826172
-0.13041828572750092 -0.029345596209168434 0.21347033977508545
-0.09914416074752808 -0.14374500513076782 1.5023291110992432
-0.08640690892934799 -0.07611680775880814 1.5203487873077393
-0.09445193409919739 -0.10599981248378754 1.5080453157424927
-0.11776266992092133 -0.10405195504426956 0.5319053530693054
-0.03914215788245201 -0.10729475319385529 1.7269210815429688
-0.11373606324195862 -0.15891432762145996 1.1843461990356445
-0.11035475134849548 -0.07583992183208466 1.1601978540420532
-0.094593346118927 -0.1470997929573059 0.7193431854248047
-0.0429699569940567 -0.05561891943216324 1.6924705505371094
-0.09425753355026245 -0.1592547595500946 1.3653206825256348
-0.0904143676161766 -0.12576565146446228 0.8345977067947388
-0.1341022253036499 -0.1347043365240097 0.8530148267745972
-0.12420468777418137 -0.19876223802566528 0.9031370878219604
-0.10224393755197525 -0.2160148322582245 0.844511866569519
-0.14873361587524414 -0.2116978019475937 0.05871002748608589
-0.008181674405932426 -0.03794906660914421 1.6938728094100952
-0.03388005495071411 -0.09597058594226837 1.7139075994491577
-0.10591714829206467 -0.11596933752298355 1.4223552942276
-0.08497457951307297 -0.1425909399986267 1.4614025354385376
-0.10769016295671463 -0.018786702305078506 0.28326845169067383
-0.12283721566200256 -0.03174589201807976 0.17140258848667145
-0.14451563358306885 -0.19247028231620789 0.09232836961746216
-0.11871084570884705 0.002001974731683731 -0.005106236785650253
-0.08005708456039429 -0.09265577793121338 1.3103238344192505
-0.09583669155836105 -0.12989428639411926 0.5069436430931091
-0.10131426155567169 -0.194743350148201 -0.013061516918241978
-0.14170123636722565 -0.20260761678218842 -0.018652861937880516
-0.05089813470840454 -0.08401478826999664 1.53158700466156
-0.05953322350978851 -0.10915514826774597 1.485983967781067
-0.03147175535559654 -0.21670174598693848 0.9064452052116394
-0.08294375240802765 0.08738904446363449 0.855642557144165
-0.1262093037366867 -0.14520889520645142 0.21833443641662598
-0.09819488227367401 -0.12756267189979553 0.13853588700294495
-0.09943906962871552 -0.0014233309775590897 0.05044448748230934
-0.07091447710990906 -0.0821228176355362 1.282544732093811
-0.08388981968164444 -0.09153978526592255 1.2411322593688965
-0.05510307103395462 -0.2033447027206421 1.2684357166290283
-0.08840625733137131 -0.0541076734662056 0.6316176652908325
-0.07496960461139679 -0.14940333366394043 0.7154200077056885
-0.051534220576286316 -0.12888452410697937 0.802056074142456
-0.08558124303817749 -0.1259729117155075 0.10522447526454926
-0.0937918946146965 -0.1937003880739212 0.06049571931362152
-0.07951655983924866 -0.18889208137989044 1.4482574462890625
-0.061168648302555084 -0.09025731682777405 1.3440577983856201
-0.04054025188088417 -0.07937370985746384 1.289710283279419
-0.06614881753921509 -0.1312464326620102 0.5317646265029907
-0.04666346684098244 -0.1117042824625969 0.5338383316993713
-0.08119982481002808 -0.014977320097386837 0.47348371148109436
-0.059074725955724716 -0.174076110124588 1.4204833507537842
-0.03486412391066551 -0.13459865748882294 1.4067535400390625
-0.06444192677736282 -0.08557774126529694 1.3877644538879395
-0.05448737367987633 -0.05182356759905815 0.48173439502716064
0.007993413135409355 -0.08316454291343689 1.720424771308899
-0.0667247548699379 -0.23951658606529236 1.5652446746826172
-0.037556130439043045 -0.19131721556186676 0.9722522497177124
-0.03670692443847656 -0.14551615715026855 1.4202051162719727
-0.021464040502905846 -0.17230655252933502 1.400521159172058
-0.0405612550675869 -0.15605685114860535 1.3932809829711914
-0.02048363722860813 -0.22982068359851837 1.502047061920166
-0.059555232524871826 -0.21807825565338135 1.4554564952850342
-0.010823145508766174 -0.11891219019889832 1.4366317987442017
-0.04209732636809349 -0.07104415446519852 0.6109076738357544
0.04838094860315323 -0.1254543960094452 1.7276560068130493
0.03206072375178337 -0.021513795480132103 1.6704742908477783
-0.015264932066202164 -0.24106675386428833 1.451361060142517
-0.03147730231285095 -0.2159152626991272 1.4115747213363647
-0.00010167434811592102 -0.12354101240634918 1.4093871116638184
-0.0076378826051950455 -0.2209661453962326 1.4120781421661377
0.028400816023349762 -0.10270671546459198 1.3915209770202637
-0.0053736865520477295 -0.08854885399341583 1.278944492340088
0.051621586084365845 -0.07319168001413345 1.7169299125671387
0.023377206176519394 -0.12880352139472961 1.4364380836486816
0.012428388930857182 -0.1723785400390625 1.415897250175476
0.07893357425928116 -0.05479364097118378 1.6843595504760742
0.05925891175866127 -0.11354437470436096 1.7125502824783325
0.009420889429748058 -0.16721691191196442 1.4040353298187256
0.052127767354249954 -0.1915980875492096 1.435101866722107
0.021413438022136688 -0.14717897772789001 1.4125723838806152
0.03208031505346298 -0.0930076390504837 0.5576145648956299
0.057423435151576996 -0.10405879467725754 1.4711177349090576
0.06177517771720886 -0.1212436780333519 0.4724457561969757
0.0008668676018714905 -0.23782742023468018 1.223010540008545
0.05937337130308151 -0.11876176297664642 1.2447378635406494
0.04996020346879959 -0.10528188943862915 1.1405106782913208
0.0798022449016571 -0.2585003077983856 0.05458937585353851
0.10692846775054932 -0.27001118659973145 0.02660851925611496
0.07679346948862076 -0.06986985355615616 -0.0014949627220630646
0.014177665114402771 -0.21883311867713928 1.2153462171554565
0.00405905582010746 -0.22710368037223816 1.1353869438171387
0.036344632506370544 -0.1421971619129181 0.698394238948822
0.06951655447483063 -0.15765410661697388 -0.03076270967721939
0.10166992992162704 -0.11409986019134521 1.6719970703125
0.049308665096759796 -0.2442692518234253 1.5650864839553833
0.040968939661979675 -0.2211035192012787 1.4912573099136353
0.036905765533447266 -0.21991947293281555 1.4485853910446167
0.08357429504394531 -0.15945406258106232 0.8475229740142822
0.1507423371076584 -0.12498114258050919 1.6946172714233398
0.06715765595436096 -0.10916593670845032 1.5155465602874756
0.06216278672218323 -0.12622509896755219 1.4860951900482178
0.0815788134932518 -0.055299222469329834 0.27744346857070923
0.07503112405538559 -0.04860398545861244 0.21444052457809448
0.09360895305871964 -0.07049998641014099 -0.028771787881851196
0.10131312906742096 -0.1383124142885208 1.747124195098877
0.084641233086586 -0.13103076815605164 1.3797675371170044
0.08829604089260101 -0.21856173872947693 0.8402920961380005
0.06708954274654388 -0.1315285712480545 0.8302093744277954
0.11456146091222763 -0.19391265511512756 0.8293241262435913
0.06780219078063965 -0.04091697558760643 0.7192699313163757
0.1279291957616806 -0.2686048746109009 0.044007230550050735
0.11375592648983002 -0.12433747202157974 1.6809078454971313
0.0351296029984951 -0.19209924340248108 1.1133360862731934
0.03736191242933273 -0.22723382711410522 1.2319062948226929
0.03575446829199791 -0.24630877375602722 1.2267248630523682
0.1300329864025116 -0.1918794810771942 0.8986676931381226
0.0867869034409523 -0.17859598994255066 1.5152053833007812
0.0957256406545639 -0.10613471269607544 1.5272750854492188
0.09168806672096252 -0.12954401969909668 1.5088740587234497
0.09584683179855347 -0.14315223693847656 1.5029149055480957
0.09952478110790253 -0.1553335189819336 1.478248119354248
0.09778822213411331 -0.0682842805981636 0.6130857467651367
0.09441626071929932 -0.13487493991851807 0.6316673755645752
0.08696910738945007 -0.19437144696712494 1.3544102907180786
0.09593219310045242 -0.15180152654647827 1.304036021232605
0.06455886363983154 -0.14487314224243164 1.3276214599609375
0.0664459690451622 -0.15440666675567627 1.2999176979064941
0.09795621037483215 -0.11983752250671387 0.7945337295532227
0.13767853379249573 -0.11291657388210297 -0.025169724598526955
0.15023966133594513 -0.15221470594406128 -0.024659011512994766
0.11648860573768616 -0.12738165259361267 1.6373937129974365
0.10498301684856415 -0.14087046682834625 1.350990653038025
0.141961932182312 -0.10749804228544235 0.26228079199790955
0.1401125192642212 -0.10753095149993896 1.617070198059082
0.11833229660987854 -0.08397455513477325 1.6270159482955933
0.12498149275779724 -0.1064172238111496 1.5879576206207275
0.1514582484960556 -0.13634154200553894 0.06652472168207169
0.15635202825069427 -0.2340366095304489 0.02282530814409256
0.13057169318199158 -0.24822020530700684 0.07220044732093811
0.16648179292678833 -0.01982646808028221 0.9332684278488159
0.13629674911499023 -0.017380161210894585 0.8271213173866272
0.14819835126399994 -0.14003369212150574 1.6877219676971436
0.15961912274360657 0.035443708300590515 0.834060788154602
0.18486520648002625 -0.0030118816066533327 0.8912085294723511
0.11780710518360138 -0.16977673768997192 1.2912508249282837
0.11955425143241882 -0.20053407549858093 1.2716853618621826
0.09218066930770874 -0.20281004905700684 1.325642704963684
0.1159469336271286 -0.1868404895067215 1.2332592010498047
0.10106106847524643 -0.18646538257598877 1.2151939868927002
0.10082527995109558 -0.271859347820282 1.1955225467681885
0.12304206937551498 -0.22825196385383606 1.2275465726852417
0.12358727306127548 -0.20395326614379883 1.1577770709991455
0.11500567197799683 -0.20695306360721588 1.0771899223327637
0.14229276776313782 -0.21357017755508423 1.0844806432724
0.1485907882452011 -0.22965842485427856 1.137236475944519
0.13312438130378723 -0.2663004994392395 1.16243577003479
0.13712696731090546 -0.23325465619564056 1.032744288444519
0.17756682634353638 -0.28487762808799744 1.0777337551116943
0.17572401463985443 -0.26404470205307007 1.0579732656478882
0.15849915146827698 -0.2430373728275299 1.0350227355957031
0.1434614360332489 -0.32663264870643616 1.0703312158584595
0.15195389091968536 -0.2934565544128418 1.0387842655181885
0.14714491367340088 -0.2745501399040222 1.0249438285827637
0.18702004849910736 -0.32925382256507874 0.9292546510696411
0.1367943286895752 -0.3113288879394531 1.038737177848816
0.13907384872436523 -0.32708191871643066 1.0126069784164429
0.1677192598581314 -0.29343050718307495 0.9585721492767334
0.13798177242279053 -0.31226035952568054 0.9893305897712708
0.1388038992881775 -0.33773428201675415 0.9899648427963257
0.15676122903823853 -0.32641685009002686 0.9623403549194336
0.1720772683620453 -0.3257376253604889 0.9577428102493286
0.14060759544372559 -0.3537730276584625 0.9661577343940735
0.1565953493118286 -0.34175440669059753 0.9578171968460083
0.1489146649837494 -0.3463045060634613 0.9655359983444214
0.1829652339220047 -0.33310991525650024 0.9110956192016602
0.15457600355148315 -0.3587111830711365 0.9528785943984985
0.16602486371994019 -0.32371723651885986 0.9270730018615723
0.174617737531662 -0.352472186088562 0.9228713512420654
0.18656539916992188 -0.3446785509586334 0.9261704087257385
-0.2643619179725647 -0.017210323363542557 1.0505340099334717
-0.2750092148780823 -0.07492873817682266 1.021501064300537
-0.2530600130558014 -0.0574440136551857 1.0261317491531372
-0.29125386476516724 -0.10786480456590652 1.0454586744308472
-0.20570142567157745 -0.023641634732484818 1.057809591293335
-0.2633000612258911 -0.10926208645105362 1.0362932682037354
-0.1498434841632843 -0.06430628895759583 1.2193955183029175
-0.16767174005508423 -0.11613695323467255 1.1766324043273926
-0.18388836085796356 -0.09678749740123749 0.9397450685501099
-0.18835705518722534 -0.014801014214754105 0.9098994731903076
-0.13653507828712463 0.05133967474102974 0.9109664559364319
-0.07127173244953156 0.061101917177438736 1.31638765335083
-0.07258863002061844 0.06896286457777023 1.264344334602356
-0.07051663100719452 0.09591946750879288 1.2467947006225586
-0.1647358536720276 -0.010431117378175259 0.9433255195617676
-0.13038693368434906 -0.10920107364654541 1.689740777015686
-0.11504901200532913 -0.09215359389781952 1.3437895774841309
-0.1321030855178833 -0.07092605531215668 1.2778996229171753
-0.016097599640488625 0.11205346882343292 1.15987229347229
-0.04379812628030777 0.12535372376441956 1.0923939943313599
-0.17324088513851166 -0.08097295463085175 0.061130180954933167
-0.18169939517974854 -0.1580192595720291 0.03849222883582115
-0.10812516510486603 -0.11763337254524231 1.6719400882720947
-0.09822019934654236 -0.10020925104618073 1.622931957244873
-0.13277330994606018 -0.18679571151733398 1.2076809406280518
-0.1329299807548523 -0.19533097743988037 1.1791119575500488
-0.14006730914115906 -0.21441200375556946 1.1682485342025757
-0.06763159483671188 0.010002048686146736 1.4053560495376587
-0.057904839515686035 0.005529046058654785 1.4011304378509521
-0.11504053324460983 -0.19298040866851807 1.2245904207229614
-0.13034534454345703 -0.10944198071956635 1.199080467224121
-0.1500476598739624 -0.1142597645521164 0.12710997462272644
-0.1568244844675064 -0.06975597143173218 0.1441263109445572
-0.025581330060958862 0.04860507696866989 1.305941104888916
-0.11116736382246017 -0.1299562007188797 1.4310336112976074
-0.1120234876871109 -0.1221281886100769 1.4112250804901123
-0.10188303887844086 -0.12090177834033966 1.391213297843933
-0.11548704653978348 -0.11635395884513855 1.3909152746200562
-0.11893398314714432 -0.13013136386871338 1.3743423223495483
-0.12144531309604645 -0.12672819197177887 0.7620435953140259
-0.1353388875722885 -0.08918499946594238 0.7503281831741333
-0.004713401198387146 0.1594567894935608 1.179963231086731
-0.004108310677111149 0.148869127035141 1.2229866981506348
-0.10668472945690155 -0.18529710173606873 1.224165678024292
-0.11796798557043076 -0.1162363588809967 0.8415490388870239
-0.14754296839237213 -0.011273305863142014 0.052001845091581345
-0.1509970873594284 -0.019163884222507477 0.005135100334882736
-0.13344697654247284 -0.1889452487230301 0.8389514684677124
-0.026677843183279037 0.10470712184906006 1.303964614868164
-0.1016184613108635 -0.21177327632904053 1.5692574977874756
-0.07684455066919327 -0.09838184714317322 1.512223482131958
-0.044052816927433014 -0.013736804015934467 1.5117042064666748
-0.041798755526542664 -0.05393100529909134 1.5492064952850342
-0.06367220729589462 -0.053593799471855164 1.526547908782959
-0.05693511664867401 -0.02043193206191063 1.4631998538970947
0.0009046327322721481 0.004994172602891922 1.55544114112854
-0.07297757267951965 -0.1276853382587433 1.4606330394744873
-0.09503503143787384 0.04470581188797951 0.9698892831802368
-0.06538542360067368 -0.12117994576692581 1.7616584300994873
-0.07403067499399185 -0.1267177313566208 1.7545716762542725
-0.08126744627952576 -0.13460099697113037 1.740866780281067
0.021023742854595184 -0.02768699824810028 1.45655357837677
-0.03189821168780327 0.01859346218407154 1.446535348892212
-0.08272625505924225 -0.10711505264043808 -0.010664911940693855
0.012161003425717354 0.06460373103618622 1.4048898220062256
-0.074806809425354 -0.203025221824646 1.4862067699432373
-0.08453342318534851 -0.09301064163446426 0.35231801867485046
-0.013684704899787903 -0.04456290602684021 1.5013421773910522
-0.03786647319793701 -0.0879116877913475 1.4690845012664795
0.014304502867162228 0.02443033829331398 1.488114356994629
-0.034382421523332596 0.05052840709686279 0.8548575639724731
-0.08988644927740097 -0.029607370495796204 0.3038788437843323
0.03333769738674164 0.14626795053482056 1.095895528793335
-0.030445510521531105 0.024057045578956604 1.0456736087799072
-0.09075317531824112 -0.2101874053478241 1.2150132656097412
-0.09927859157323837 -0.18699324131011963 1.126751184463501
-0.07501266151666641 -0.058135055005550385 0.2818426787853241
-0.055592477321624756 -0.07150544971227646 0.2207534909248352
-0.08717608451843262 -0.0242378618568182 0.2166014462709427
-0.016757382079958916 -0.06548573821783066 1.5085314512252808
-0.035495419055223465 -0.12825903296470642 0.6686091423034668
-0.06137283891439438 -0.056055523455142975 0.6285805106163025
0.04616235941648483 0.1590832769870758 1.2146583795547485
0.04486439749598503 0.16828933358192444 1.1422721147537231
-0.05284881964325905 -0.2236715406179428 1.1402028799057007
-0.0705188512802124 -0.06790770590305328 0.07783859968185425
0.033432938158512115 0.12463916093111038 1.1237419843673706
0.02590036951005459 0.09689735621213913 1.151464581489563
0.04584598168730736 -0.06091650575399399 1.5044946670532227
-0.05821236968040466 -0.18293848633766174 1.3552078008651733
0.06217785179615021 0.07444935292005539 1.3895859718322754
0.06348050385713577 -0.029200352728366852 1.444634199142456
0.03732781484723091 -0.0719262957572937 1.4970146417617798
0.08105476945638657 0.12071241438388824 1.1293054819107056
0.0940057784318924 0.11827179044485092 1.0871474742889404
-0.005176102742552757 -0.2011575847864151 1.3481595516204834
0.019903795793652534 0.022397363558411598 1.0427637100219727
-0.03145023435354233 -0.2236342579126358 1.0791242122650146
0.12287862598896027 0.05220748111605644 1.401265025138855
0.031010616570711136 -0.09181398153305054 1.2906626462936401
0.10005120187997818 0.006082275882363319 1.4855608940124512
0.0661088153719902 -0.03621291369199753 1.4792323112487793
0.03499573469161987 -0.08439850807189941 1.2077678442001343
0.04727058857679367 0.09287109225988388 0.9192076921463013
0.052285220474004745 -0.15322774648666382 1.6890751123428345
0.05455818027257919 -0.20494788885116577 0.04176406189799309
0.05947296693921089 -0.23672595620155334 0.011118805035948753
0.05106299743056297 -0.11823992431163788 0.03108702227473259
0.007496822625398636 -0.2488543689250946 1.5614453554153442
0.03477548062801361 -0.06321988999843597 0.6839460134506226
0.11789104342460632 -0.03953339904546738 1.4478538036346436
0.06245676055550575 -0.15842904150485992 1.4493179321289062
0.09255234152078629 -0.15759286284446716 1.3896031379699707
0.05305331572890282 -0.12664289772510529 1.384399175643921
0.062455665320158005 -0.06112222746014595 0.3477078676223755
0.06724157184362411 -0.1637619137763977 0.19994661211967468
0.08496218919754028 -0.07089736312627792 0.14765451848506927
0.13970839977264404 0.11409039795398712 1.1302521228790283
0.13491705060005188 0.14107532799243927 1.1091700792312622
0.07143960148096085 -0.14778763055801392 0.7082829475402832
0.07302583009004593 -0.05346941202878952 0.6235511302947998
0.04866115003824234 -0.19679543375968933 1.6672277450561523
0.08527053892612457 -0.20028682053089142 1.6246005296707153
0.07866459339857101 -0.13700483739376068 0.5180830955505371
0.07369708269834518 -0.1474754512310028 1.700968861579895
0.09465791285037994 -0.1548905372619629 1.6522120237350464
0.06047023832798004 -0.13097964227199554 1.1284252405166626
0.06855398416519165 -0.1136673092842102 1.1076284646987915
0.05798850581049919 -0.18152767419815063 1.0780194997787476
0.06386363506317139 -0.22907742857933044 1.5587272644042969
0.0789254754781723 -0.1561654508113861 1.4778902530670166
0.06846785545349121 -0.1962592899799347 1.4688695669174194
0.17379428446292877 0.10584428906440735 1.0930336713790894
0.05801980942487717 -0.21117010712623596 1.2651054859161377
0.05211646854877472 -0.26427221298217773 1.2172960042953491
0.06924901157617569 -0.17673924565315247 1.2104012966156006
0.12766331434249878 -0.08269000798463821 0.08750961720943451
0.11296330392360687 -0.1799517422914505 0.12549328804016113
0.12938514351844788 -0.1765822023153305 0.10641789436340332
0.11082953959703445 -0.13885143399238586 1.677488923072815
0.06256414204835892 -0.2327401340007782 1.2664151191711426
0.13915283977985382 -0.06421161442995071 0.3851906955242157
0.11740970611572266 -0.10998601466417313 0.4461466670036316
0.14287015795707703 -0.08698776364326477 0.3285994827747345
0.10158365219831467 -0.17661763727664948 1.376424789428711
0.08795143663883209 -0.17304858565330505 1.3773033618927002
0.1031033918261528 -0.15278318524360657 1.3402818441390991
0.124470055103302 0.06141667068004608 0.9014245271682739
0.10908021032810211 -0.11748689413070679 0.8244454860687256
0.1531386822462082 -0.08667527139186859 0.19528141617774963
0.16125790774822235 -0.1176450103521347 0.20742173492908478
0.1112498790025711 -0.1539907604455948 1.3361743688583374
0.1779058575630188 0.014905938878655434 1.3132537603378296
0.18582099676132202 0.04452481493353844 1.2992913722991943
0.03795963525772095 -0.3130355775356293 1.1055599451065063
0.1636102944612503 -0.07251423597335815 0.9684783220291138
0.16557751595973969 -0.1288823038339615 0.9528311491012573
0.09362941980361938 -0.1880297064781189 1.1581568717956543
0.08897025138139725 -0.2920413613319397 1.0476665496826172
0.09599262475967407 -0.25503990054130554 1.0240706205368042
0.11523595452308655 -0.3197784721851349 1.1098893880844116
-0.25001591444015503 -0.024407874792814255 1.025080919265747
-0.2795112133026123 -0.07636606693267822 0.98880535364151
-0.21668699383735657 -0.1160668283700943 1.093295931816101
-0.23635977506637573 -0.1338978111743927 1.132500171661377
-0.17731976509094238 -0.08918772637844086 1.1204133033752441
-0.15913626551628113 -0.051378220319747925 1.1533350944519043
-0.18732264637947083 -0.15541011095046997 0.850929319858551
-0.06928261369466782 0.12338638305664062 1.1288530826568604
-0.07473257184028625 0.09582169353961945 1.2133023738861084
-0.15358677506446838 -0.2504960894584656 1.0663723945617676
-0.14635398983955383 -0.15986552834510803 0.9397518634796143
-0.1718418002128601 -0.07777554541826248 0.23102383315563202
-0.15019609034061432 -0.12668150663375854 0.24586690962314606
-0.11909737437963486 -0.023466574028134346 0.4562155604362488
-0.14486657083034515 -0.19485118985176086 0.8438861966133118
-0.11540976911783218 -0.08110418170690536 0.5973966121673584
-0.1155824288725853 -0.11967907100915909 0.6568585634231567
-0.10414361953735352 -0.059452809393405914 0.6641954183578491
-0.10082219541072845 -0.042975299060344696 1.1045823097229004
-0.11240822076797485 -0.10761131346225739 1.1181459426879883
0.01174158975481987 0.1284065991640091 1.2789874076843262
-0.108801931142807 -0.023820387199521065 0.8360713720321655
-0.10658890753984451 -0.1367919147014618 0.2623730003833771
-0.10248477756977081 -0.07721718400716782 1.2079854011535645
-0.08893827348947525 -0.07283073663711548 1.1374616622924805
-0.10255025327205658 -0.11619720607995987 0.4046146273612976
-0.07443302869796753 -0.13023686408996582 1.6849932670593262
-0.08280066400766373 -0.16145512461662292 1.6653499603271484
-0.04787663370370865 -0.19573621451854706 1.667255163192749
-0.06919606775045395 -0.2242264449596405 1.6240427494049072
-0.08926834166049957 -0.2099800407886505 1.5339975357055664
-0.08769456297159195 -0.09471987187862396 0.29728466272354126
-0.04148426279425621 -0.134426549077034 0.7240898609161377
-0.05902686342597008 -0.10216908156871796 0.2261599898338318
-0.07718551158905029 -0.13235586881637573 0.2306363880634308
-0.08962354063987732 -0.039975255727767944 0.16790902614593506
-0.05197525396943092 0.06514546275138855 0.9688282012939453
-0.027774173766374588 -0.12491786479949951 1.7242350578308105
-0.0447455495595932 -0.1337447464466095 1.7103487253189087
0.0729389563202858 0.07130774855613708 1.2491697072982788
-0.004256656393408775 0.07560352981090546 1.251826524734497
0.05528032407164574 0.0519707091152668 1.2943670749664307
0.008723340928554535 -0.09584596753120422 1.2428644895553589
0.07674611359834671 0.11928690969944 1.303112506866455
0.06750531494617462 0.10067103803157806 1.1548514366149902
0.12974533438682556 0.1428401619195938 1.2367295026779175
0.07114461064338684 -0.025132518261671066 1.6436700820922852
0.0974147766828537 0.08946726471185684 1.1577863693237305
0.03982281684875488 -0.2183186411857605 0.8988566994667053
0.03784026578068733 -0.12057577073574066 0.2168189138174057
0.057562101632356644 -0.140231654047966 0.15698747336864471
0.029021700844168663 -0.13106471300125122 0.6670024394989014
0.041085537523031235 -0.013494802638888359 1.0779403448104858
0.04876982420682907 -0.04921957850456238 0.5298229455947876
0.122521311044693 0.01894340105354786 1.340803861618042
0.06110343709588051 -0.20032010972499847 1.3765630722045898
0.09813904762268066 -0.03516482934355736 1.6055986881256104
0.08267995715141296 -0.09432262927293777 1.5582666397094727
0.0865534171462059 -0.07448294758796692 1.5425028800964355
0.07237453013658524 -0.14762358367443085 1.7453140020370483
0.04618363454937935 -0.22097113728523254 1.3171008825302124
0.11204074323177338 -0.030953150242567062 0.45151883363723755
0.08046437799930573 -0.01801413670182228 0.44704827666282654
0.10266847163438797 -0.04275667294859886 0.2940777540206909
0.12415371835231781 -0.050810325890779495 0.2640876770019531
0.10031256079673767 -0.15321704745292664 1.4694616794586182
0.09053634107112885 -0.16162224113941193 1.4756104946136475
0.10034377872943878 -0.15380072593688965 1.4611650705337524
0.10233376175165176 -0.05535529926419258 0.7308493256568909
0.10926555097103119 -0.09891459345817566 0.5982010364532471
0.13178148865699768 0.020119287073612213 0.941660463809967
0.10450082272291183 -0.10118572413921356 1.0877454280853271
0.09499919414520264 -0.15146827697753906 1.0688738822937012
0.10929465293884277 -0.16703513264656067 1.0104014873504639
0.11395787447690964 -0.1294814646244049 1.585127353668213
0.11907582730054855 -0.12297788262367249 1.5092144012451172
0.04621310532093048 -0.2512344717979431 1.2012782096862793
0.14110806584358215 -0.05565229803323746 1.5122296810150146
0.12956121563911438 -0.08836489915847778 1.5421921014785767
0.15124428272247314 -0.11368716508150101 0.006681503728032112
0.15961486101150513 -0.18127402663230896 0.00994052179157734
0.14518596231937408 -0.06687742471694946 1.4773156642913818
0.14840969443321228 -0.04980100691318512 1.4559301137924194
0.15416356921195984 -0.04743575304746628 1.426753044128418
0.15602239966392517 -0.032880671322345734 1.4187031984329224
0.03709756210446358 -0.318022221326828 1.1236627101898193
0.16326691210269928 -0.15845906734466553 0.8300551772117615
0.05398128181695938 -0.29988810420036316 1.1374707221984863
0.046545837074518204 -0.3208077847957611 1.1233875751495361
0.1935979276895523 -0.11547699570655823 0.8420351147651672
0.19163064658641815 -0.09256544709205627 0.822159469127655
0.2037135362625122 -0.05794253945350647 0.8307693004608154
-0.20085832476615906 -0.13558918237686157 1.1501723527908325
-0.15374138951301575 -0.16128718852996826 1.2254726886749268
-0.1614004373550415 -0.15605528652668 1.208888292312622
-0.1516522765159607 -0.1496598720550537 1.219521403312683
-0.14712345600128174 -0.1543932855129242 1.2376339435577393
-0.19765274226665497 -0.0017071980983018875 0.8434346318244934
-0.11853719502687454 -0.12685586512088776 1.2697511911392212
-0.1473258137702942 -0.08288849145174026 1.0686631202697754
-0.07982223480939865 -0.027914486825466156 1.5374343395233154
-0.13492384552955627 -0.13184601068496704 1.1812993288040161
-0.14245571196079254 -0.1133008748292923 1.1343934535980225
-0.059160150587558746 -0.004998713731765747 1.4509925842285156
-0.04907577484846115 -0.0032110996544361115 1.4196590185165405
-0.1388900727033615 -0.15007999539375305 1.0183405876159668
-0.10457246005535126 -0.16998159885406494 0.979583740234375
-0.11470036208629608 -0.043745752424001694 0.7543138265609741
0.01039925031363964 0.0973849669098854 1.3346483707427979
-0.01693817600607872 -0.01346403919160366 1.6281832456588745
-0.07458418607711792 -0.03149343281984329 0.00982281006872654
-0.08900116384029388 -0.016566462814807892 -0.004940260201692581
-0.08158750087022781 0.023504523560404778 0.8542051911354065
-0.0038969330489635468 0.09451322257518768 0.8556498289108276
-0.05722774565219879 -0.026020102202892303 0.8304687738418579
0.05719888582825661 0.009184199385344982 1.3659946918487549
-0.019592290744185448 -0.09459003806114197 0.7548400163650513
-0.026304716244339943 -0.2360471934080124 1.5403741598129272
-0.009180573746562004 0.015396477654576302 0.8719485998153687
-0.005964352749288082 -0.026406075805425644 0.8479064702987671
0.003797257551923394 -0.1168239489197731 0.8492959141731262
-0.07797979563474655 -0.16492865979671478 0.8555195927619934
-0.006400188431143761 -0.22531913220882416 0.848375141620636
0.011248013004660606 -0.10946684330701828 0.8135737776756287
-0.00933308620005846 -0.16036546230316162 0.8598737716674805
0.024757293984293938 -0.08811517059803009 1.4637047052383423
0.011362076736986637 -0.03625527769327164 0.8365809321403503
0.01171328965574503 -0.048968665301799774 0.8097177743911743
0.04563587158918381 -0.08749395608901978 1.537502646446228
0.047381363809108734 -0.07717554271221161 1.5166985988616943
0.022756677120923996 -0.12354698777198792 0.831757664680481
0.11974385380744934 0.05596703290939331 0.8307331204414368
0.04238584637641907 -0.09107702970504761 0.21152907609939575
0.02949420176446438 -0.03490583971142769 0.7918824553489685
0.11230439692735672 0.06356236338615417 1.270495891571045
0.07571719586849213 -0.11464948952198029 0.33879148960113525
0.07187813520431519 -0.10229595005512238 0.2754172682762146
0.08744136244058609 -0.12253227084875107 0.29238659143447876
0.07848867028951645 -0.1670629233121872 0.24150295555591583
0.12579327821731567 -0.03773942589759827 1.489967942237854
0.06498685479164124 -0.016761384904384613 0.8277349472045898
0.08566288650035858 -0.03647265210747719 0.7985944747924805
0.07329870760440826 -0.14786416292190552 1.221331238746643
0.1069331243634224 -0.12407837063074112 0.3889586925506592
0.11934500187635422 -0.07502520084381104 1.5783655643463135
0.0685773640871048 -0.13157767057418823 1.2745327949523926
0.11839913576841354 -0.1252664476633072 0.2919185757637024
0.13988971710205078 0.1156391054391861 1.281294345855713
0.08153805881738663 -0.11675454676151276 1.2029931545257568
0.12358516454696655 -0.06992992758750916 0.15157528221607208
0.17535416781902313 0.12203669548034668 1.2089309692382812
0.11030113697052002 -0.05484756454825401 0.19268149137496948
0.11971306800842285 -0.17508196830749512 0.21361607313156128
0.16002070903778076 0.002498467219993472 1.3542985916137695
0.10732612758874893 -0.1613467037677765 1.4116405248641968
0.11078958213329315 -0.1576424241065979 1.3835629224777222
0.10805198550224304 -0.15843722224235535 1.4130120277404785
0.12170276045799255 -0.1329670399427414 1.360997200012207
0.05864042043685913 -0.2740897536277771 1.1815558671951294
0.04156205430626869 -0.2833369970321655 1.1767956018447876
0.17693178355693817 0.037016112357378006 1.2794877290725708
