-0.4764339029788971 0.02492648735642433 1.554155945777893
-0.46275603771209717 0.01072365790605545 1.5893324613571167
-0.46929246187210083 0.008391235023736954 1.6186208724975586
-0.469326913356781 0.014146968722343445 1.6132487058639526
-0.4732511639595032 0.008035607635974884 1.6006927490234375
-0.4606596827507019 0.019054070115089417 1.5964486598968506
-0.43427106738090515 0.0007107183337211609 1.644516944885254
-0.4284287095069885 -0.01585674285888672 1.603680968284607
-0.4158911406993866 0.001770254224538803 1.6317522525787354
-0.4508485198020935 -0.010175090283155441 1.6625760793685913
-0.44592952728271484 0.00476590171456337 1.6658012866973877
-0.43680238723754883 -0.009122487157583237 1.639217734336853
-0.3993535041809082 -0.02782277576625347 1.6846128702163696
-0.40240758657455444 -0.03518715500831604 1.6743046045303345
-0.39075905084609985 -0.01306174322962761 1.6849937438964844
-0.3571538031101227 -0.03879034146666527 1.6549983024597168
-0.35941773653030396 -0.019866816699504852 1.7118757963180542
-0.32685139775276184 -0.04568130522966385 1.6962106227874756
-0.3556387722492218 -0.012217391282320023 1.6628080606460571
-0.30484679341316223 -0.029368583112955093 1.700208306312561
-0.2865019142627716 -0.04756677523255348 1.700707197189331
-0.29392802715301514 -0.01800452172756195 1.6759010553359985
-0.28113800287246704 -0.011378560215234756 1.7025084495544434
-0.2679946720600128 -0.031619295477867126 1.688995599746704
-0.2625090479850769 -0.027850192040205002 1.6447606086730957
-0.25800809264183044 -0.06290845572948456 1.6773746013641357
-0.2711506187915802 -0.04236390069127083 1.5739037990570068
-0.24051861464977264 -0.056275833398103714 1.629751443862915
-0.20771358907222748 -0.02893189713358879 1.5679130554199219
-0.21964405477046967 -0.04537901654839516 1.6020216941833496
-0.2313816398382187 -0.03986090049147606 1.636935830116272
-0.20595526695251465 -0.054425306618213654 1.5575326681137085
-0.17427955567836761 -0.025727998465299606 1.5248031616210938
-0.17199014127254486 -0.04669483006000519 1.4973623752593994
-0.1908770352602005 -0.0497228279709816 1.5532362461090088
-0.20800156891345978 -0.012737434357404709 1.5196746587753296
-0.10891639441251755 -0.055980831384658813 1.3831264972686768
-0.14643006026744843 -0.034098584204912186 1.4701489210128784
-0.1309298425912857 -0.04486379027366638 1.4295703172683716
-0.11072126030921936 -0.016091395169496536 1.3590515851974487
-0.10173765569925308 -0.041489049792289734 1.3902544975280762
-0.09635332226753235 -0.03151801973581314 1.3815414905548096
-0.10801644623279572 -0.018344445154070854 1.3401193618774414
-0.06254944950342178 -0.05678872764110565 1.3344719409942627
-0.042637936770915985 -0.044094812124967575 1.3414864540100098
-0.045875221490859985 -0.04133583977818489 1.3659839630126953
-0.04476524889469147 -0.06269673258066177 1.3512393236160278
0.052432384341955185 -0.07268945127725601 1.360019564628601
0.0609256736934185 -0.07371805608272552 1.332291603088379
0.057977624237537384 -0.0891847014427185 1.3426026105880737
0.058450568467378616 -0.06048614904284477 1.3496484756469727
0.09723195433616638 -0.08429905027151108 1.3662798404693604
0.09814048558473587 -0.06757980585098267 1.3657691478729248
0.10821758955717087 -0.07307660579681396 1.3125388622283936
0.14229047298431396 -0.09092456102371216 1.3632694482803345
0.11328251659870148 -0.08130791038274765 1.310164213180542
0.1388741135597229 -0.08894741535186768 1.3830115795135498
0.12317369878292084 -0.058533597737550735 1.3209635019302368
0.13983464241027832 -0.0708988606929779 1.3857990503311157
0.17199477553367615 -0.07771351933479309 1.427499771118164
0.19670239090919495 -0.09394340217113495 1.475454330444336
0.1867711842060089 -0.09254075586795807 1.335927963256836
0.20873023569583893 -0.10911577194929123 1.4928746223449707
0.20278948545455933 -0.10405024886131287 1.4080160856246948
0.21979384124279022 -0.08939974755048752 1.4904423952102661
0.24650374054908752 -0.1090429499745369 1.5474727153778076
0.2586190402507782 -0.09842795133590698 1.5568654537200928
0.26986539363861084 -0.10837298631668091 1.5854467153549194
0.2738703787326813 -0.12564131617546082 1.6004986763000488
0.2860527038574219 -0.13676050305366516 1.6046758890151978
0.31329071521759033 -0.1338409036397934 1.6190752983093262
0.3374691307544708 -0.10876910388469696 1.6089017391204834
0.31758856773376465 -0.11759462207555771 1.625838279724121
0.34039080142974854 -0.13606365025043488 1.5799006223678589
0.36907878518104553 -0.1031627282500267 1.4986134767532349
0.3423105776309967 -0.13337916135787964 1.6113004684448242
0.39067038893699646 -0.1214914321899414 1.6143200397491455
0.3884826600551605 -0.13864168524742126 1.6074268817901611
0.43557077646255493 -0.14057675004005432 1.5723438262939453
0.3925187289714813 -0.13531805574893951 1.5462220907211304
0.3954451382160187 -0.1349463313817978 1.4464352130889893
0.3862135112285614 -0.0936802551150322 1.4068169593811035
0.4356726408004761 -0.12377641350030899 1.589460849761963
0.5096306204795837 -0.13496220111846924 1.5078015327453613
0.4488142132759094 -0.1288679838180542 1.5852656364440918
0.48283082246780396 -0.13633845746517181 1.5619336366653442
0.45144104957580566 -0.11889210343360901 1.5386875867843628
0.48560333251953125 -0.12166173756122589 1.5690293312072754
0.5092554092407227 -0.11989704519510269 1.522442102432251
0.5035204291343689 -0.1113387867808342 1.5004726648330688
0.46232062578201294 -0.13180461525917053 1.5097140073776245
0.4854397177696228 -0.12725432217121124 1.5412845611572266
0.5013486742973328 -0.12573550641536713 1.4901106357574463
0.5185299515724182 -0.09965632855892181 1.4557838439941406
0.5248173475265503 -0.11172733455896378 1.4501909017562866
0.5227803587913513 -0.09755481779575348 1.417099952697754
0.5363730192184448 -0.11631375551223755 1.4053549766540527
0.5721395015716553 -0.09369470924139023 1.4256256818771362
0.5653694868087769 -0.10889507085084915 1.4223791360855103
0.5627342462539673 -0.09535424411296844 1.3822051286697388
0.5487970113754272 -0.1066754087805748 1.4086270332336426
0.5524933338165283 -0.09422288089990616 1.3416249752044678
0.5552024245262146 -0.10650528967380524 1.3382787704467773
0.5876295566558838 -0.08794951438903809 1.3075367212295532
0.5671733617782593 -0.08640114963054657 1.276004433631897
0.5501596927642822 -0.10469064116477966 1.2787904739379883
0.563847541809082 -0.08568791300058365 1.2370812892913818
0.5625492930412292 -0.11394186317920685 1.3724374771118164
0.5888131856918335 -0.09761693328619003 1.355495572090149
0.5774118900299072 -0.1020742878317833 1.3079733848571777
0.5786551237106323 -0.11746039986610413 1.3531380891799927
0.6326349377632141 -0.090743787586689 1.2244198322296143
0.5960028171539307 -0.11046525090932846 1.2508759498596191
0.6060248613357544 -0.09080110490322113 1.2289096117019653
0.6140937805175781 -0.09938535839319229 1.277686357498169
0.5893518924713135 -0.10080976039171219 1.2308845520019531
0.5968241691589355 -0.08244714885950089 1.2033662796020508
0.593165934085846 -0.09683667123317719 1.198965072631836
0.6413067579269409 -0.09566551446914673 1.2323309183120728
0.6325948238372803 -0.1008855551481247 1.2174373865127563
0.6390907764434814 -0.10266391187906265 1.236804723739624
0.6228805780410767 -0.08909324556589127 1.1734399795532227
0.6644473075866699 -0.08010856062173843 1.1364738941192627
0.622291088104248 -0.08012883365154266 1.1518568992614746
0.6611766219139099 -0.07837843894958496 1.1158896684646606
0.6496148109436035 -0.09142206609249115 1.111900806427002
0.6517747640609741 -0.06507032364606857 0.935943603515625
0.6399500966072083 -0.08377563208341599 0.9502006769180298
0.6490805745124817 -0.08600641041994095 0.9045991897583008
0.6607952117919922 -0.0721718892455101 0.9338105916976929
0.6108731031417847 -0.1067710816860199 0.9139626026153564
0.6561243534088135 -0.11366365104913712 0.8657819032669067
0.6521213054656982 -0.1228661835193634 0.8675232529640198
-0.5802714228630066 0.031520333141088486 0.9496285319328308
-0.5610440969467163 0.021712064743041992 0.9101869463920593
-0.5649188756942749 0.012626662850379944 0.8792381882667542
-0.555009126663208 0.008261870592832565 0.9133837223052979
-0.5417097210884094 0.0188174769282341 0.8514425754547119
-0.5317156314849854 -0.0006643086671829224 0.8387303352355957
-0.5817275047302246 0.08088471740484238 1.0148712396621704
-0.5493300557136536 0.0264926515519619 1.0410531759262085
-0.5536680221557617 0.028617437928915024 0.9913911819458008
-0.5391544699668884 0.024327091872692108 0.9839270114898682
-0.5339401960372925 0.018833603709936142 0.9116331934928894
-0.5208323001861572 -0.0107509084045887 0.8768688440322876
-0.5402120351791382 -0.016129322350025177 0.8495147824287415
-0.5241988897323608 -0.007002152502536774 0.7601255178451538
-0.5187473297119141 -0.026534948498010635 0.7751971483230591
-0.49661827087402344 -0.052504006773233414 0.7310882806777954
-0.5057651400566101 -0.005988992750644684 0.9344578385353088
-0.5143117904663086 0.0039655305445194244 0.8749657869338989
-0.5105149745941162 0.0008830316364765167 0.753741979598999
-0.5140179395675659 -0.012097027152776718 0.8623998761177063
-0.5074629783630371 -0.0004591941833496094 0.8892577886581421
-0.5163893699645996 -0.01797620952129364 0.8407208323478699
-0.4959867000579834 -0.044855982065200806 0.8364286422729492
-0.4925065040588379 0.026893600821495056 1.1583070755004883
-0.4686959981918335 -0.1070689931511879 0.6990916728973389
-0.46604180335998535 -0.10774019360542297 0.6199879050254822
-0.4829980134963989 -0.005426395684480667 1.2519876956939697
-0.509125828742981 0.012470334768295288 1.184800386428833
-0.48313283920288086 0.021956298500299454 1.1287789344787598
-0.497928261756897 0.0034537650644779205 1.2789306640625
-0.5095893740653992 0.05875179171562195 1.2321540117263794
-0.46437889337539673 -0.09229530394077301 0.8970081806182861
-0.4840168356895447 0.042645592242479324 1.4154088497161865
-0.45591312646865845 0.026764556765556335 1.3506343364715576
-0.4201810956001282 -0.010269705206155777 0.7539610266685486
-0.42339828610420227 -0.0020007528364658356 0.6760702133178711
-0.44050419330596924 -0.0030188746750354767 0.89576256275177
-0.4057491421699524 -0.028254641219973564 0.6558041572570801
-0.42178457975387573 -0.02655935101211071 1.0489978790283203
-0.4445141851902008 -0.0458972305059433 0.9866195917129517
-0.4187813401222229 -0.012981198728084564 0.9519293904304504
-0.3953755497932434 -0.018619365990161896 0.9892231225967407
-0.39100849628448486 0.0012128464877605438 0.996915876865387
-0.4063089191913605 -0.025546152144670486 1.066361427307129
-0.4167425334453583 -0.018134284764528275 1.4519459009170532
-0.4415798485279083 0.02438146248459816 1.4886531829833984
-0.37151461839675903 0.000987805426120758 1.08419930934906
-0.399100661277771 0.01338743045926094 1.2532200813293457
-0.41521355509757996 -0.019713357090950012 1.2287352085113525
-0.3696589469909668 -0.030481545254588127 1.5473594665527344
-0.38620081543922424 -0.021092351526021957 1.4351176023483276
-0.398518443107605 0.00845949724316597 1.5392389297485352
-0.3601873815059662 -0.015843383967876434 1.1664804220199585
-0.35737884044647217 0.009576920419931412 1.1877976655960083
-0.35940760374069214 -0.012556038796901703 1.1314398050308228
-0.3522894084453583 -0.002434864640235901 1.1268651485443115
-0.3514794707298279 0.015085741877555847 1.378240942955017
-0.3295338749885559 0.013973888009786606 1.3138940334320068
-0.27854305505752563 -0.030820902436971664 1.4716845750808716
-0.2742196023464203 0.005616199225187302 1.1170496940612793
-0.31718045473098755 -0.002830885350704193 1.5604424476623535
-0.20758512616157532 -0.036241210997104645 1.4445799589157104
-0.25064343214035034 0.0030694231390953064 1.4451770782470703
-0.20775479078292847 -0.031569741666316986 1.3754210472106934
-0.1967422217130661 0.0021866410970687866 1.375199317932129
-0.1881278157234192 0.00327349454164505 1.2836792469024658
-0.16527491807937622 -0.0064926836639642715 1.2445532083511353
0.1519831418991089 -0.04750002920627594 1.1742063760757446
0.13614419102668762 -0.06800109148025513 1.1828491687774658
0.15395373106002808 -0.056969448924064636 1.1320781707763672
0.2215270698070526 -0.06416088342666626 1.2952474355697632
0.1677703857421875 -0.08448570966720581 1.2262511253356934
0.18178927898406982 -0.06015273556113243 1.2406294345855713
0.2176506221294403 -0.053475260734558105 1.1802765130996704
0.22572501003742218 -0.08356647938489914 1.158976674079895
0.2051197588443756 -0.04522034525871277 1.0883069038391113
0.21144846081733704 -0.04445427656173706 1.0569543838500977
0.20334264636039734 -0.060352109372615814 1.0860120058059692
0.21513329446315765 -0.06016452610492706 1.0605382919311523
0.2443453073501587 -0.045656874775886536 1.064923644065857
0.3151718080043793 -0.08575084805488586 1.4183671474456787
0.296783447265625 -0.10869600623846054 1.3744778633117676
0.28289994597435 -0.0468815416097641 1.0347062349319458
0.26502537727355957 -0.07356315851211548 1.0409317016601562
0.24343787133693695 -0.057290203869342804 1.0675864219665527
0.2687619924545288 -0.05487022548913956 1.0289056301116943
0.2961009442806244 -0.05023356154561043 0.9918332099914551
0.3005717992782593 -0.10513214766979218 1.2831143140792847
0.35762161016464233 -0.06679004430770874 1.102643609046936
0.2863522171974182 -0.08621525019407272 1.052364706993103
0.29582569003105164 -0.0668281838297844 1.0713704824447632
0.37198376655578613 -0.07833820581436157 1.233210802078247
0.3356447219848633 -0.08971257507801056 1.0898250341415405
0.3637128174304962 -0.06507740169763565 1.0151501893997192
0.3592805862426758 -0.06042913347482681 1.065109133720398
0.3530100882053375 -0.0711885541677475 1.031387209892273
0.3642440438270569 -0.10145103931427002 1.0489470958709717
0.40042656660079956 -0.08501716703176498 1.2702757120132446
0.38760578632354736 -0.08289313316345215 1.1572675704956055
0.37525713443756104 -0.1109013482928276 1.1727219820022583
0.4334738552570343 -0.12666088342666626 1.3855245113372803
0.3934282064437866 -0.0738736093044281 1.0464524030685425
0.4546351730823517 -0.09610657393932343 1.3666688203811646
0.45044606924057007 -0.10183671116828918 1.3070640563964844
0.4729088544845581 -0.12534424662590027 1.3440545797348022
0.43297210335731506 -0.08392003178596497 0.8481861352920532
0.48170989751815796 -0.12670588493347168 1.2742669582366943
0.5009812712669373 -0.12289133667945862 1.2320091724395752
0.4715116322040558 -0.08908144384622574 1.1978806257247925
0.4646240770816803 -0.11563582718372345 1.0972201824188232
0.4662558436393738 -0.08294732123613358 1.1031981706619263
0.5000797510147095 -0.08974292129278183 1.203573226928711
0.5006837248802185 -0.08874087035655975 1.1419003009796143
0.5143555402755737 -0.09197282791137695 1.0784294605255127
0.5425927639007568 -0.08919820934534073 1.222475528717041
0.5421572327613831 -0.10743596404790878 1.193016767501831
0.45974570512771606 -0.15823915600776672 0.6849395036697388
0.4608578383922577 -0.15305282175540924 0.5541218519210815
0.4865299463272095 -0.10126316547393799 0.5548958778381348
0.4623286724090576 -0.11143536120653152 0.5851128697395325
0.5191075801849365 -0.11070691049098969 0.8855407238006592
0.5133225917816162 -0.10158379375934601 0.8475149273872375
0.557729184627533 -0.0864984467625618 1.067894697189331
0.5233196020126343 -0.051350899040699005 0.5992186069488525
0.5215709805488586 -0.06260223686695099 0.662382960319519
0.590685248374939 -0.09523498266935349 0.8353788256645203
0.5949654579162598 -0.10259756445884705 0.7419052124023438
0.5474419593811035 -0.10234250873327255 0.7527610063552856
0.5833299160003662 -0.12096907198429108 0.7565426826477051
-0.5770241618156433 0.007112372666597366 0.8291986584663391
-0.5679991841316223 -0.011650938540697098 0.8347152471542358
-0.5653058886528015 0.06659278273582458 1.1865257024765015
-0.5616234540939331 0.0791955292224884 1.2002816200256348
-0.5503929257392883 0.06410275399684906 1.1478347778320312
-0.5283918976783752 0.034466616809368134 1.0444931983947754
-0.5078388452529907 0.022691667079925537 1.0830477476119995
-0.5367547273635864 0.002415277063846588 0.9983189105987549
-0.49804311990737915 0.014911070466041565 0.9980446100234985
-0.5037463903427124 -0.004616331309080124 1.1247694492340088
-0.51068115234375 0.022207681089639664 1.2888157367706299
-0.5123398900032043 0.02726643905043602 1.252718448638916
-0.43516457080841064 -0.008548721671104431 0.8009257316589355
-0.4861232340335846 0.006709504872560501 0.7654027938842773
-0.453319251537323 0.0021137595176696777 0.6928226947784424
-0.48600172996520996 0.04050879925489426 1.2902519702911377
-0.511644721031189 0.023569561541080475 1.3357648849487305
-0.4707149565219879 -0.05782962962985039 0.867080807685852
-0.46600818634033203 -0.06602858752012253 0.8469300270080566
-0.4557802677154541 -0.07119330763816833 0.6909822821617126
-0.45077380537986755 -0.08986389636993408 0.6418525576591492
-0.45490193367004395 0.0018470771610736847 0.9915887713432312
-0.5080761313438416 0.029967617243528366 1.4354690313339233
-0.4559926986694336 0.0013939402997493744 1.032086968421936
-0.43955594301223755 0.011922448873519897 0.9611522555351257
-0.46869534254074097 -0.03052568808197975 1.0555007457733154
-0.46747931838035583 -0.03348464518785477 1.0327770709991455
-0.4237605333328247 0.004035919904708862 1.0426151752471924
-0.4610735774040222 -0.018185265362262726 1.141484022140503
-0.4254722595214844 -0.007109852507710457 0.9115018248558044
-0.41969120502471924 -0.017407622188329697 0.8458267450332642
-0.4705492854118347 0.02611093968153 1.2219940423965454
-0.4293152987957001 0.007508877664804459 1.154676914215088
-0.44014739990234375 -0.01848633959889412 1.1151635646820068
-0.4518110752105713 0.00966048613190651 1.4790244102478027
-0.46644797921180725 -0.013687290251255035 1.2907229661941528
-0.4084169268608093 -0.022107969969511032 1.1896659135818481
-0.42365598678588867 -0.010702397674322128 1.5282795429229736
-0.384416401386261 0.021244540810585022 1.431249737739563
-0.4164305031299591 -0.01290181279182434 1.3195931911468506
-0.3631235361099243 0.001072462648153305 1.1274328231811523
-0.3846206068992615 -0.01947716996073723 1.1379066705703735
-0.3999432921409607 0.017058782279491425 1.3228204250335693
-0.37770068645477295 0.016952838748693466 1.2561132907867432
-0.3214772641658783 0.007332749664783478 1.4846869707107544
-0.3427940607070923 -0.01749425008893013 1.3101040124893188
-0.31258293986320496 -0.023171762004494667 1.222589373588562
-0.3003631830215454 0.005441188812255859 1.2214926481246948
-0.30119073390960693 0.0021240655332803726 1.1576894521713257
-0.267334520816803 -0.027571987360715866 1.2485425472259521
-0.27581676840782166 0.006915442645549774 1.164717674255371
-0.3092135190963745 0.010559014976024628 1.398205041885376
-0.2743973135948181 -0.020535798743367195 1.3539538383483887
-0.2331329584121704 0.0017383508384227753 1.1515793800354004
-0.20985524356365204 0.0025741644203662872 1.1729768514633179
-0.17259427905082703 -0.01021057739853859 1.4462658166885376
-0.19669373333454132 -0.029122106730937958 1.286700963973999
0.17648614943027496 -0.06579773873090744 1.1057713031768799
0.20795205235481262 -0.06936322897672653 1.3841837644577026
0.24865390360355377 -0.0475689135491848 1.1334946155548096
0.23664313554763794 -0.06962444633245468 1.1201884746551514
0.2248421460390091 -0.03888919949531555 1.0710161924362183
0.3088955283164978 -0.07315723598003387 1.2192270755767822
0.29298344254493713 -0.09137584269046783 1.134994626045227
0.3068457841873169 -0.043289702385663986 0.9973102807998657
0.3960108458995819 -0.08846244215965271 1.343167781829834
0.3600919246673584 -0.10189349949359894 1.0773531198501587
0.46787694096565247 -0.0970240980386734 1.2681214809417725
0.4330175817012787 -0.07670369744300842 0.7632913589477539
0.44577494263648987 -0.06359981745481491 0.7464712262153625
0.4287516474723816 -0.059452660381793976 0.6414982676506042
0.4233452081680298 -0.05019266530871391 0.5741229057312012
0.419647753238678 -0.06986504048109055 0.5847786664962769
0.4829856753349304 -0.08221537619829178 1.0216728448867798
0.4466972351074219 -0.049333419650793076 0.6489573121070862
0.43544265627861023 -0.04181858152151108 0.5780050754547119
0.44676682353019714 -0.12606318295001984 0.804510235786438
0.4546569287776947 -0.1450723260641098 0.8493971824645996
0.43757253885269165 -0.156245619058609 0.8187811374664307
0.4484653174877167 -0.1299421340227127 0.756273090839386
0.4797060191631317 -0.055525042116642 0.6685998439788818
0.47130087018013 -0.055824149399995804 0.5909769535064697
0.500005304813385 -0.08389681577682495 0.819719135761261
0.4644273817539215 -0.12712377309799194 0.7971643805503845
0.48334336280822754 -0.13353656232357025 0.7428339123725891
0.46509799361228943 -0.14686565101146698 0.7993514537811279
0.46902090311050415 -0.16203443706035614 0.7278661727905273
0.48299461603164673 -0.12218574434518814 0.8685588836669922
0.5154240131378174 -0.11898307502269745 0.8141831159591675
0.4840095043182373 -0.1173621416091919 0.5893332958221436
0.4596961736679077 -0.13670189678668976 0.5327746272087097
0.49399587512016296 -0.07044105231761932 0.5514429807662964
0.5250536799430847 -0.09212289750576019 0.8898357152938843
0.49802350997924805 -0.0832696184515953 0.6889777183532715
0.4820081889629364 -0.14577290415763855 0.6482550501823425
0.502488374710083 -0.135087788105011 0.6435916423797607
0.5123047828674316 -0.11164361983537674 0.5696336627006531
0.564100444316864 -0.08772977441549301 0.8211849331855774
0.5771673917770386 -0.08475328981876373 0.7872812151908875
0.5540187954902649 -0.08932158350944519 0.6227008700370789
0.554330587387085 -0.10648850351572037 0.6417636275291443
0.5421420931816101 -0.08743178099393845 0.9838167428970337
0.619224488735199 -0.0706053376197815 0.9350478053092957
0.5848633646965027 -0.08847840130329132 0.9275365471839905
0.6216549277305603 -0.09086813032627106 1.109222650527954
0.6087096929550171 -0.08370419591665268 1.0691195726394653
0.6019988059997559 -0.07919374108314514 1.0657352209091187
0.6043155193328857 -0.0941861942410469 1.0493865013122559
0.6228853464126587 -0.07714518159627914 0.988470196723938
0.6171455383300781 -0.0863109678030014 1.0055166482925415
-0.5708173513412476 0.05194052681326866 0.9954553842544556
-0.5647197961807251 0.02957139164209366 1.0043039321899414
-0.5683176517486572 0.007552415132522583 0.9722200632095337
-0.46794813871383667 -0.044780030846595764 0.6717516779899597
-0.4698672294616699 -0.0876166969537735 0.6320603489875793
-0.463938444852829 -0.06217484921216965 0.8460151553153992
-0.4844622015953064 -0.06392569839954376 0.7965482473373413
-0.4763988256454468 -0.09706158936023712 0.8264396786689758
-0.4871692955493927 -0.0856982171535492 0.7270832061767578
-0.4568943381309509 -0.07252323627471924 0.7337357401847839
-0.4548031985759735 -0.09611378610134125 0.6968063712120056
-0.4692840576171875 -0.04623015224933624 0.9816700220108032
-0.4615228772163391 -0.06984299421310425 0.9317380785942078
-0.4728078544139862 -0.051894661039114 0.9377272129058838
-0.4579831659793854 -0.09601039439439774 0.7608348727226257
-0.45321667194366455 -0.07125666737556458 0.7676295042037964
-0.4578956663608551 -0.08712302893400192 0.8548904657363892
-0.465018093585968 -0.06417161226272583 0.8168967962265015
-0.4626941680908203 0.018875915557146072 1.1294916868209839
-0.413421094417572 -0.0002986416220664978 0.9700467586517334
-0.3724014163017273 -0.01800227165222168 0.9972213506698608
-0.3736029863357544 0.002204444259405136 0.9974657297134399
-0.40877968072891235 -0.02462954819202423 1.1385501623153687
-0.36867618560791016 -0.01312730461359024 1.080794095993042
-0.36990976333618164 0.004246879369020462 1.027714490890503
-0.3685426712036133 -0.013548415154218674 1.0160553455352783
-0.3196454644203186 -0.020499687641859055 1.3584115505218506
-0.32833290100097656 0.002980932593345642 1.1080065965652466
-0.3047133684158325 -0.025502925738692284 1.1413698196411133
-0.2989875078201294 0.008872615173459053 1.1080846786499023
-0.23883631825447083 -0.013600228354334831 1.142302393913269
-0.2608529031276703 0.004173412919044495 1.119293451309204
-0.1903878003358841 -0.008484657853841782 1.1987996101379395
0.37873953580856323 -0.06348951905965805 0.967667818069458
0.49514687061309814 -0.12252657115459442 1.415479063987732
0.4502895176410675 -0.07618562877178192 0.9191818237304688
0.392448365688324 -0.05345728248357773 0.9118186831474304
0.41765180230140686 -0.0863628089427948 0.8986671566963196
0.42135918140411377 -0.07198765128850937 0.8940125703811646
0.44373995065689087 -0.08727695792913437 1.0862483978271484
0.4367138147354126 -0.11893809586763382 0.9094717502593994
0.4430062770843506 -0.11972726881504059 0.8554019331932068
0.43648824095726013 -0.14624959230422974 0.8725910782814026
0.4354778230190277 -0.13861387968063354 0.8460507988929749
0.4386351704597473 -0.11742691695690155 0.7991872429847717
0.43461617827415466 -0.09508469700813293 0.613917350769043
0.43685758113861084 -0.09003105014562607 0.567754864692688
0.46214818954467773 -0.07976561784744263 0.5547354817390442
0.47939959168434143 -0.09276609867811203 0.8924880027770996
0.4826868772506714 -0.08575624972581863 0.8594223260879517
0.4707297086715698 -0.1332320272922516 0.8238009214401245
0.45368748903274536 -0.13468924164772034 0.7877581715583801
0.44267213344573975 -0.15657323598861694 0.7521892189979553
0.5107483863830566 -0.12624144554138184 1.1787934303283691
0.527091920375824 -0.09397941827774048 0.8203028440475464
0.5440421104431152 -0.09655600041151047 0.774308443069458
0.5459270477294922 -0.10969339311122894 0.9372583031654358
0.5442546010017395 -0.12231151759624481 0.6014454364776611
0.5342079401016235 -0.08512584120035172 0.5785050988197327
0.5491957664489746 -0.1148785650730133 0.7971740961074829
0.5470436811447144 -0.11810032278299332 0.7472773194313049
0.6536710858345032 -0.09075423330068588 0.9160736799240112
0.6058793663978577 -0.12244457006454468 0.874946653842926
0.6183031797409058 -0.10134011507034302 0.873808741569519
0.6098960041999817 -0.10754550993442535 0.7459432482719421
0.6105453968048096 -0.0987781509757042 0.761931300163269
-0.5609757900238037 0.0650375708937645 1.1539580821990967
-0.4982655644416809 -0.024272041395306587 0.6324747204780579
-0.4977031648159027 -0.03785832226276398 0.9302259087562561
-0.48662036657333374 -0.05667132884263992 0.8983782529830933
-0.5043512582778931 -0.013793841004371643 0.9800570607185364
-0.47681862115859985 0.012852892279624939 1.4136104583740234
-0.4787478446960449 0.016263548284769058 1.016186237335205
-0.47536569833755493 0.0028336383402347565 0.9831109046936035
-0.43559032678604126 -0.04628603532910347 0.6482757925987244
-0.4245908856391907 -0.018895134329795837 0.6485911011695862
-0.44895443320274353 -0.05458041653037071 0.9340598583221436
-0.45023882389068604 -0.06635268777608871 0.8817175030708313
-0.44840139150619507 -0.07219342142343521 0.9187572002410889
-0.4693325161933899 -0.003063976764678955 1.36543607711792
-0.45528391003608704 0.021593555808067322 1.2656997442245483
-0.24377918243408203 0.00975336879491806 1.2172844409942627
0.12240675091743469 -0.058292925357818604 1.2198851108551025
0.11199837923049927 -0.07194773852825165 1.22541081905365
0.19423606991767883 -0.07770358771085739 1.1352094411849976
0.17686818540096283 -0.04882881045341492 1.0774755477905273
0.2797570526599884 -0.061921607702970505 1.1617505550384521
0.3120662569999695 -0.05972236394882202 1.036336898803711
0.3011726140975952 -0.0699818953871727 1.0211248397827148
0.41002821922302246 -0.10770949721336365 1.1343989372253418
0.45682692527770996 -0.12562155723571777 1.200481653213501
0.4333634376525879 -0.10976473987102509 1.0280431509017944
0.43416064977645874 -0.1508028656244278 0.7593177556991577
0.45668670535087585 -0.13204368948936462 0.7150571942329407
0.44414612650871277 -0.1484663486480713 0.6691625714302063
0.4502681493759155 -0.12411992996931076 0.6258462071418762
0.4996940493583679 -0.11416564136743546 0.9462301731109619
0.47399574518203735 -0.1473473608493805 0.5503219962120056
-0.5530375838279724 0.015034060925245285 0.992874026298523
-0.4197172522544861 -0.03695152699947357 0.794379472732544
-0.41367655992507935 -0.041622649878263474 0.7430918216705322
-0.45897483825683594 0.002339884638786316 1.510763168334961
-0.3276995122432709 0.0005780868232250214 1.0950345993041992
-0.3216441571712494 0.002694476395845413 1.0661081075668335
-0.2975711226463318 -0.004696786403656006 1.087692379951477
-0.24287165701389313 0.005517670884728432 1.1237900257110596
-0.1437469720840454 -0.019840117543935776 1.265089750289917
-0.14694742858409882 -0.03936184197664261 1.2633002996444702
0.38435226678848267 -0.11591798067092896 1.2695786952972412
0.42895224690437317 -0.12483283877372742 1.3058325052261353
0.48067507147789 -0.08800993859767914 0.9215302467346191
0.4595904052257538 -0.07350357621908188 0.8563118577003479
0.4648398756980896 -0.11965230107307434 1.0191946029663086
0.43483325839042664 -0.11229264736175537 0.7474607229232788
0.5254674553871155 -0.11232829838991165 0.982406497001648
0.531943678855896 -0.11108856648206711 1.0675915479660034
0.5841765403747559 -0.10837443172931671 0.9061237573623657
0.5727025866508484 -0.11144991964101791 0.8460004925727844
0.553412914276123 -0.1242837980389595 0.6858949065208435
0.49143028259277344 -0.1299457550048828 0.6094031929969788
0.5608339905738831 -0.10203304141759872 0.6796514987945557
-0.48563846945762634 -0.04959750175476074 0.6460000872612
-0.45023399591445923 -0.025255639106035233 0.6430726051330566
-0.4670926332473755 -0.06247362494468689 0.8406325578689575
-0.46216025948524475 -0.06213852018117905 0.6975662708282471
-0.42948296666145325 -0.056802764534950256 0.6855520009994507
-0.420721173286438 -0.02697761170566082 0.9879224300384521
-0.256115198135376 -0.01906244084239006 1.2225332260131836
-0.25902512669563293 -0.011416133493185043 1.1703507900238037
-0.2684963047504425 -0.000635247677564621 1.1462576389312744
-0.22129231691360474 -0.02479281835258007 1.2113466262817383
-0.21309037506580353 -0.026003457605838776 1.1444497108459473
-0.21518880128860474 -0.008071044459939003 1.1359882354736328
0.18029680848121643 -0.03363378718495369 1.0855305194854736
0.42645299434661865 -0.10661125928163528 0.9596479535102844
0.46595367789268494 -0.1286477893590927 0.945942759513855
0.4685019254684448 -0.13365772366523743 0.9015073776245117
0.5337538719177246 -0.1323898732662201 0.7340679168701172
-0.5221544504165649 -0.01992238685488701 0.7323315143585205
-0.5207616686820984 -0.03862345218658447 0.6954471468925476
-0.518094539642334 -0.027394307777285576 0.6913285255432129
-0.48397427797317505 0.008639715611934662 0.9043408036231995
-0.445284903049469 -0.04972955211997032 0.8560618162155151
-0.4426560401916504 -0.06020082160830498 0.9002329707145691
-0.18188902735710144 -0.026848241686820984 1.226523995399475
-0.11787522584199905 -0.038487356156110764 1.34032142162323
-0.10923024266958237 -0.03036031499505043 1.3309242725372314
0.11858859658241272 -0.08295739442110062 1.233100175857544
0.29893064498901367 -0.1219683364033699 1.5357475280761719
0.43879538774490356 -0.10417117178440094 1.4528499841690063
0.46903491020202637 -0.12427303194999695 1.458116054534912
0.4983000159263611 -0.11672335863113403 1.3833601474761963
0.5827332735061646 -0.09621372818946838 1.136160135269165
0.6164084672927856 -0.09380367398262024 1.1652559041976929
0.5959475040435791 -0.07000225782394409 1.1163979768753052
0.6016513109207153 -0.09087178856134415 1.0948843955993652
0.6296591758728027 -0.07738837599754333 1.1117857694625854
-0.575285792350769 0.05750090628862381 1.0889819860458374
-0.5640393495559692 0.07023437321186066 1.076846718788147
-0.5479327440261841 0.06447623670101166 1.320470929145813
-0.5335823893547058 0.06615620106458664 1.3011075258255005
-0.48148399591445923 0.003921188414096832 0.678271472454071
-0.4775938391685486 -0.0044171735644340515 0.6375821828842163
-0.48006781935691833 -0.06776757538318634 0.7370426058769226
-0.48164916038513184 0.00019294396042823792 0.857881486415863
-0.47403061389923096 0.02047775313258171 1.062191367149353
-0.4426704943180084 0.0028443560004234314 1.552692174911499
0.19731949269771576 -0.05322083830833435 1.143823266029358
0.29415881633758545 -0.07716934382915497 1.3384413719177246
0.33653637766838074 -0.0655037984251976 1.0429974794387817
0.35301473736763 -0.0690927654504776 1.167062520980835
0.3686525225639343 -0.07035881280899048 0.9676190614700317
0.38088205456733704 -0.07361230999231339 0.9167522192001343
0.3921171724796295 -0.10377852618694305 0.9867851734161377
0.4368516504764557 -0.0842905044555664 0.7126795649528503
0.4439559280872345 -0.09234777092933655 0.7006174325942993
0.4740895628929138 -0.14077524840831757 0.7466763257980347
0.5634503960609436 -0.09548632055521011 0.910478949546814
0.5446032881736755 -0.07551854103803635 0.7066373825073242
-0.5023709535598755 -0.038178831338882446 0.6598179340362549
-0.47407984733581543 -0.030186761170625687 0.620904266834259
-0.30943992733955383 0.01685262843966484 1.0696288347244263
-0.24747490882873535 0.013054296374320984 1.144715666770935
-0.20098724961280823 -0.0188995860517025 1.1856131553649902
0.5256934762001038 -0.07849252223968506 0.7418931126594543
0.5101732015609741 -0.08393704891204834 0.5236979722976685
0.5210774540901184 -0.08964153379201889 0.535416305065155
-0.4812442660331726 -0.059922948479652405 0.8772739768028259
-0.4367915987968445 -0.0399027019739151 0.8071385622024536
-0.4350172281265259 -0.056755855679512024 0.7629271745681763
0.5091139078140259 -0.11136920750141144 1.3067470788955688
0.5222894549369812 -0.06522415578365326 0.5326125621795654
0.5959814190864563 -0.11315033584833145 0.8086785674095154
-0.239451602101326 0.006669532507658005 1.2926311492919922
0.5946294665336609 -0.1029917523264885 0.8973699808120728
-0.4207739233970642 -0.026444487273693085 0.8791990280151367
0.4474751949310303 -0.1378970742225647 0.5697969794273376
0.5813246965408325 -0.0980493426322937 0.8874599933624268
-0.4822620749473572 -0.08009877055883408 0.8426406383514404
-0.3359653949737549 -0.04241455718874931 0.9058153629302979
-0.3428897261619568 -0.040653787553310394 0.9169747829437256
-0.3312724828720093 -0.07064031809568405 0.9099938273429871
-0.3431966006755829 -0.06840813159942627 0.9179540872573853
-0.3099735379219055 -0.04542115703225136 0.9816975593566895
-0.31813326478004456 -0.05107058584690094 0.9572258591651917
-0.30079156160354614 -0.030420567840337753 0.9337602853775024
-0.29295772314071655 -0.016028620302677155 0.9742148518562317
-0.31380560994148254 -0.07433562725782394 0.956771194934845
-0.32364416122436523 -0.09817726165056229 0.9376497864723206
-0.287274032831192 -0.03964022547006607 1.0487744808197021
-0.3038228154182434 -0.10205398499965668 0.9425860047340393
-0.30755290389060974 -0.06218499317765236 0.9525668025016785
-0.30621376633644104 -0.09972331672906876 0.9815829992294312
-0.29665589332580566 -0.07038602232933044 0.9842591285705566
-0.26884573698043823 -0.018784567713737488 1.029602289199829
-0.2883393466472626 -0.060573212802410126 0.9859721660614014
-0.2921094596385956 -0.08007510751485825 1.0068554878234863
-0.2918653190135956 -0.06510327756404877 1.0404796600341797
-0.297525554895401 -0.03534575179219246 1.0835702419281006
-0.30813339352607727 -0.08848443627357483 1.0617454051971436
-0.24724334478378296 0.0023097675293684006 1.1273128986358643
-0.2524124085903168 0.006860330235213041 1.0850974321365356
-0.29101890325546265 -0.05177369713783264 1.1144767999649048
-0.21935150027275085 0.008330794051289558 1.0803219079971313
-0.2462538182735443 -0.062208764255046844 1.1729624271392822
-0.2805502116680145 -0.1091306209564209 1.112880825996399
-0.21624711155891418 0.01294680219143629 1.1253197193145752
-0.1877608448266983 -0.005659252405166626 1.139282464981079
-0.19482187926769257 -0.0202518068253994 1.193403959274292
-0.16936597228050232 -0.021834325045347214 1.1989562511444092
-0.1880420446395874 -0.10778751224279404 1.2480440139770508
-0.23849545419216156 -0.1125592291355133 1.1686789989471436
-0.16647812724113464 -0.03780682384967804 1.2415249347686768
-0.20200711488723755 -0.06425321847200394 1.2322449684143066
-0.1632075011730194 -0.05394459888339043 1.2774710655212402
-0.1534080058336258 -0.06894239038228989 1.3139234781265259
-0.15446753799915314 -0.11795271933078766 1.307557225227356
-0.18913187086582184 -0.13843461871147156 1.1981744766235352
-0.12614893913269043 -0.07735204696655273 1.6975528001785278
-0.0930890142917633 0.013848185539245605 1.4172509908676147
-0.13119858503341675 0.06415515393018723 0.8461936712265015
-0.17569229006767273 0.013098187744617462 0.8405426144599915
-0.1479164958000183 -0.08209890127182007 0.8486298322677612
-0.1901346743106842 -0.11005711555480957 0.835315465927124
-0.11476334184408188 -0.05268632620573044 1.614568829536438
-0.13145089149475098 -0.09136630594730377 1.7169194221496582
-0.10294017940759659 -0.07866251468658447 1.6710541248321533
-0.08723505586385727 -0.04274215176701546 1.632662057876587
-0.10046511143445969 -0.056363124400377274 1.580312728881836
-0.11851833760738373 -0.012659700587391853 1.036984920501709
-0.1607513278722763 -0.05412277951836586 0.9898769855499268
-0.16835671663284302 -0.11989116668701172 0.971056342124939
-0.1052384003996849 -0.0681593269109726 1.5160455703735352
-0.18167178332805634 -0.08815400302410126 0.0036683566868305206
-0.18869835138320923 -0.1664878875017166 -0.0030329395085573196
-0.19322386384010315 -0.18260090053081512 0.025315359234809875
-0.12138389050960541 -0.11645231395959854 1.361525297164917
-0.1116839125752449 -0.06583917140960693 1.3257241249084473
-0.10859476774930954 -0.0858946293592453 1.3006901741027832
-0.13210634887218475 -0.1271764189004898 1.3457565307617188
-0.11894557625055313 -0.15704363584518433 1.2938648462295532
-0.1489648073911667 -0.06262639909982681 0.4358469545841217
-0.14383679628372192 -0.08882338553667068 0.3493229150772095
-0.15391620993614197 -0.036285314708948135 0.29014357924461365
-0.16060759127140045 -0.06460106372833252 0.3160351812839508
-0.0990092009305954 -0.06682947278022766 1.6426506042480469
-0.11367201805114746 -0.11912369728088379 1.2613004446029663
-0.12262116372585297 -0.11669515818357468 1.2234680652618408
-0.12249761074781418 -0.14847776293754578 1.2427589893341064
-0.14716623723506927 -0.16323277354240417 1.2345764636993408
-0.14298413693904877 -0.02580970712006092 0.217788964509964
-0.10585223883390427 -0.1296333372592926 1.4998624324798584
-0.0921294316649437 -0.06214431673288345 1.5166717767715454
-0.10061094909906387 -0.09221866726875305 1.504886269569397
-0.12671691179275513 -0.09987438470125198 0.5359741449356079
-0.04836154356598854 -0.09125037491321564 1.7246896028518677
-0.11615422368049622 -0.1524006426334381 1.1834076642990112
-0.1112123429775238 -0.07093659043312073 1.156491994857788
-0.0989566296339035 -0.14519456028938293 0.7208520174026489
-0.050686098635196686 -0.03984612226486206 1.689611792564392
-0.09947509318590164 -0.14658695459365845 1.3648359775543213
-0.09137773513793945 -0.12544694542884827 0.8352260589599609
-0.13390272855758667 -0.13444456458091736 0.8537919521331787
-0.12394793331623077 -0.1979326605796814 0.9027715921401978
-0.10221341252326965 -0.2153078019618988 0.844048261642456
-0.16574245691299438 -0.20931167900562286 0.05890732258558273
-0.016386309638619423 -0.02306561917066574 1.690733551979065
-0.04277125000953674 -0.08008655905723572 1.7112257480621338
-0.11111254245042801 -0.10254800319671631 1.419773817062378
-0.09118696302175522 -0.128831148147583 1.458811640739441
-0.11987870186567307 -0.015342865139245987 0.2874482274055481
-0.13642847537994385 -0.02980855479836464 0.17521359026432037
-0.16078847646713257 -0.19213639199733734 0.09390071779489517
-0.13344676792621613 0.0007778871804475784 0.002960924059152603
-0.08418931066989899 -0.08289143443107605 1.3076751232147217
-0.1052546426653862 -0.1257581114768982 0.5109189748764038
-0.11851851642131805 -0.18970075249671936 -0.011303943581879139
-0.15884853899478912 -0.1964820921421051 -0.01642521843314171
-0.0570465512573719 -0.07077483087778091 1.5283958911895752
-0.06593777984380722 -0.09587925672531128 1.4832558631896973
-0.031861718744039536 -0.21606603264808655 0.905017614364624
-0.08174040168523788 0.08747538924217224 0.8552637100219727
-0.13930083811283112 -0.14162789285182953 0.2237330973148346
-0.1121276468038559 -0.12573419511318207 0.14454220235347748
-0.11361256241798401 -0.003066878765821457 0.05695798620581627
-0.07444736361503601 -0.07379589229822159 1.2791392803192139
-0.08672135323286057 -0.08442544937133789 1.2379096746444702
-0.058716800063848495 -0.19462046027183533 1.2689236402511597
-0.09423886984586716 -0.05096184462308884 0.6347289681434631
-0.07971364259719849 -0.1474842131137848 0.7167065739631653
-0.053662486374378204 -0.12833181023597717 0.8020908236503601
-0.09976473450660706 -0.12552997469902039 0.11085611581802368
-0.11029413342475891 -0.1923598200082779 0.06086347997188568
-0.08604353666305542 -0.17545434832572937 1.4464768171310425
-0.06577364355325699 -0.07991242408752441 1.3413734436035156
-0.04391365498304367 -0.07120977342128754 1.2867716550827026
-0.07535631954669952 -0.12689796090126038 0.5352402925491333
-0.05616262927651405 -0.10755053162574768 0.5367011427879333
-0.09053700417280197 -0.010908245109021664 0.47717639803886414
-0.06523413211107254 -0.16106165945529938 1.4186792373657227
-0.0402153804898262 -0.1225505992770195 1.4051555395126343
-0.06932009011507034 -0.07368050515651703 1.3844223022460938
-0.06440350413322449 -0.04791175574064255 0.4851433038711548
-0.000924721360206604 -0.0681437999010086 1.7183618545532227
-0.07517363131046295 -0.2255922257900238 1.5641756057739258
-0.038692325353622437 -0.19061580300331116 0.971577525138855
-0.04269393905997276 -0.13310928642749786 1.4185552597045898
-0.026985513046383858 -0.16030800342559814 1.3994377851486206
-0.046283602714538574 -0.14407846331596375 1.3921016454696655
-0.02829602174460888 -0.21734026074409485 1.5010972023010254
-0.06631992757320404 -0.20464399456977844 1.4542689323425293
-0.016638142988085747 -0.10665559768676758 1.4344440698623657
-0.04938588663935661 -0.06746020913124084 0.6128532886505127
0.03864715248346329 -0.11108522117137909 1.7264025211334229
0.024891648441553116 -0.00751175731420517 1.6672039031982422
-0.022641029208898544 -0.22900894284248352 1.450217843055725
-0.03785215690732002 -0.20328280329704285 1.4102705717086792
-0.005308166146278381 -0.11189120262861252 1.4074796438217163
-0.014084439724683762 -0.2092696726322174 1.411292552947998
0.02336198091506958 -0.09199389815330505 1.3895666599273682
-0.008239777758717537 -0.08147470653057098 1.2763431072235107
0.04246433451771736 -0.05879112333059311 1.7150259017944336
0.01704620197415352 -0.11661025136709213 1.434385061264038
0.006602846086025238 -0.15986347198486328 1.414651870727539
0.07060970366001129 -0.0420248806476593 1.6824647188186646
0.04945160821080208 -0.09957621991634369 1.7112915515899658
0.0043481579050421715 -0.1541566252708435 1.4033279418945312
0.045669108629226685 -0.17972609400749207 1.4342591762542725
0.0160082895308733 -0.13464891910552979 1.4112534523010254
0.037271272391080856 -0.09287850558757782 0.5606478452682495
0.050995662808418274 -0.09311293065547943 1.4695098400115967
0.06803514808416367 -0.12000834941864014 0.47566306591033936
-0.0017481958493590355 -0.22943007946014404 1.2247085571289062
0.05635884776711464 -0.11227113008499146 1.243699073791504
0.04823365807533264 -0.10279113054275513 1.1393779516220093
0.08846691995859146 -0.24639444053173065 0.05496722087264061
0.11385348439216614 -0.25505998730659485 0.02715735137462616
0.08341865986585617 -0.06398972123861313 0.0068778395652771
0.011397556401789188 -0.21121034026145935 1.2166800498962402
0.001859031617641449 -0.22287049889564514 1.1372153759002686
0.039885856211185455 -0.14186033606529236 0.700624942779541
0.07673242688179016 -0.14748044312000275 -0.022125594317913055
0.09219981729984283 -0.1015436053276062 1.671093463897705
0.039838001132011414 -0.2321384996175766 1.5650986433029175
0.03329714015126228 -0.2093256711959839 1.4907130002975464
0.029554758220911026 -0.2079371213912964 1.4478918313980103
0.0848398506641388 -0.15986594557762146 0.8499521017074585
0.14119952917099 -0.11312060803174973 1.6947546005249023
0.05996284633874893 -0.09761574864387512 1.5136713981628418
0.05521690845489502 -0.11533220112323761 1.4844192266464233
0.08816049993038177 -0.052127037197351456 0.28195711970329285
0.08169136941432953 -0.04558947682380676 0.21899572014808655
0.09986773878335953 -0.0635114461183548 -0.01926565356552601
0.09073784202337265 -0.12460833787918091 1.7469372749328613
0.07917329668998718 -0.11986735463142395 1.3787363767623901
0.08884290605783463 -0.21878564357757568 0.8419746160507202
0.06920234858989716 -0.13160067796707153 0.8327990770339966
0.11592156440019608 -0.1943267285823822 0.8325005769729614
0.07065755128860474 -0.04051141068339348 0.721997857093811
0.13511081039905548 -0.2544603645801544 0.04400192201137543
0.10493523627519608 -0.11149246990680695 1.6805026531219482
0.03341834992170334 -0.18934237957000732 1.1142382621765137
0.03494345396757126 -0.21735021471977234 1.2328050136566162
0.033481892198324203 -0.23608258366584778 1.2282335758209229
0.12901222705841064 -0.19207903742790222 0.9014961123466492
0.07910484075546265 -0.1673714518547058 1.5144257545471191
0.08862470090389252 -0.0949639081954956 1.5261768102645874
0.08452741801738739 -0.11845692247152328 1.507493257522583
0.0885070264339447 -0.13224777579307556 1.5019572973251343
0.09172716736793518 -0.14491751790046692 1.4775245189666748
0.1018703430891037 -0.06790392100811005 0.6164743900299072
0.09854686260223389 -0.13443472981452942 0.6348774433135986
0.08173008263111115 -0.1795586794614792 1.3547143936157227
0.09073580801486969 -0.1372733861207962 1.3034076690673828
0.05997276306152344 -0.13152562081813812 1.3267593383789062
0.06235366314649582 -0.1418963074684143 1.2992403507232666
0.10051360726356506 -0.11975587904453278 0.7975447177886963
0.14417530596256256 -0.10365933924913406 -0.016198059543967247
0.1562894582748413 -0.14023196697235107 -0.015888778492808342
0.10725504904985428 -0.11512362957000732 1.6368287801742554
0.0998431146144867 -0.12996849417686462 1.3508585691452026
0.1489192545413971 -0.1037849634885788 0.2667049467563629
0.13168007135391235 -0.09609847515821457 1.616536259651184
0.110116146504879 -0.07211033254861832 1.6260614395141602
0.11713908612728119 -0.09515348076820374 1.5870327949523926
0.15787118673324585 -0.12709692120552063 0.07311888784170151
0.16285334527492523 -0.2195347249507904 0.0254577174782753
0.13964012265205383 -0.2359575778245926 0.07236605137586594
0.16470932960510254 -0.020161058753728867 0.936713695526123
0.13754962384700775 -0.017724012956023216 0.8312556743621826
0.1382504105567932 -0.12754979729652405 1.6877964735031128
0.1603938639163971 0.035020966082811356 0.8380972146987915
0.18390747904777527 -0.00324944406747818 0.8958119750022888
0.1120852380990982 -0.15469595789909363 1.2917053699493408
0.11426521837711334 -0.18462812900543213 1.2729082107543945
0.08749441802501678 -0.18709790706634521 1.3262031078338623
0.11138245463371277 -0.1715044528245926 1.2344045639038086
0.09768608212471008 -0.17119309306144714 1.21588134765625
0.09667232632637024 -0.2546430826187134 1.1984436511993408
0.11850282549858093 -0.21206045150756836 1.2297459840774536
0.12159814685583115 -0.18940165638923645 1.1604783535003662
0.11513093113899231 -0.19312168657779694 1.0805673599243164
0.14201074838638306 -0.20096710324287415 1.0884543657302856
0.14620113372802734 -0.21607202291488647 1.1414005756378174
0.1281593143939972 -0.2512270212173462 1.1659928560256958
0.1375587433576584 -0.22252067923545837 1.0369428396224976
0.17435160279273987 -0.27391231060028076 1.0836741924285889
0.1737210899591446 -0.253898024559021 1.0638238191604614
0.15760400891304016 -0.23241624236106873 1.040342092514038
0.13780999183654785 -0.3145141005516052 1.0758707523345947
