-0.03911444544792175 -0.11286517232656479 1.4658353328704834
-0.004051197320222855 0.008037295192480087 1.4192336797714233
-0.027189156040549278 -0.013039249926805496 1.2908741235733032
-0.012128110975027084 0.08044788241386414 1.7669765949249268
-0.011885413900017738 -0.016461171209812164 1.4744672775268555
-0.01639048382639885 -0.060683682560920715 1.4604952335357666
0.015915188938379288 0.097974494099617 1.7242933511734009
-0.0008917748928070068 0.03687734156847 1.7734407186508179
-0.011408407241106033 -0.05231574922800064 1.4452500343322754
0.01851545460522175 -0.08166026324033737 1.486037015914917
-0.006390966475009918 -0.03069428727030754 1.452519416809082
0.07621271908283234 -0.0907207578420639 0.6018937826156616
0.01830647699534893 0.012924667447805405 1.502957820892334
0.11062826216220856 -0.10922139883041382 0.5194207429885864
0.006840810179710388 -0.1659594029188156 1.2811121940612793
0.051657162606716156 -0.03945620357990265 1.2714345455169678
0.053661033511161804 -0.06731154769659042 1.1564477682113647
0.1460167020559311 -0.107829250395298 0.0866072028875351
0.16400007903575897 -0.09913425147533417 0.06979570537805557
0.1346496045589447 0.016439728438854218 0.09571273624897003
0.022081557661294937 -0.1484135389328003 1.2665902376174927
0.010123012587428093 -0.18837127089500427 1.1910324096679688
0.07236082851886749 -0.14135882258415222 0.7434769868850708
0.12908165156841278 -0.032833896577358246 0.06768880784511566
0.049827106297016144 0.028637558221817017 1.733116865158081
0.01029399037361145 -0.12484855204820633 1.6411856412887573
0.0014908239245414734 -0.10928630083799362 1.5537712574005127
0.006625041365623474 -0.11188356578350067 1.507972240447998
0.0997915267944336 -0.1598217785358429 0.886405885219574
0.09833255410194397 0.02157144993543625 1.760138750076294
0.025072449818253517 0.010343808680772781 1.5591144561767578
0.02400067076086998 -0.006638318300247192 1.5294747352600098
0.13466575741767883 -0.014796730130910873 0.3421883285045624
0.12707969546318054 -0.0018103532493114471 0.28164970874786377
0.14654836058616638 0.02766343206167221 0.07857377827167511
0.04337469860911369 0.012781370431184769 1.8196070194244385
0.05973818525671959 -0.00988045334815979 1.4259955883026123
0.10073868930339813 -0.21891289949417114 0.8741062879562378
0.09079564362764359 -0.13128086924552917 0.873950719833374
0.13053253293037415 -0.19432595372200012 0.8747533559799194
0.0980866402387619 -0.04214095324277878 0.7628150582313538
0.1912377029657364 -0.09791769087314606 0.08133220672607422
0.05685054138302803 0.016541041433811188 1.7441473007202148
0.042716134339571 -0.1573013961315155 1.157747507095337
0.050763875246047974 -0.1350792646408081 1.2856992483139038
0.05362025648355484 -0.1513614058494568 1.2826025485992432
0.12778323888778687 -0.18863451480865479 0.9433587789535522
0.047489602118730545 -0.06274610757827759 1.5747096538543701
0.05455781891942024 0.011778894811868668 1.5678088665008545
0.05000532418489456 -0.01383618637919426 1.5576562881469727
0.057564686983823776 -0.03004080429673195 1.552201747894287
0.06926257163286209 -0.04201347380876541 1.5285487174987793
0.13752751052379608 -0.06585857272148132 0.6613845825195312
0.135401651263237 -0.13215366005897522 0.6808180212974548
0.07749864459037781 -0.04834267869591713 1.4038914442062378
0.08011133968830109 0.0029019415378570557 1.3447139263153076
0.044576093554496765 -0.0013582408428192139 1.3594670295715332
0.055551134049892426 -0.022812463343143463 1.3360400199890137
0.1262684166431427 -0.11883522570133209 0.8426703214645386
0.19067691266536713 0.011242195963859558 0.08199647814035416
0.20591452717781067 -0.013987138867378235 0.0748344212770462
0.0700918436050415 0.007238190621137619 1.6972737312316895
0.08568766713142395 -0.02455303445458412 1.3985487222671509
0.19788885116577148 -0.058625396341085434 0.32645395398139954
0.0922427624464035 0.025923345237970352 1.6704710721969604
0.06925185024738312 0.052662868052721024 1.6737475395202637
0.07823361456394196 0.022095847874879837 1.6386327743530273
0.20734423398971558 -0.02596178650856018 0.15100304782390594
0.21512001752853394 -0.0694442093372345 0.08054118603467941
0.20015262067317963 -0.10012727975845337 0.10713250935077667
0.15506185591220856 -0.01348296832293272 0.9832330942153931
0.1528376042842865 -0.014932794496417046 0.8834133744239807
0.09667012095451355 -6.582587957382202e-05 1.7590380907058716
0.17063568532466888 0.038655754178762436 0.8912198543548584
0.18284785747528076 0.0021497132256627083 0.9543065428733826
0.10755473375320435 -0.0057863034307956696 1.3383489847183228
0.12345567345619202 -0.02623547986149788 1.3237055540084839
0.08931837230920792 -0.05166845768690109 1.3695015907287598
0.1212228387594223 -0.010721772909164429 1.2835559844970703
0.11065186560153961 -0.015654657036066055 1.2631011009216309
0.1352621167898178 -0.09214074909687042 1.2424572706222534
0.1451275646686554 -0.0456661693751812 1.2826995849609375
0.16470560431480408 -0.015450425446033478 1.2182140350341797
0.1834743171930313 -0.018460359424352646 1.140841007232666
0.20990526676177979 -0.03238270804286003 1.1584910154342651
0.19392718374729156 -0.05182598531246185 1.2052744626998901
0.17130982875823975 -0.0928555577993393 1.2246476411819458
0.21683663129806519 -0.04663844406604767 1.1054928302764893
0.2353535294532776 -0.1191038265824318 1.1547842025756836
0.24583593010902405 -0.092628113925457 1.1361936330795288
0.2369375377893448 -0.06639405339956284 1.1083465814590454
0.20038333535194397 -0.15670329332351685 1.1353412866592407
0.22059190273284912 -0.12308827042579651 1.1028409004211426
0.22206929326057434 -0.10106928646564484 1.091663122177124
0.26526084542274475 -0.17479577660560608 0.9845675230026245
0.20213042199611664 -0.14174716174602509 1.1019459962844849
0.20115715265274048 -0.15638959407806396 1.0739586353302002
0.2412233203649521 -0.13377462327480316 1.0203139781951904
0.20697228610515594 -0.14565260708332062 1.0491671562194824
0.20342662930488586 -0.17344102263450623 1.0511221885681152
0.22775208950042725 -0.16539259254932404 1.019124984741211
0.2500462532043457 -0.17165115475654602 1.0123776197433472
0.20346005260944366 -0.19871026277542114 1.0212887525558472
0.22908036410808563 -0.18539705872535706 1.0117759704589844
0.21538862586021423 -0.19039833545684814 1.0209132432937622
0.2580011188983917 -0.18178343772888184 0.9642978310585022
0.2244478017091751 -0.20454251766204834 1.0082497596740723
0.2410075068473816 -0.1677151322364807 0.9791775941848755
0.24321043491363525 -0.2014247179031372 0.9767438769340515
0.2613362669944763 -0.19413861632347107 0.9800742864608765
-0.3177582025527954 -0.05077240243554115 1.094778299331665
-0.30352354049682617 -0.11128617823123932 1.085282564163208
-0.29242298007011414 -0.09337389469146729 1.0811290740966797
-0.30839166045188904 -0.13124239444732666 1.121119737625122
-0.25927332043647766 -0.047218892723321915 1.0905723571777344
-0.28057414293289185 -0.1287754476070404 1.1068936586380005
-0.2029443085193634 -0.012226518243551254 1.2397117614746094
-0.1980535238981247 -0.06829408556222916 1.2175757884979248
-0.17394620180130005 -0.09864750504493713 0.9736347198486328
-0.17782104015350342 -0.016412705183029175 0.9529447555541992
-0.1278189718723297 0.051114119589328766 0.9381264448165894
-0.11289859563112259 0.15472757816314697 1.2617270946502686
-0.10546426475048065 0.15177738666534424 1.2027337551116943
-0.10860621929168701 0.17556644976139069 1.170460820198059
-0.1529187113046646 -0.011756688356399536 0.9756081104278564
-0.2061115801334381 0.03613843768835068 1.7373534440994263
-0.15373632311820984 0.005062811076641083 1.362791657447815
-0.1741035282611847 0.0049562156200408936 1.2943311929702759
-0.03920570760965347 0.16896480321884155 1.0709208250045776
-0.06727690994739532 0.17454573512077332 0.989254355430603
-0.28505179286003113 -0.09043428301811218 0.12593355774879456
-0.29978320002555847 -0.14405527710914612 0.07990459352731705
-0.1803612858057022 0.030830547213554382 1.7183111906051636
-0.16458936035633087 0.039249029010534286 1.6634061336517334
-0.15213792026042938 -0.12820667028427124 1.2592966556549072
-0.15125997364521027 -0.14566442370414734 1.231339693069458
-0.1551775485277176 -0.1660764217376709 1.228338360786438
-0.11379414796829224 0.11560215801000595 1.3818490505218506
-0.10530094802379608 0.10660829395055771 1.3760931491851807
-0.1321897655725479 -0.12853917479515076 1.2744698524475098
-0.14791902899742126 -0.05586887151002884 1.2146522998809814
-0.25755801796913147 -0.10844127833843231 0.19314393401145935
-0.2621246576309204 -0.06349588930606842 0.19939294457435608
-0.06112620607018471 0.13162219524383545 1.2561182975769043
-0.15814581513404846 -0.01282612606883049 1.4635576009750366
-0.15833540260791779 -0.007172882556915283 1.4417006969451904
-0.14433643221855164 -0.012125633656978607 1.4234803915023804
-0.15776488184928894 -0.00541381910443306 1.4196587800979614
-0.15639948844909668 -0.026048075407743454 1.4115856885910034
-0.14926700294017792 -0.10930600762367249 0.7999511957168579
-0.16078932583332062 -0.07137302309274673 0.7951380014419556
-0.03519785776734352 0.22975262999534607 1.0781792402267456
-0.036764997988939285 0.227484792470932 1.1305146217346191
-0.12368623167276382 -0.12129589915275574 1.2721912860870361
-0.13018998503684998 -0.10856741666793823 0.8721743822097778
-0.2582148015499115 -0.02697959914803505 0.12532967329025269
-0.26347872614860535 -0.026772242039442062 0.0867752730846405
-0.14065101742744446 -0.18771342933177948 0.8587244749069214
-0.06271992623806 0.19283749163150787 1.23681640625
-0.15752682089805603 -0.0883651152253151 1.630078673362732
-0.13081911206245422 0.025995157659053802 1.5428625345230103
-0.1009497418999672 0.11355654895305634 1.5087461471557617
-0.10084947198629379 0.0756993517279625 1.5687932968139648
-0.11973889917135239 0.07440950721502304 1.5417237281799316
-0.10611863434314728 0.09300518780946732 1.4551502466201782
-0.05455285683274269 0.1366560459136963 1.550882339477539
-0.1204858124256134 -0.011924892663955688 1.4945342540740967
-0.08603490144014359 0.0439889058470726 0.9820117354393005
-0.13733047246932983 0.03653370589017868 1.8213547468185425
-0.14985090494155884 0.02900177240371704 1.816235065460205
-0.14955544471740723 0.01758618652820587 1.8018033504486084
-0.02235807664692402 0.07702560722827911 1.445953369140625
-0.08198480308055878 0.1282065063714981 1.4246456623077393
-0.20209237933158875 -0.09060227125883102 0.04871637374162674
-0.03249477967619896 0.16633650660514832 1.368605613708496
-0.11893812566995621 -0.08911026269197464 1.5421216487884521
-0.17530058324337006 -0.07131640613079071 0.40479516983032227
-0.06173142418265343 0.07447019219398499 1.5094666481018066
-0.08479680120944977 0.033193133771419525 1.493341088294983
-0.03409704938530922 0.13991008698940277 1.4710168838500977
-0.03292889520525932 0.052425533533096313 0.8640137910842896
-0.1827683448791504 -0.007929222658276558 0.35429203510284424
0.010273321531713009 0.1911110132932663 0.98567795753479
-0.032700080424547195 0.038001030683517456 1.040370225906372
-0.10439831763505936 -0.15321463346481323 1.2705875635147095
-0.09849757701158524 -0.15433916449546814 1.1674144268035889
-0.17109230160713196 -0.035498619079589844 0.33306407928466797
-0.15553860366344452 -0.05096433684229851 0.27077317237854004
-0.18621686100959778 -0.0013822282198816538 0.2656615376472473
-0.06871828436851501 0.057051997631788254 1.5296225547790527
-0.08838215470314026 -0.10636214911937714 0.695468544960022
-0.1133599728345871 -0.03277621045708656 0.6672812104225159
0.01987607590854168 0.2342228889465332 1.1201107501983643
0.024022378027439117 0.2239323854446411 1.0323899984359741
-0.05086451396346092 -0.18620650470256805 1.1946892738342285
-0.18285681307315826 -0.07379108667373657 0.13462276756763458
0.015071059577167034 0.17261207103729248 1.0282238721847534
0.008036056533455849 0.15218107402324677 1.0662492513656616
0.0012814104557037354 0.05634693056344986 1.5200268030166626
-0.08453742414712906 -0.08390915393829346 1.4054690599441528
0.021643422544002533 0.17531482875347137 1.3465532064437866
0.022955769672989845 0.06710872799158096 1.4361729621887207
-0.006889324635267258 0.046966370195150375 1.521109700202942
0.06800474226474762 0.1680663377046585 1.0356966257095337
0.08494208753108978 0.15395201742649078 0.9929711222648621
-0.019629178568720818 -0.10185539722442627 1.4015462398529053
0.014102920889854431 0.03761410713195801 1.0387697219848633
-0.0243555698543787 -0.19962471723556519 1.1224461793899536
0.0873139500617981 0.1456039845943451 1.3706936836242676
0.012054645456373692 -0.01225069910287857 1.3080052137374878
0.059998854994773865 0.1187790036201477 1.4775161743164062
0.02638564258813858 0.06912403553724289 1.4802156686782837
0.027416903525590897 -0.028110306710004807 1.217879295349121
0.04482078179717064 0.09508444368839264 0.9283883571624756
-0.002380046993494034 -0.01178017258644104 1.7574284076690674
0.1277736872434616 -0.08179160952568054 0.0984460860490799
0.11883830279111862 -0.08738355338573456 0.07497002184391022
0.12040533125400543 -0.029238078743219376 0.11043761670589447
-0.03684217110276222 -0.13278129696846008 1.6336472034454346
0.06740525364875793 -0.06237025558948517 0.7271971702575684
0.08434022963047028 0.058753520250320435 1.4484325647354126
0.031060704961419106 -0.046465784311294556 1.4965991973876953
0.0689140036702156 -0.032600048929452896 1.4417593479156494
0.025974426418542862 0.0018266066908836365 1.4169163703918457
0.11425616592168808 -0.02872338891029358 0.4095594882965088
0.13717086613178253 -0.10689039528369904 0.25086989998817444
0.13243703544139862 -0.01821114495396614 0.21824373304843903
0.13546350598335266 0.15629103779792786 1.0455377101898193
0.12833815813064575 0.1848827600479126 1.010655403137207
0.10584288835525513 -0.14600631594657898 0.7548397779464722
0.10991649329662323 -0.05255240947008133 0.6700344085693359
-0.0019192658364772797 -0.060681864619255066 1.7448391914367676
0.037640348076820374 -0.07100800424814224 1.7000607252120972
0.12641379237174988 -0.12929612398147583 0.5630292296409607
0.016139669343829155 -0.005892060697078705 1.7707010507583618
0.039192669093608856 -0.023323941975831985 1.720878005027771
0.06491821259260178 -0.09599049389362335 1.1525346040725708
0.06951069831848145 -0.0833149254322052 1.1252692937850952
0.060988105833530426 -0.1569182276725769 1.1085882186889648
0.023928703740239143 -0.1122494488954544 1.6328610181808472
0.043973274528980255 -0.043747592717409134 1.5249751806259155
0.03246508166193962 -0.08257155120372772 1.5255451202392578
0.17291948199272156 0.13439103960990906 1.0048484802246094
0.06957750022411346 -0.08832914382219315 1.3095002174377441
0.08114077150821686 -0.15426458418369293 1.270186185836792
0.07583892345428467 -0.09936653822660446 1.2562813758850098
0.1776794046163559 -0.003322504460811615 0.16902296245098114
0.18783235549926758 -0.08278097212314606 0.18652456998825073
0.2028781920671463 -0.07148386538028717 0.17130790650844574
0.05900963395833969 0.0015207156538963318 1.7430766820907593
0.07959102094173431 -0.09789333492517471 1.3096840381622314
0.18740758299827576 -0.035095520317554474 0.448593407869339
0.16649097204208374 -0.09105917811393738 0.5002174377441406
0.19640246033668518 -0.04704606533050537 0.3930136263370514
0.08278782665729523 -0.04844735562801361 1.4355636835098267
0.06984000653028488 -0.042944710701704025 1.4321380853652954
0.08903825283050537 -0.03273998573422432 1.3895468711853027
0.11980002373456955 0.06545063853263855 0.9377860426902771
0.13174036145210266 -0.11644366383552551 0.875760018825531
0.2057626098394394 -0.025808196514844894 0.2673114538192749
0.21951361000537872 -0.05709988996386528 0.2739395201206207
0.09431785345077515 -0.012028343975543976 1.3845677375793457
0.15911854803562164 0.0866091251373291 1.2871720790863037
0.16843657195568085 0.11246263235807419 1.2617943286895752
0.09146245568990707 -0.2277248203754425 1.1673328876495361
0.15053193271160126 -0.06465134024620056 1.0091800689697266
0.15310558676719666 -0.12247616797685623 1.0043096542358398
0.1250891387462616 -0.0038948506116867065 1.2070896625518799
0.15443992614746094 -0.10979531705379486 1.1006240844726562
0.17211909592151642 -0.0721028670668602 1.0841951370239258
0.15850003063678741 -0.1442701518535614 1.1643548011779785
-0.29966139793395996 -0.06659173965454102 1.0711842775344849
-0.30746617913246155 -0.1257280856370926 1.0528360605239868
-0.2366771101951599 -0.1074414998292923 1.1508339643478394
-0.24883323907852173 -0.10827518999576569 1.1981384754180908
-0.21342779695987701 -0.07018204033374786 1.158400297164917
-0.2135104537010193 -0.029427750036120415 1.1795949935913086
-0.19294652342796326 -0.15333527326583862 0.8848193883895874
-0.09904834628105164 0.17945480346679688 1.027791976928711
-0.10549622774124146 0.16904936730861664 1.1310526132583618
-0.16072094440460205 -0.23165932297706604 1.1358189582824707
-0.13896945118904114 -0.161638081073761 0.9673930406570435
-0.27165383100509644 -0.05088595300912857 0.28811341524124146
-0.2482907772064209 -0.10200099647045135 0.30279383063316345
-0.19799649715423584 0.0026893613394349813 0.5082432627677917
-0.15200728178024292 -0.19377043843269348 0.8648031949996948
-0.17527444660663605 -0.055673617869615555 0.6513431072235107
-0.16368363797664642 -0.09640532732009888 0.7043412923812866
-0.148344025015831 -0.03659053519368172 0.7093299627304077
-0.10242313146591187 -0.016822321340441704 1.1046719551086426
-0.11283539235591888 -0.07757212221622467 1.1319624185562134
-0.02366374433040619 0.21666957437992096 1.2050786018371582
-0.11456604301929474 -0.017965352162718773 0.8667479753494263
-0.20538881421089172 -0.11560605466365814 0.3152807354927063
-0.11790814995765686 -0.020222865045070648 1.211533784866333
-0.09463615715503693 -0.03864160180091858 1.1384817361831665
-0.18929199874401093 -0.0924270823597908 0.45561426877975464
-0.14178787171840668 0.01417006179690361 1.7374131679534912
-0.14758500456809998 -0.02270474284887314 1.7282313108444214
-0.10800476372241974 -0.060071177780628204 1.7378456592559814
-0.1257694512605667 -0.09858912229537964 1.6953357458114624
-0.13997027277946472 -0.08954611420631409 1.5938355922698975
-0.17930033802986145 -0.07057217508554459 0.34946149587631226
-0.08308837562799454 -0.11790452152490616 0.746345579624176
-0.1584406942129135 -0.08031968772411346 0.278953492641449
-0.17614828050136566 -0.10842090100049973 0.2835175096988678
-0.1934838742017746 -0.029101626947522163 0.21423061192035675
-0.0478002168238163 0.06539204716682434 0.9721125960350037
-0.09477734565734863 0.02417668327689171 1.7841886281967163
-0.11168427020311356 0.011606816202402115 1.7700293064117432
0.05550606548786163 0.13705995678901672 1.1859557628631592
-0.0321444608271122 0.1509445458650589 1.1886482238769531
0.03216569870710373 0.12356211990118027 1.2454197406768799
-0.003322035074234009 -0.030832260847091675 1.2576483488082886
0.04677745699882507 0.20610865950584412 1.2380259037017822
0.05175218731164932 0.1530480831861496 1.0720033645629883
0.11063436418771744 0.21397176384925842 1.1565766334533691
0.012672178447246552 0.11636018753051758 1.6655786037445068
0.08357978612184525 0.14136487245559692 1.0796921253204346
0.04190317541360855 -0.2189871072769165 0.9153940081596375
0.10193876922130585 -0.07333794236183167 0.2706143260002136
0.1321275532245636 -0.07865365594625473 0.21221983432769775
0.06697259843349457 -0.12968790531158447 0.7097651958465576
0.03337201476097107 0.011198874562978745 1.0755130052566528
0.09187472611665726 -0.04842129349708557 0.5801571607589722
0.09293954074382782 0.09821313619613647 1.3159478902816772
0.054277099668979645 -0.05782965198159218 1.4234459400177002
0.043884459882974625 0.10212495177984238 1.6291186809539795
0.03599442541599274 0.03322356194257736 1.6007378101348877
0.04258645698428154 0.04945658892393112 1.5732908248901367
0.013407157734036446 0.0017398186028003693 1.818938970565796
0.058439090847969055 -0.07725755125284195 1.357266902923584
0.15643002092838287 -0.016019627451896667 0.5149461030960083
0.12211894989013672 -0.004325896501541138 0.511076807975769
0.15206219255924225 -0.005097813904285431 0.36222171783447266
0.17357173562049866 -0.006282258778810501 0.33444279432296753
0.06691769510507584 -0.03889351338148117 1.5169289112091064
0.05327475070953369 -0.04777182638645172 1.5269536972045898
0.06831659376621246 -0.04664301127195358 1.50973379611969
0.13339447975158691 -0.05280618742108345 0.7765018939971924
0.14984364807605743 -0.09559392184019089 0.6462683081626892
0.1180555522441864 0.0258121807128191 0.9779443740844727
0.10090762376785278 -0.07560037076473236 1.1004987955093384
0.0943453311920166 -0.12965288758277893 1.0921965837478638
0.10315613448619843 -0.15479210019111633 1.0404963493347168
0.07153968513011932 -0.0019378922879695892 1.6401445865631104
0.08275642991065979 -0.008851990103721619 1.5551807880401611
0.07553984969854355 -0.1451272964477539 1.2525169849395752
0.10089816153049469 0.06428338587284088 1.5421744585037231
0.08918017148971558 0.03800594061613083 1.5829616785049438
0.20398399233818054 0.0024019330739974976 0.1025291234254837
0.2177368700504303 -0.038485750555992126 0.09162689745426178
0.11034674942493439 0.04351051524281502 1.508163332939148
0.1174212098121643 0.05688199773430824 1.4732602834701538
0.12511932849884033 0.04443032667040825 1.4369823932647705
0.12788459658622742 0.05933181196451187 1.4226768016815186
0.08537755906581879 -0.22935470938682556 1.187296748161316
0.1789580136537552 -0.1560506522655487 0.8919335007667542
0.10317645967006683 -0.20311850309371948 1.1986219882965088
0.10000196099281311 -0.22915682196617126 1.186095118522644
0.20704101026058197 -0.11153057962656021 0.9123959541320801
0.20971301198005676 -0.08902136981487274 0.892666220664978
0.21740910410881042 -0.05401112139225006 0.9027810096740723
-0.21890437602996826 -0.09810560196638107 1.204991340637207
-0.17805591225624084 -0.09686782956123352 1.2739661931991577
-0.18536093831062317 -0.09466148167848587 1.2567955255508423
-0.17628711462020874 -0.08711592853069305 1.2638238668441772
-0.17388910055160522 -0.084266796708107 1.280623197555542
-0.19839757680892944 0.0023710886016488075 0.8911334276199341
-0.1486893892288208 -0.04843024164438248 1.2993011474609375
-0.145510733127594 -0.06460879743099213 1.0802096128463745
-0.13973647356033325 0.10439977049827576 1.5469783544540405
-0.14702275395393372 -0.0825735554099083 1.2040976285934448
-0.144249826669693 -0.07863748073577881 1.1508219242095947
-0.10911151021718979 0.10670370608568192 1.4404858350753784
-0.09595561772584915 0.10179208964109421 1.4004569053649902
-0.13334673643112183 -0.14051765203475952 1.0484181642532349
-0.0993349552154541 -0.16687290370464325 1.0079684257507324
-0.1374046951532364 -0.028095737099647522 0.7950226068496704
-0.029934192076325417 0.19284924864768982 1.2756645679473877
-0.08317561447620392 0.13201545178890228 1.6403650045394897
-0.1897432953119278 -0.03953096270561218 0.07945732772350311
-0.20243754982948303 -0.02801131270825863 0.07056203484535217
-0.08398590981960297 0.02620632015168667 0.8751829862594604
-0.00010504387319087982 0.09607099741697311 0.8596264123916626
-0.06735982745885849 -0.01882774755358696 0.8531779050827026
0.022190114483237267 0.09533245116472244 1.3392579555511475
-0.05087016150355339 -0.07973114401102066 0.7713664770126343
-0.07270833849906921 -0.1189759373664856 1.611162543296814
-0.00782538577914238 0.015215366147458553 0.8793009519577026
-0.00592750683426857 -0.02503862790763378 0.8582092523574829
0.01757189631462097 -0.11806567758321762 0.863489031791687
-0.0798690915107727 -0.16530348360538483 0.8632545471191406
-0.006840569898486137 -0.22619447112083435 0.8562178015708923
0.03687683492898941 -0.11004924774169922 0.8438306450843811
-0.006803694646805525 -0.16177798807621002 0.8681079149246216
-0.014053069055080414 0.03040080890059471 1.4932053089141846
0.029500937089323997 -0.03626510873436928 0.8553566932678223
0.03345884010195732 -0.050025224685668945 0.8399481177330017
-0.0023296773433685303 0.039928749203681946 1.5718024969100952
0.00245724618434906 0.04345374554395676 1.5455931425094604
0.045264068990945816 -0.12425012141466141 0.8594330549240112
0.13252002000808716 0.05827651172876358 0.8698552250862122
0.10388348996639252 -0.04422423988580704 0.2714058458805084
0.05679114907979965 -0.03604048117995262 0.8281500339508057
0.09388970583677292 0.13090986013412476 1.2196239233016968
0.13355986773967743 -0.08119359612464905 0.39608073234558105
0.12882545590400696 -0.055745042860507965 0.3340587615966797
0.14539460837841034 -0.0788106620311737 0.34804385900497437
0.14424820244312286 -0.11640463769435883 0.2927591800689697
0.08609230816364288 0.07719264924526215 1.5083537101745605
0.08260250091552734 -0.01661338284611702 0.8635390400886536
0.11167125403881073 -0.03639402985572815 0.8445355892181396
0.07405824959278107 -0.07154791802167892 1.2563228607177734
0.16239695250988007 -0.09457952529191971 0.443732351064682
0.07308527827262878 0.05198931321501732 1.6183247566223145
0.059823378920555115 -0.026696953922510147 1.3077633380889893
0.17505837976932526 -0.07885042577981949 0.35075899958610535
0.12119532376527786 0.18914814293384552 1.2166203260421753
0.07916295528411865 -0.0528898723423481 1.2294843196868896
0.16590802371501923 -0.01200367882847786 0.22627082467079163
0.1641116738319397 0.1838039606809616 1.1358200311660767
0.16159029304981232 -0.0013703107833862305 0.2644795775413513
0.18737001717090607 -0.11709298193454742 0.2657053470611572
0.13352061808109283 0.07905702292919159 1.3346303701400757
0.07885068655014038 -0.030951756983995438 1.4739826917648315
0.08804783225059509 -0.026926551014184952 1.4386827945709229
0.0767505094408989 -0.030250638723373413 1.4719867706298828
0.10196560621261597 -0.024709690362215042 1.417790412902832
0.09395048767328262 -0.17095588147640228 1.2397210597991943
0.0809255838394165 -0.1798819899559021 1.2341337203979492
0.1628788411617279 0.1006985455751419 1.243039846420288
0.18714462220668793 0.1333579272031784 1.1807630062103271
0.1831781566143036 0.1256856918334961 1.1469773054122925
0.10152053833007812 -0.03177373856306076 1.262068271636963
0.09540398418903351 -0.06436609476804733 1.275618314743042
0.16153375804424286 -0.18070697784423828 0.9008172154426575
0.10128970444202423 -0.07578037679195404 1.2842090129852295
0.10572943836450577 -0.09734103828668594 1.180114507675171
0.12375128269195557 -0.030487127602100372 1.1646177768707275
0.11224149912595749 -0.07769625633955002 1.1505192518234253
0.16897745430469513 -0.12530852854251862 1.1973655223846436
0.19520755112171173 -0.10397941619157791 1.0711010694503784
0.17155319452285767 -0.1510394960641861 1.1201753616333008
-0.16454386711120605 -0.218305766582489 1.175148606300354
-0.16438952088356018 -0.14743414521217346 1.2215850353240967
-0.17044436931610107 -0.13407351076602936 1.2405929565429688
-0.15405414998531342 -0.20377972722053528 1.1750268936157227
-0.12751907110214233 0.11063477396965027 1.4689946174621582
-0.134063258767128 0.09986046701669693 1.4527778625488281
-0.1313047856092453 0.11642759293317795 1.409736156463623
-0.16522365808486938 0.012338921427726746 1.6989874839782715
-0.16926179826259613 -0.023333627730607986 1.6146752834320068
-0.2364751249551773 -0.06934531033039093 0.34749317169189453
-0.13400988280773163 -0.0667521208524704 0.8662631511688232
-0.13741348683834076 -0.09112833440303802 0.8454771041870117
-0.08352872729301453 0.1938934326171875 1.0064518451690674
-0.11396129429340363 -0.11953810602426529 1.2624138593673706
-0.12121500819921494 -0.028427042067050934 0.8401014804840088
-0.11881788820028305 -0.002810344099998474 1.750510573387146
-0.1046258881688118 -0.12059502303600311 1.1395761966705322
-0.07211801409721375 -0.18365225195884705 1.1377061605453491
-0.030399994924664497 0.16793060302734375 1.1133841276168823
0.043344587087631226 0.15352848172187805 1.111928105354309
-0.07239294052124023 -0.021898791193962097 1.15426504611969
-0.0559009425342083 -0.11373215913772583 0.8559840321540833
-0.06071658432483673 -0.18786881864070892 1.0695703029632568
-0.0518370158970356 0.017522454261779785 1.0611885786056519
-0.0649738684296608 -0.10754816979169846 1.710062861442566
0.03564237803220749 -0.10267943888902664 0.7803745269775391
-0.026461172848939896 0.1131695806980133 1.3097440004348755
0.11535436660051346 -0.050749436020851135 0.06540711969137192
0.15382882952690125 0.19902527332305908 1.0706743001937866
0.1105300560593605 0.14649508893489838 1.1344071626663208
0.09935842454433441 0.22232814133167267 1.0795373916625977
0.10143697261810303 0.08748830854892731 0.8719120025634766
0.17622624337673187 0.02858767658472061 0.0942954272031784
0.12501397728919983 -0.03789648041129112 0.8713546395301819
0.16645967960357666 -0.08394239842891693 0.4010416865348816
0.08538985252380371 -0.05092363432049751 1.4023821353912354
0.08471105247735977 -0.07084855437278748 1.323357105255127
0.20225538313388824 -6.62039965391159e-05 0.8931878209114075
0.2001318633556366 -0.05007392168045044 0.957775354385376
0.1864839643239975 -0.134345144033432 1.086306095123291
-0.25801384449005127 -0.12213951349258423 1.1664032936096191
-0.19700202345848083 -0.08496291935443878 0.9480271935462952
-0.21601629257202148 -0.07265614718198776 0.8952568769454956
-0.13484741747379303 0.09861719608306885 1.4052985906600952
-0.11255629360675812 0.13160468637943268 1.2644872665405273
-0.14911556243896484 0.02413291111588478 1.5317437648773193
-0.13802580535411835 -0.057045742869377136 1.047886610031128
-0.14518117904663086 -0.0849430039525032 1.0878503322601318
-0.14872239530086517 0.02860141173005104 1.532841444015503
-0.14987777173519135 0.015446551144123077 1.5190274715423584
-0.1481904536485672 0.020514175295829773 1.5267235040664673
-0.15009251236915588 0.019659049808979034 1.5312318801879883
-0.1548234522342682 0.008482106029987335 1.5198975801467896
-0.23118478059768677 -0.12793681025505066 0.19623161852359772
-0.16698983311653137 -0.0599750392138958 1.667054295539856
-0.04565780609846115 -0.014204338192939758 1.2095507383346558
-0.1940842568874359 -0.14488397538661957 0.07104215770959854
-0.0619349367916584 -0.01920529454946518 1.2525306940078735
-0.01702692359685898 -0.026731638237833977 1.1661748886108398
-0.036214131861925125 0.09359648823738098 0.9349981546401978
-0.05578801780939102 -0.014354333281517029 1.7686643600463867
-0.07193797081708908 -0.07127083837985992 0.7109823226928711
-0.000696457689628005 0.11506259441375732 1.2736520767211914
-0.001531265676021576 -0.191983163356781 1.0180885791778564
-0.0502772182226181 -0.1814059317111969 1.2390917539596558
0.04888686165213585 0.1390189677476883 1.1558030843734741
0.12420224398374557 -0.044100821018218994 0.2016686499118805
0.05713257938623428 -0.18005189299583435 1.003270149230957
0.10742251574993134 -0.17363426089286804 0.990461528301239
0.057921212166547775 0.05037647485733032 1.541435718536377
0.04907669872045517 -0.16403356194496155 1.1880009174346924
0.024673927575349808 -0.03643213212490082 1.1654936075210571
0.08233529329299927 -0.029396532103419304 1.0923571586608887
0.07763312757015228 0.05879339575767517 0.9679047465324402
0.16552677750587463 -0.07297211140394211 0.03853742033243179
0.14110112190246582 -0.06679375469684601 0.038305025547742844
0.19662077724933624 -0.051571451127529144 0.04702557995915413
0.20707477629184723 -0.09089384973049164 0.2526765763759613
0.0756661593914032 -0.030057352036237717 1.4703078269958496
0.07438735663890839 -0.028946340084075928 1.4693362712860107
0.06953597068786621 -0.04308658093214035 1.3307665586471558
0.08402352780103683 -0.06499923765659332 1.3125531673431396
0.202662393450737 0.14859838783740997 1.078805685043335
0.1997039020061493 0.1283014416694641 1.0318942070007324
0.2088615596294403 0.13241532444953918 1.0287307500839233
0.2096543312072754 -0.09633103013038635 1.0714969635009766
0.19007720053195953 -0.15516780316829681 1.0654480457305908
0.19741171598434448 -0.18156373500823975 1.0593904256820679
-0.25476017594337463 -0.08329737186431885 1.0913523435592651
-0.17262978851795197 -0.17755140364170074 1.2110792398452759
-0.20747490227222443 -0.0749175176024437 0.3754121959209442
-0.04709150642156601 0.1745043396949768 0.980962336063385
-0.11148355156183243 -0.14167019724845886 1.0874149799346924
-0.037242285907268524 -0.041450344026088715 0.8508853912353516
-0.06219831854104996 -0.029454365372657776 0.8172615766525269
-0.05698476359248161 -0.08207657933235168 0.8184171319007874
-0.009320477023720741 0.00999496504664421 1.1065822839736938
0.02514297515153885 -0.20893104374408722 0.8468517661094666
0.09810036420822144 0.01457342691719532 0.8792984485626221
0.1293988823890686 0.1438976228237152 1.099256157875061
0.07788239419460297 0.013485860079526901 1.5582146644592285
0.08999320864677429 0.03507925570011139 1.5351009368896484
0.18737854063510895 -0.1191519945859909 0.9579823613166809
-0.17671965062618256 -0.19059091806411743 1.17991304397583
-0.14737117290496826 0.07376337796449661 1.5641390085220337
-0.020285815000534058 0.18268823623657227 1.0274968147277832
-0.12662763893604279 0.10041777789592743 1.5957850217819214
-0.10354909300804138 0.06118204817175865 1.5852394104003906
-0.07189460098743439 0.05159585922956467 1.5646679401397705
0.021731890738010406 -0.1945713758468628 1.0763252973556519
0.03766750544309616 -0.1372089385986328 1.2747911214828491
0.1621844619512558 -0.09189752489328384 0.1734050065279007
0.07603047788143158 -0.125846728682518 1.2323946952819824
0.08723731338977814 -0.12011609971523285 1.1789896488189697
0.11064516007900238 0.06608688831329346 1.4356157779693604
0.09868229925632477 0.09400370717048645 1.4448436498641968
0.09173932671546936 -0.07517822831869125 1.1845066547393799
0.12994934618473053 -0.07529592514038086 0.8551936149597168
0.06450759619474411 -0.16077563166618347 1.2571241855621338
0.1370834857225418 0.09458732604980469 1.3561699390411377
-0.10490268468856812 0.12625175714492798 1.3498777151107788
-0.19890733063220978 0.0018236283212900162 0.38249829411506653
0.051350198686122894 -0.10190403461456299 0.7394154071807861
-0.009272962808609009 -0.11413608491420746 1.6898488998413086
-0.09876540303230286 0.18998564779758453 1.0752062797546387
-0.16748447716236115 -0.08593008667230606 1.283369779586792
-0.15703946352005005 -0.03897423669695854 0.41729670763015747
0.015712525695562363 0.13707417249679565 1.4752333164215088
0.12329116463661194 -0.07677578181028366 0.043358489871025085
0.0695156678557396 -0.04491133242845535 1.512451410293579
0.0697312280535698 -0.04564864933490753 1.508753776550293
0.07378613948822021 -0.03301214799284935 1.4257160425186157
0.1986769437789917 -0.07381653040647507 0.22453442215919495
0.19583579897880554 -0.03948652371764183 0.21368873119354248
0.11321845650672913 -0.09797637909650803 1.2290821075439453
-0.17454953491687775 -0.15812861919403076 0.944506824016571
-0.11742644011974335 0.1122991293668747 1.3794848918914795
-0.11663442105054855 0.10954727977514267 1.3794689178466797
-0.12103404104709625 0.1078186184167862 1.3799556493759155
-0.1745496541261673 -0.06614728271961212 0.21534821391105652
-0.03640399128198624 -0.09622012078762054 0.8516654968261719
0.13485582172870636 -0.07025095075368881 0.16180641949176788
0.13093718886375427 -0.12656892836093903 1.187971830368042
0.051722202450037 -0.06828813999891281 1.6479156017303467
0.14743061363697052 -0.09857422113418579 0.8049707412719727
0.1260056048631668 0.05599215626716614 1.40373694896698
0.13405001163482666 0.07461529225111008 1.3681679964065552
0.1232241615653038 -0.003235854208469391 0.07472444325685501
0.007343129254877567 -0.46804749965667725 1.1084321737289429
0.014245180413126945 -0.4373375177383423 1.0838345289230347
0.011513885110616684 -0.4491809010505676 1.0870460271835327
0.005147049203515053 -0.4440765678882599 1.0911211967468262
0.0017938138917088509 -0.46670323610305786 1.0967810153961182
0.01361827738583088 -0.45640814304351807 1.1112443208694458
0.0862669050693512 -0.33253562450408936 1.0793826580047607
0.07200974971055984 -0.3341958820819855 1.0713633298873901
0.07262434810400009 -0.35405057668685913 1.0813422203063965
0.06415107846260071 -0.36103174090385437 1.083824634552002
0.14652109146118164 -0.1992684155702591 0.9999249577522278
0.1398978978395462 -0.21292206645011902 1.0171805620193481
0.13788554072380066 -0.21070893108844757 0.9918478727340698
0.06189519166946411 -0.34898853302001953 1.0390403270721436
0.05715041607618332 -0.3614904284477234 1.053077220916748
0.06152182072401047 -0.38465917110443115 1.1083120107650757
0.06503290683031082 -0.3725895285606384 1.0935248136520386
0.11728271096944809 -0.24297940731048584 0.9761112928390503
0.11635870486497879 -0.24824175238609314 1.0015838146209717
0.12196694314479828 -0.27970850467681885 1.0683188438415527
0.11797547340393066 -0.2709549069404602 1.0622104406356812
0.03051750734448433 -0.4430249035358429 1.1196571588516235
0.02450639195740223 -0.4313800036907196 1.0719584226608276
0.14381439983844757 -0.2150196135044098 0.98279869556427
0.13572177290916443 -0.21873724460601807 0.9813470244407654
0.261370986700058 -0.05759437382221222 1.0543224811553955
0.25198894739151 -0.06873749196529388 1.053257703781128
0.2568280100822449 -0.05836408585309982 1.0338294506072998
0.048414766788482666 -0.40498870611190796 1.1026374101638794
0.036509305238723755 -0.42586806416511536 1.1092290878295898
0.140158548951149 -0.21798521280288696 0.9762803316116333
0.1405157744884491 -0.21499502658843994 0.9666511416435242
-0.008981852792203426 -0.4864034056663513 1.0605480670928955
-0.013637054711580276 -0.49949440360069275 1.069472074508667
0.2685878574848175 -0.050861939787864685 1.0465744733810425
0.2660500109195709 -0.058845050632953644 1.0595508813858032
0.26342853903770447 -0.04988737404346466 1.0411503314971924
0.26169466972351074 -0.05891980603337288 1.0312142372131348
-0.01657240092754364 -0.5245370268821716 1.1226924657821655
-0.021064717322587967 -0.5421648621559143 1.1342089176177979
-0.02839454635977745 -0.5416164398193359 1.1167542934417725
0.09137339890003204 -0.3023468255996704 1.0118091106414795
0.08691228181123734 -0.32006633281707764 1.0107022523880005
0.07238089293241501 -0.33658555150032043 1.0100027322769165
0.07643872499465942 -0.3378343880176544 1.0026761293411255
0.26589712500572205 -0.06477434188127518 1.0657868385314941
0.26797181367874146 -0.05007728189229965 1.0377082824707031
0.06113626807928085 -0.4040951430797577 1.1176873445510864
0.06561532616615295 -0.4059312045574188 1.116767168045044
0.05142826586961746 -0.4154489040374756 1.1188169717788696
0.04816998913884163 -0.4327267110347748 1.1262761354446411
0.1124596819281578 -0.26968270540237427 0.9951715469360352
0.10352744907140732 -0.28532469272613525 0.9918714165687561
0.10130088031291962 -0.28617292642593384 0.9975028038024902
0.2710309624671936 -0.05279044434428215 1.0424246788024902
0.2680903375148773 -0.06727585941553116 1.0627256631851196
0.2625303566455841 -0.06226949393749237 1.0344399213790894
0.14835010468959808 -0.19422927498817444 0.9363530278205872
0.1443377435207367 -0.20106330513954163 0.9290863275527954
0.14344573020935059 -0.20979122817516327 0.9532778263092041
0.1453544795513153 -0.20544123649597168 0.9434714913368225
0.14337538182735443 -0.19996213912963867 0.9402434229850769
0.06659581512212753 -0.3572336435317993 1.0014636516571045
0.06892891228199005 -0.3420402705669403 0.9970413446426392
0.06579174101352692 -0.3484349250793457 0.9865187406539917
0.06430882215499878 -0.3549741506576538 0.9863415956497192
0.2652072012424469 -0.06783689558506012 1.0413533449172974
-0.02060629613697529 -0.5508686900138855 1.1417127847671509
-0.021331636235117912 -0.5476388335227966 1.1230871677398682
-0.022147640585899353 -0.5579765439033508 1.1389551162719727
-0.02877707965672016 -0.5608636140823364 1.1411099433898926
-0.02544884756207466 -0.5420905351638794 1.1098921298980713
0.16703417897224426 -0.21290332078933716 0.9931274056434631
0.15058647096157074 -0.21911315619945526 0.9804777503013611
0.005702831782400608 -0.4738047420978546 1.050018548965454
-0.006514896638691425 -0.49426135420799255 1.0606328248977661
-0.012579812668263912 -0.5142191052436829 1.075316309928894
0.13915255665779114 -0.27457839250564575 1.0681618452072144
0.1265292763710022 -0.28792303800582886 1.0690809488296509
0.12791888415813446 -0.30197638273239136 1.0654963254928589
0.07228215038776398 -0.40195125341415405 1.1211600303649902
0.06565679609775543 -0.4096328616142273 1.1128565073013306
0.04082657769322395 -0.45126867294311523 1.1243473291397095
0.07931996136903763 -0.3756944537162781 1.103943109512329
0.025735292583703995 -0.45409631729125977 1.0660659074783325
0.008166869170963764 -0.4818207621574402 1.0673166513442993
0.14226442575454712 -0.2762024402618408 1.0615699291229248
0.07938258349895477 -0.39082658290863037 1.0877890586853027
0.08531560003757477 -0.37574303150177 1.0770270824432373
0.07022297382354736 -0.40577131509780884 1.0916708707809448
-0.004774073138833046 -0.5230696201324463 1.1091606616973877
0.00070208590477705 -0.5147135257720947 1.0977959632873535
0.06401524692773819 -0.3796100914478302 1.0335246324539185
0.07265879958868027 -0.3845093250274658 1.0499534606933594
0.06048561632633209 -0.3943732976913452 1.0527883768081665
0.0658566802740097 -0.397652268409729 1.0628302097320557
0.10842709243297577 -0.33416807651519775 1.0704717636108398
0.08901114761829376 -0.3619399070739746 1.0767621994018555
0.04085242375731468 -0.4530130922794342 1.1017309427261353
0.03284232318401337 -0.46980249881744385 1.1016037464141846
0.021721702069044113 -0.474110871553421 1.1069544553756714
0.040510326623916626 -0.4455574154853821 1.0759778022766113
0.03598584234714508 -0.4529971480369568 1.073035717010498
0.09147286415100098 -0.34877628087997437 1.033671259880066
0.083912193775177 -0.362016886472702 1.036080002784729
0.08802769333124161 -0.3396856188774109 1.018251895904541
0.08315882086753845 -0.3566368818283081 1.027290940284729
0.07596911489963531 -0.36979979276657104 1.0391910076141357
0.1043882966041565 -0.3362576365470886 1.0413109064102173
0.11452420800924301 -0.32341867685317993 1.0461400747299194
0.10737310349941254 -0.3100520968437195 1.0179443359375
0.10868730396032333 -0.3223322629928589 1.0356053113937378
0.03527940809726715 -0.461151659488678 1.0802353620529175
0.028270285576581955 -0.4775616228580475 1.087990164756775
0.025626132264733315 -0.46897000074386597 1.0807759761810303
0.037608981132507324 -0.4746059775352478 1.0841586589813232
0.16717343032360077 -0.2270457148551941 1.0084269046783447
0.020391734316945076 -0.41905197501182556 1.0980862379074097
0.008633340708911419 -0.4296300411224365 1.0903899669647217
0.05180641636252403 -0.3681856393814087 1.0792039632797241
0.0534340962767601 -0.36570072174072266 1.074023723602295
0.04265409708023071 -0.3784208297729492 1.086694598197937
0.04841816425323486 -0.37132567167282104 1.072151780128479
0.04176023602485657 -0.38244009017944336 1.0817232131958008
0.06815622001886368 -0.34107863903045654 1.0555462837219238
0.06228448450565338 -0.35285595059394836 1.0560781955718994
0.07948777079582214 -0.32574883103370667 1.0508437156677246
0.051687270402908325 -0.37946218252182007 1.0905539989471436
0.012479656375944614 -0.4512954354286194 1.0621743202209473
0.00384891452267766 -0.4616207480430603 1.0911524295806885
0.05053189396858215 -0.36982595920562744 1.051098108291626
-0.006337035447359085 -0.48275139927864075 1.1013736724853516
-0.01656571589410305 -0.501708984375 1.101417064666748
-0.006303451955318451 -0.48877495527267456 1.0928829908370972
-0.017214082181453705 -0.5167297720909119 1.113727331161499
0.15804840624332428 -0.1967640519142151 1.0181896686553955
0.15778468549251556 -0.23770326375961304 1.0904276371002197
0.1444389671087265 -0.2423754334449768 1.0815486907958984
0.15164507925510406 -0.2463083118200302 1.0869157314300537
0.11012422293424606 -0.2690465450286865 1.0049974918365479
0.2486373484134674 -0.06237958371639252 1.023047685623169
0.2526508569717407 -0.07882867753505707 1.0655267238616943
0.24549567699432373 -0.08853485435247421 1.0615178346633911
0.24417439103126526 -0.0840650424361229 1.054074764251709
0.0926925465464592 -0.34226125478744507 1.0850427150726318
0.026504596695303917 -0.45911645889282227 1.1358954906463623
-0.02063070982694626 -0.5198681354522705 1.0918985605239868
0.21482498943805695 -0.1160576343536377 1.0219416618347168
0.20444893836975098 -0.14011426270008087 1.0124784708023071
0.10609174519777298 -0.32341814041137695 1.089202642440796
0.0975051075220108 -0.3275456130504608 1.0829041004180908
0.07564578205347061 -0.363278329372406 1.0889127254486084
-0.023141175508499146 -0.5296018123626709 1.0962733030319214
-0.022926410660147667 -0.5531477928161621 1.1468056440353394
-0.026595357805490494 -0.5569897890090942 1.1497807502746582
-0.027339939028024673 -0.5560824275016785 1.1312099695205688
0.17618799209594727 -0.17671360075473785 1.0151621103286743
0.17097622156143188 -0.19947518408298492 1.017201542854309
0.08565846085548401 -0.36638450622558594 1.0891621112823486
0.1541476547718048 -0.20111095905303955 0.9961420893669128
-0.014207269065082073 -0.5043708682060242 1.071678638458252
0.1863842010498047 -0.20646032691001892 1.1015660762786865
0.1867648810148239 -0.20969074964523315 1.1007683277130127
0.17811016738414764 -0.21596938371658325 1.0877796411514282
0.18032534420490265 -0.22261855006217957 1.0979554653167725
0.17582960426807404 -0.23396894335746765 1.1039222478866577
0.1659458577632904 -0.21039608120918274 1.068328619003296
0.1745263636112213 -0.21669089794158936 1.0713354349136353
-0.024320265278220177 -0.5586330890655518 1.1518669128417969
0.05511751025915146 -0.38871926069259644 1.037235140800476
0.05146085098385811 -0.39668866991996765 1.0456554889678955
0.045324768871068954 -0.3989638686180115 1.0470201969146729
0.06016267091035843 -0.3706745505332947 1.0230237245559692
0.18210755288600922 -0.22369956970214844 1.0978405475616455
0.1761384904384613 -0.2340998500585556 1.0998711585998535
0.1479499638080597 -0.22415170073509216 0.9690723419189453
0.1864480823278427 -0.21671217679977417 1.095731258392334
0.1806359887123108 -0.2230895757675171 1.0879576206207275
0.07606439292430878 -0.394599974155426 1.111740231513977
0.1381058543920517 -0.2249160259962082 0.941521942615509
0.1358989179134369 -0.22362416982650757 0.9380037188529968
0.12872129678726196 -0.2336065173149109 0.9258500337600708
0.12444169819355011 -0.24160203337669373 0.9318965673446655
0.1754332184791565 -0.2072402536869049 1.0149483680725098
0.17006751894950867 -0.24123325943946838 1.0846400260925293
0.06289944797754288 -0.411240816116333 1.0999133586883545
0.05233878269791603 -0.42895445227622986 1.1061631441116333
0.14215871691703796 -0.23516660928726196 0.9676264524459839
0.1373528242111206 -0.24368824064731598 0.966798722743988
0.13298432528972626 -0.23736995458602905 0.9537711143493652
0.05554015189409256 -0.4296577572822571 1.0959830284118652
0.06542010605335236 -0.4156051576137543 1.0875632762908936
0.052967797964811325 -0.423235684633255 1.0754729509353638
0.06593337655067444 -0.4061749577522278 1.0721310377120972
0.005305818282067776 -0.49291619658470154 1.0787780284881592
0.007233988493680954 -0.4999087452888489 1.0873639583587646
0.1520838439464569 -0.23868094384670258 0.9863682389259338
0.16517505049705505 -0.2409517914056778 1.0343154668807983
0.14974616467952728 -0.26019906997680664 1.032373070716858
0.15485438704490662 -0.2549862861633301 1.0199607610702515
0.14548690617084503 -0.2735685706138611 1.03155517578125
0.13411761820316315 -0.2804688811302185 1.0235148668289185
0.0552925243973732 -0.4385133385658264 1.0807968378067017
0.0605066642165184 -0.4308265745639801 1.076004981994629
0.04750118404626846 -0.4633273482322693 1.0962612628936768
0.09319382905960083 -0.3771381378173828 1.0676385164260864
0.07642915099859238 -0.3996337354183197 1.0762417316436768
0.08536972105503082 -0.38262468576431274 1.0680023431777954
0.0816279798746109 -0.3927791714668274 1.065203070640564
