0.010442934930324554 -0.17353253066539764 1.3835492134094238
0.013203885406255722 0.04676661640405655 1.0281366109848022
0.007017835043370724 -0.19731903076171875 1.1124629974365234
0.06710100919008255 0.17830809950828552 1.3687225580215454
0.038620226085186005 -0.03756891191005707 1.3179010152816772
0.05587533116340637 0.11408637464046478 1.4912586212158203
0.031743042171001434 0.05227591097354889 1.4904792308807373
0.05352046340703964 -0.02948324754834175 1.2245155572891235
0.039665721356868744 0.10096973180770874 0.9109187126159668
0.021254658699035645 -0.08296763151884079 1.7838643789291382
0.10694655776023865 0.17919683456420898 0.14589589834213257
0.11144546419382095 0.2001669853925705 0.13244345784187317
0.0948168933391571 0.204249769449234 0.19198571145534515
0.0030575990676879883 -0.21217206120491028 1.6668426990509033
0.05695850029587746 -0.05016964673995972 0.6943432688713074
0.09847994893789291 0.05952464044094086 1.4568322896957397
0.06590868532657623 -0.11209344863891602 1.5143628120422363
0.11403634399175644 -0.10667027533054352 1.4458065032958984
0.060935474932193756 -0.06833473592996597 1.425599455833435
0.09967771172523499 0.0696682259440422 0.4277798533439636
0.1200484037399292 0.06744969636201859 0.2588095963001251
0.13058023154735565 0.16511063277721405 0.29192858934402466
0.10380502790212631 0.2675650715827942 1.0108927488327026
0.08914059400558472 0.3043389916419983 0.9754911661148071
0.09219538420438766 -0.13477873802185059 0.7142300605773926
0.09888268262147903 -0.03669004514813423 0.6407306790351868
0.028503291308879852 -0.13525502383708954 1.7726401090621948
0.07495280355215073 -0.13486097753047943 1.7279163599014282
0.11237937957048416 -0.08496897667646408 0.5190003514289856
0.04085201770067215 -0.07389507442712784 1.7964893579483032
0.07189807295799255 -0.08307242393493652 1.7449767589569092
0.09684199839830399 -0.077546626329422 1.1405730247497559
0.09951291978359222 -0.0642581507563591 1.1095155477523804
0.09364160895347595 -0.14291632175445557 1.0920969247817993
0.06716874241828918 -0.17854687571525574 1.6636149883270264
0.08004642277956009 -0.1013435572385788 1.547546625137329
0.07334372401237488 -0.14883768558502197 1.5506622791290283
0.1509752869606018 0.2621767222881317 0.9644883871078491
0.11155862361192703 -0.13882608711719513 1.2877919673919678
0.12846092879772186 -0.19688650965690613 1.2281746864318848
0.11421366780996323 -0.1116943210363388 1.24155855178833
0.17795440554618835 0.18652915954589844 0.24773277342319489
0.16138073801994324 0.10938365757465363 0.2088375836610794
0.18143914639949799 0.12362998723983765 0.19880473613739014
0.0863732248544693 -0.05636449158191681 1.7671146392822266
0.12487877160310745 -0.15777331590652466 1.2814933061599731
0.17386017739772797 0.04497436806559563 0.4622185230255127
0.15225639939308167 -0.027455290779471397 0.480449378490448
0.1825510859489441 0.058966681361198425 0.40934866666793823
0.1322784125804901 -0.12451250851154327 1.433127999305725
0.11578287184238434 -0.11987952888011932 1.429700493812561
0.13950088620185852 -0.08680680394172668 1.3983690738677979
0.11915123462677002 0.07009348273277283 0.9067539572715759
0.11757633090019226 -0.11431214213371277 0.8311317563056946
0.20209133625030518 0.12374410033226013 0.3103099465370178
0.21087713539600372 0.09508740901947021 0.30082666873931885
0.14815977215766907 -0.07596021890640259 1.3948695659637451
0.15609386563301086 0.14749282598495483 1.2700512409210205
0.15769824385643005 0.18322977423667908 1.2442606687545776
0.14394472539424896 -0.240669846534729 1.1063567399978638
0.16643887758255005 -0.053520992398262024 0.9714840650558472
0.1691156029701233 -0.1153014600276947 0.9605437517166138
0.19499646127223969 -0.015894584357738495 1.228384017944336
0.29669129848480225 -0.06500181555747986 1.0823185443878174
0.2908494770526886 -0.00940609723329544 1.0871667861938477
0.3173113465309143 -0.12878568470478058 1.1277137994766235
-0.3195669949054718 -0.008352548815310001 1.0149273872375488
-0.34408140182495117 -0.07225169241428375 0.9793649911880493
-0.251020222902298 -0.11043915152549744 1.1002765893936157
-0.26646825671195984 -0.13357502222061157 1.1461212635040283
-0.21131639182567596 -0.07290230691432953 1.1273013353347778
-0.1988033652305603 -0.028498798608779907 1.1618809700012207
-0.19271646440029144 -0.1516905128955841 0.8683353662490845
-0.17174603044986725 0.24194641411304474 0.9953385591506958
-0.17471736669540405 0.20445771515369415 1.1088991165161133
-0.12956875562667847 -0.25462695956230164 1.0747089385986328
-0.1401454508304596 -0.1605718433856964 0.9559037685394287
-0.19419226050376892 -0.25166055560112 0.2783670425415039
-0.1716221272945404 -0.29636046290397644 0.2994682788848877
-0.13051557540893555 -0.1637699156999588 0.4824444651603699
-0.14837712049484253 -0.19574376940727234 0.859451949596405
-0.1253688782453537 -0.18006819486618042 0.6202490329742432
-0.12283051759004593 -0.187999427318573 0.6898626089096069
-0.11380529403686523 -0.12705659866333008 0.6714919209480286
-0.10279116034507751 -0.01092262752354145 1.109527826309204
-0.09377206116914749 -0.0790085569024086 1.1310163736343384
-0.0889335572719574 0.2612195312976837 1.1890339851379395
-0.11414727568626404 -0.01837538182735443 0.8289045691490173
-0.12839582562446594 -0.30487239360809326 0.3166126608848572
-0.10120445489883423 -0.04141475260257721 1.2203149795532227
-0.08422168344259262 -0.03678843006491661 1.1453394889831543
-0.11792533844709396 -0.26217523217201233 0.4485330879688263
-0.13828790187835693 -0.07726840674877167 1.7648975849151611
-0.13740484416484833 -0.11535456776618958 1.753873348236084
-0.08812735974788666 -0.15012520551681519 1.7674295902252197
-0.10009267926216125 -0.19125667214393616 1.7257310152053833
-0.11329157650470734 -0.18226370215415955 1.6214685440063477
-0.1058291420340538 -0.25817805528640747 0.34222787618637085
-0.048798367381095886 -0.17048902809619904 0.7566137313842773
-0.08180588483810425 -0.2781524956226349 0.27600979804992676
-0.10004425048828125 -0.3046756684780121 0.2838805913925171
-0.11355426907539368 -0.2182035744190216 0.22088341414928436
-0.059913188219070435 0.06742951273918152 0.9587698578834534
-0.08931704610586166 -0.06103093922138214 1.8110268115997314
-0.10399916023015976 -0.07660700380802155 1.7974953651428223
0.016382131725549698 0.1999283730983734 1.1680911779403687
-0.08749641478061676 0.19260147213935852 1.1705975532531738
-0.00667660403996706 0.17012888193130493 1.2319786548614502
0.021002300083637238 -0.04834101349115372 1.2625961303710938
-0.005159490741789341 0.260388046503067 1.2245407104492188
0.006730316206812859 0.23982560634613037 1.0408209562301636
0.06449949741363525 0.299385666847229 1.136319875717163
0.016902653500437737 0.0714026466012001 1.6888282299041748
0.04833584278821945 0.2323155403137207 1.0487761497497559
0.04980314150452614 -0.2185487002134323 0.896743893623352
0.08681496977806091 0.09072186052799225 0.29227346181869507
0.10480321943759918 0.11599264293909073 0.24658969044685364
0.053939010947942734 -0.1156616285443306 0.6710118651390076
0.042172957211732864 0.02409445308148861 1.0640790462493896
0.07736779749393463 -0.022701255977153778 0.5629626512527466
0.07984905689954758 0.1407223641872406 1.3040990829467773
0.08837391436100006 -0.15248000621795654 1.4063658714294434
0.05492638051509857 0.061380088329315186 1.6481456756591797
0.058390062302351 -0.018306776881217957 1.6172387599945068
0.060915011912584305 0.003158159554004669 1.590012550354004
0.034387100487947464 -0.07031869143247604 1.8468166589736938
0.09232980012893677 -0.1572161316871643 1.328657865524292
0.1417723149061203 0.03142658248543739 0.5235788226127625
0.10791125893592834 0.04474842548370361 0.5245568752288818
0.14044195413589478 0.1090637594461441 0.40115952491760254
0.16484886407852173 0.11824700236320496 0.37585341930389404
0.10513150691986084 -0.09182045608758926 1.5371534824371338
0.09176154434680939 -0.10402853786945343 1.5481263399124146
0.10719461739063263 -0.09736745804548264 1.5302070379257202
0.12061069160699844 -0.047609250992536545 0.7466418743133545
0.13748304545879364 -0.07737965881824493 0.6131394505500793
0.12725570797920227 0.030380992218852043 0.9452332854270935
0.12956790626049042 -0.056771114468574524 1.0808879137039185
0.12507838010787964 -0.11236033588647842 1.0721983909606934
0.13119842112064362 -0.1416368931531906 1.0153300762176514
0.10069695115089417 -0.05199936777353287 1.661829948425293
0.11583253741264343 -0.05344371870160103 1.5716705322265625
0.12027104943990707 -0.17890986800193787 1.214108943939209
0.12328968942165375 0.02963925153017044 1.5595368146896362
0.11544950306415558 -0.004623785614967346 1.5984690189361572
0.19692713022232056 0.2105400562286377 0.1931622475385666
0.20916639268398285 0.1953553557395935 0.16896164417266846
0.13703033328056335 0.01831701025366783 1.519705891609192
0.14069880545139313 0.041590139269828796 1.4905858039855957
0.1502353996038437 0.050426650792360306 1.4446622133255005
0.14698828756809235 0.07312533259391785 1.4287152290344238
0.1369534134864807 -0.2505805194377899 1.1241635084152222
0.17116017639636993 -0.15099725127220154 0.8370117545127869
0.1545783281326294 -0.22513028979301453 1.1442363262176514
0.15338437259197235 -0.25056421756744385 1.1259396076202393
0.19886614382266998 -0.10863805562257767 0.8535406589508057
0.19907809793949127 -0.08674926310777664 0.8345636129379272
0.20920675992965698 -0.051957227289676666 0.8463603258132935
-0.2227051854133606 -0.1310916543006897 1.165035605430603
-0.15366880595684052 -0.15177315473556519 1.2467167377471924
-0.1649908572435379 -0.14632728695869446 1.229474663734436
-0.15409931540489197 -0.13927005231380463 1.2399559020996094
-0.14877036213874817 -0.14050248265266418 1.2585563659667969
-0.2052508145570755 0.0004042331129312515 0.8351582884788513
-0.12096389383077621 -0.10420963168144226 1.289703607559204
-0.13836932182312012 -0.06356720626354218 1.083522081375122
-0.15043988823890686 0.03134183585643768 1.568687915802002
-0.12293988466262817 -0.10826332867145538 1.1979447603225708
-0.12660974264144897 -0.08818556368350983 1.1489732265472412
-0.12838537991046906 0.06325861811637878 1.4634685516357422
-0.1256125271320343 0.07627792656421661 1.4138792753219604
-0.11694632470607758 -0.1435040533542633 1.0475581884384155
-0.08454254269599915 -0.171977698802948 1.0072026252746582
-0.12283827364444733 -0.06637437641620636 0.7495374083518982
-0.08700539916753769 0.2198869287967682 1.26824951171875
-0.09359945356845856 0.07075123488903046 1.665683388710022
-0.11042338609695435 -0.1910349577665329 0.07557792961597443
-0.12511059641838074 -0.1774367392063141 0.06553912162780762
-0.08933627605438232 0.023475738242268562 0.8444168567657471
-0.015176117420196533 0.09830062836408615 0.8396351337432861
-0.06188579648733139 -0.020855743438005447 0.8265992403030396
0.0003238879144191742 0.11563864350318909 1.336714506149292
-0.02720557525753975 -0.11689785122871399 0.7646094560623169
-0.0364530012011528 -0.20253990590572357 1.6403049230575562
-0.015980912372469902 0.018938645720481873 0.8611303567886353
-0.007258781231939793 -0.022463485598564148 0.8415919542312622
0.008131521753966808 -0.1154540404677391 0.8440860509872437
-0.07756417989730835 -0.16792897880077362 0.8575336337089539
0.0007341969758272171 -0.22749973833560944 0.8454537391662598
0.021543415263295174 -0.1066666692495346 0.8115459680557251
-0.005198852624744177 -0.16365541517734528 0.8568660020828247
0.006637703627347946 -0.0341997891664505 1.5085813999176025
0.016695166006684303 -0.0322880819439888 0.8351979851722717
0.020888566970825195 -0.047194018959999084 0.8103542923927307
0.016272954642772675 -0.018641408532857895 1.588647723197937
0.0208344217389822 -0.011744935065507889 1.5613194704055786
0.030789529904723167 -0.11988893151283264 0.8300708532333374
0.12136601656675339 0.064384326338768 0.8378832340240479
0.08955618739128113 0.11639748513698578 0.30742695927619934
0.04136462137103081 -0.03366499021649361 0.798107385635376
0.06354641914367676 0.19597750902175903 1.2018810510635376
0.11793404817581177 0.031164564192295074 0.39508190751075745
0.11607091128826141 0.07650475949048996 0.35196977853775024
0.1318700760602951 0.050352953374385834 0.3548411726951599
0.12974879145622253 0.042678333818912506 0.2909904718399048
0.10242147743701935 0.04495232179760933 1.5313798189163208
0.07081819325685501 -0.012761666439473629 0.8345760703086853
0.0963641107082367 -0.03518731892108917 0.8110219240188599
0.11048281192779541 -0.0816725492477417 1.2520978450775146
0.1479956954717636 -0.002359338104724884 0.429598867893219
0.09462536871433258 0.008063782006502151 1.635066270828247
0.09663683921098709 -0.05453219637274742 1.3128907680511475
0.16333629190921783 0.04832610487937927 0.3572841286659241
0.08228405565023422 0.2654573321342468 1.1998142004013062
0.11309362202882767 -0.049564335495233536 1.229722261428833
0.17288686335086823 0.1594461053609848 0.2947860062122345
0.13320423662662506 0.28300878405570984 1.1099544763565063
0.15648485720157623 0.1520993411540985 0.32285794615745544
0.17298860847949982 0.049074508249759674 0.2680186629295349
0.1343814730644226 0.12461968511343002 1.3245798349380493
0.12583401799201965 -0.11556926369667053 1.476609230041504
0.13613423705101013 -0.10143233835697174 1.4455446004867554
0.1249142736196518 -0.11348585784435272 1.476745843887329
0.15566430985927582 -0.07446824759244919 1.4315845966339111
0.14327040314674377 -0.20153608918190002 1.1943525075912476
0.1280752271413803 -0.21317625045776367 1.1835746765136719
0.15239164233207703 0.1742580235004425 1.2222431898117065
0.17107678949832916 0.22629301249980927 1.1562402248382568
0.16710147261619568 0.2242569923400879 1.1191290616989136
0.17025429010391235 -0.06608029454946518 1.2645792961120605
0.16163420677185059 -0.11622689664363861 1.256467342376709
0.15618591010570526 -0.17671531438827515 0.850844144821167
0.1719757467508316 -0.1394321620464325 1.2587060928344727
0.22454071044921875 -0.12275885045528412 1.1515215635299683
0.2063886672258377 -0.036559611558914185 1.1702439785003662
0.22667886316776276 -0.08378631621599197 1.1329526901245117
0.30914241075515747 -0.11890969425439835 1.1709558963775635
0.33510327339172363 -0.021316491067409515 1.065941333770752
0.3389235734939575 -0.10560888051986694 1.087654709815979
-0.13408108055591583 -0.2518446445465088 1.1177364587783813
-0.13379867374897003 -0.18964016437530518 1.1833497285842896
-0.1435452103614807 -0.18213169276714325 1.205549955368042
-0.12268448621034622 -0.236204132437706 1.123828411102295
-0.14477068185806274 0.05593408644199371 1.4956167936325073
-0.15153701603412628 0.048286303877830505 1.477776050567627
-0.15916956961154938 0.07846315950155258 1.4313535690307617
-0.161537304520607 -0.07895389199256897 1.7252726554870605
-0.15577560663223267 -0.11599551886320114 1.6386231184005737
-0.16317540407180786 -0.2575555145740509 0.33648252487182617
-0.12888632714748383 -0.06662430614233017 0.8336032629013062
-0.12673979997634888 -0.09759306907653809 0.8248677253723145
-0.1562163084745407 0.26700887084007263 0.9691407084465027
-0.08033353090286255 -0.1575395166873932 1.2427818775177002
-0.1126469224691391 -0.03998951613903046 0.7975895404815674
-0.10971073061227798 -0.09213324636220932 1.7774581909179688
-0.07838301360607147 -0.12525881826877594 1.1314367055892944
-0.03937433287501335 -0.18548940122127533 1.1242601871490479
-0.08923523128032684 0.22728529572486877 1.0896968841552734
-0.002098120516166091 0.22948820888996124 1.086756944656372
-0.06280286610126495 -0.02018311806023121 1.162447214126587
-0.05069742351770401 -0.11367902159690857 0.8440640568733215
-0.03615647181868553 -0.19020994007587433 1.0668493509292603
-0.05463835597038269 0.02528063952922821 1.0590026378631592
-0.03219718858599663 -0.19157922267913818 1.7408921718597412
0.021497759968042374 -0.09443745017051697 0.7439553737640381
-0.06590636819601059 0.1285097748041153 1.3044281005859375
0.10477108508348465 0.21605432033538818 0.15127834677696228
0.11482194811105728 0.3129483461380005 1.0398643016815186
0.07764250040054321 0.23441000282764435 1.1088851690292358
0.047434158623218536 0.32414373755455017 1.0527805089950562
0.08895426243543625 0.09537893533706665 0.8452865481376648
0.16927769780158997 0.2371794581413269 0.20696473121643066
0.11247313022613525 -0.036430731415748596 0.8319664001464844
0.1522509604692459 0.024873189628124237 0.3994123637676239
0.1312735676765442 -0.14088083803653717 1.389876365661621
0.13592863082885742 -0.14003166556358337 1.2999998331069946
0.19388678669929504 0.0026389132253825665 0.8417763710021973
0.2002539485692978 -0.0477021150290966 0.9051755666732788
0.34628939628601074 -0.0653250589966774 1.0653488636016846
-0.2820322513580322 -0.13345257937908173 1.1069368124008179
-0.20331773161888123 -0.07765770703554153 0.9075700044631958
-0.21892914175987244 -0.07210667431354523 0.8513342142105103
-0.15866467356681824 0.05996585264801979 1.4259579181671143
-0.16944484412670135 0.13353277742862701 1.258194088935852
-0.14170509576797485 -0.05923915654420853 1.5491900444030762
-0.13627055287361145 -0.05365143343806267 1.0464246273040771
-0.13345326483249664 -0.08473125845193863 1.0892157554626465
-0.14269767701625824 -0.05411364883184433 1.549876093864441
-0.13713863492012024 -0.0726427286863327 1.5368056297302246
-0.1402297019958496 -0.06485012918710709 1.545284390449524
-0.14027750492095947 -0.06669019907712936 1.5487730503082275
-0.14332228899002075 -0.08165986835956573 1.536824107170105
-0.15161746740341187 -0.3071715235710144 0.17720168828964233
-0.15019920468330383 -0.1566716432571411 1.6954584121704102
-0.026895970106124878 -0.02490440011024475 1.2193725109100342
-0.10349096357822418 -0.29731836915016174 0.06964057683944702
-0.04136018455028534 -0.04432244598865509 1.260913372039795
-2.3974338546395302e-05 -0.020911574363708496 1.1722204685211182
-0.04834863543510437 0.09564924985170364 0.9173502922058105
-0.040155209600925446 -0.09626318514347076 1.7946480512619019
-0.03441974148154259 -0.1482725590467453 0.7028462886810303
-0.03913275524973869 0.14513854682445526 1.2651591300964355
0.022374652326107025 -0.19073428213596344 1.010749101638794
-0.012167772278189659 -0.20700566470623016 1.2102181911468506
0.008992991410195827 0.2073771357536316 1.1333943605422974
0.1063104197382927 0.15384960174560547 0.2662453353404999
0.08017544448375702 -0.17067649960517883 0.9881054162979126
0.12562279403209686 -0.16583043336868286 0.9573787450790405
0.08016456663608551 0.013618778437376022 1.5538668632507324
0.08870996534824371 -0.16196474432945251 1.1652169227600098
0.0465942844748497 -0.023668821901082993 1.169964075088501
0.10252600163221359 -0.011893033981323242 1.074928641319275
0.08207450062036514 0.06403326988220215 0.9461879134178162
0.17506486177444458 0.22990725934505463 0.12380049377679825
0.14857551455497742 0.2346605658531189 0.1284797191619873
0.20191214978694916 0.228436678647995 0.1417049616575241
0.192160502076149 0.07158456742763519 0.2593635022640228
0.12261613458395004 -0.11260461807250977 1.472839117050171
0.12295335531234741 -0.11314438283443451 1.473997950553894
0.11185051500797272 -0.10178308933973312 1.322562336921692
0.13345032930374146 -0.12663038074970245 1.2940601110458374
0.18332871794700623 0.2659347355365753 1.0461081266403198
0.18361912667751312 0.2537899613380432 0.9942505359649658
0.19367171823978424 0.26041272282600403 0.9911148548126221
0.3435322344303131 -0.007946014404296875 1.074694275856018
0.36834248900413513 -0.07330584526062012 1.037029504776001
0.3933485150337219 -0.0906519889831543 1.019469976425171
-0.2683670222759247 -0.04725626856088638 1.0413485765457153
-0.1444140374660492 -0.2199896275997162 1.164596438407898
-0.13358470797538757 -0.25789836049079895 0.36793053150177
-0.10891248285770416 0.26112475991249084 0.9418652057647705
-0.0891539454460144 -0.14218801259994507 1.0845415592193604
-0.032927680760622025 -0.041596729308366776 0.8340182304382324
-0.049459997564554214 -0.043539952486753464 0.7879915833473206
-0.04328053817152977 -0.09332471340894699 0.8082037568092346
-0.002979089505970478 0.023175448179244995 1.103744626045227
0.027708813548088074 -0.20797331631183624 0.8311039209365845
0.08949431777000427 0.020207922905683517 0.8506834506988525
0.09961732476949692 0.24158510565757751 1.0698225498199463
0.10824395716190338 -0.030178047716617584 1.5729544162750244
0.11683237552642822 6.807968020439148e-05 1.549015760421753
0.18727800250053406 -0.11516875773668289 0.9034677147865295
-0.14865411818027496 -0.2256391942501068 1.129495620727539
-0.1518808901309967 -0.0023186728358268738 1.5839288234710693
-0.08178690820932388 0.2658025324344635 0.9939499497413635
-0.13371361792087555 0.026282668113708496 1.6163161993026733
-0.10085318237543106 -0.009308263659477234 1.6027582883834839
-0.06219731271266937 -0.01659327745437622 1.5807114839553833
0.050775133073329926 -0.18660509586334229 1.0659724473953247
0.07595891505479813 -0.16376088559627533 1.2486655712127686
0.12654860317707062 0.11798647046089172 0.1986921727657318
0.11582206189632416 -0.13184379041194916 1.2143409252166748
0.12421002984046936 -0.10548323392868042 1.1647217273712158
0.13001379370689392 0.06750963628292084 1.4497337341308594
0.10650467872619629 0.10157084465026855 1.4575865268707275
0.12480287253856659 -0.05931825190782547 1.1777727603912354
0.11611170321702957 -0.07444678246974945 0.8172739744186401
0.10602832585573196 -0.20083031058311462 1.2136365175247192
0.1374698281288147 0.1356119066476822 1.3488601446151733
-0.15348027646541595 0.11269930750131607 1.3547065258026123
-0.1265171617269516 -0.18423447012901306 0.36300620436668396
0.038395341485738754 -0.08989770710468292 0.7038437724113464
0.02966614067554474 -0.1870855689048767 1.7208445072174072
-0.1728994995355606 0.24418886005878448 1.0472878217697144
-0.1412346065044403 -0.1433519721031189 1.2625031471252441
-0.08433227986097336 -0.21608330309391022 0.40304917097091675
-0.0008927453309297562 0.1266963630914688 1.489701509475708
0.1266574263572693 0.22591328620910645 0.1254780888557434
0.1086672991514206 -0.09718731045722961 1.5302269458770752
0.10833287239074707 -0.09696222096681595 1.5276482105255127
0.11960633099079132 -0.10455237329006195 1.4286020994186401
0.18422290682792664 0.0975446105003357 0.2425827980041504
0.1958826631307602 0.13261772692203522 0.2557198405265808
0.21552631258964539 -0.14380665123462677 1.1983528137207031
-0.18000732362270355 -0.15204648673534393 0.926148533821106
-0.15659356117248535 0.08800287544727325 1.3897731304168701
-0.15501821041107178 0.08547955751419067 1.3912450075149536
-0.16025415062904358 0.08230267465114594 1.3911889791488647
-0.09614435583353043 -0.2570106089115143 0.21357056498527527
-0.03184567019343376 -0.09407918900251389 0.8376326560974121
0.10072030127048492 0.14751729369163513 0.21288424730300903
0.26835736632347107 -0.140888974070549 1.1533195972442627
0.09193167090415955 -0.12854468822479248 1.674741268157959
0.1323031336069107 -0.0940697193145752 0.7688926458358765
0.14450126886367798 0.07944807410240173 1.404890775680542
0.14001241326332092 0.10990152508020401 1.365006446838379
0.10269800573587418 0.23417922854423523 0.18056410551071167
0.3902490735054016 -0.5034514665603638 0.9026853442192078
0.3803029954433441 -0.4586526155471802 0.8935765027999878
0.3823411166667938 -0.4734266400337219 0.8915449976921082
0.3730151951313019 -0.4762148857116699 0.8985421061515808
0.38260772824287415 -0.5004246234893799 0.8926552534103394
0.3860098719596863 -0.4918978214263916 0.9103480577468872
0.3828057646751404 -0.31532880663871765 0.9480221271514893
0.36672210693359375 -0.32250675559043884 0.9394978880882263
0.3824509084224701 -0.34617236256599426 0.9386038780212402
0.38198697566986084 -0.357096791267395 0.9374444484710693
0.3629387617111206 -0.11355076730251312 0.9452877044677734
0.35952478647232056 -0.136844202876091 0.9573313593864441
0.3617861866950989 -0.12693478167057037 0.9325041770935059
0.3747735619544983 -0.3288782238960266 0.9000762701034546
0.3778676688671112 -0.3479527235031128 0.9075899124145508
0.3886520266532898 -0.3915137052536011 0.9491007328033447
0.3863438069820404 -0.37319105863571167 0.9424030780792236
0.3631347119808197 -0.16368882358074188 0.9000177383422852
0.3644205629825592 -0.17956160008907318 0.9198124408721924
0.3856898844242096 -0.2388727217912674 0.969984769821167
0.37607520818710327 -0.22791755199432373 0.9668334722518921
0.3956433832645416 -0.4746651351451874 0.9274901151657104
0.38471806049346924 -0.4445580840110779 0.8884134292602539
0.3707623779773712 -0.12034182995557785 0.9233396053314209
0.3654877245426178 -0.12832269072532654 0.916598916053772
0.37200799584388733 0.07351922988891602 1.0861772298812866
0.369892954826355 0.05886303633451462 1.078898310661316
0.3682599365711212 0.07901714742183685 1.0651469230651855
0.3913946747779846 -0.41881588101387024 0.9331724643707275
0.39268893003463745 -0.4455781877040863 0.9284591674804688
0.3693825900554657 -0.12267947942018509 0.9150454998016357
0.3691388964653015 -0.11754871159791946 0.9063574075698853
0.3878103494644165 -0.5082136392593384 0.8459883332252502
0.3888866901397705 -0.528868556022644 0.8480883240699768
0.3741040825843811 0.08808330446481705 1.0837041139602661
0.37384629249572754 0.07004567980766296 1.090929388999939
0.36904215812683105 0.0898941308259964 1.0780341625213623
0.3733483552932739 0.0834028422832489 1.0643340349197388
0.39763712882995605 -0.5801815390586853 0.886056661605835
0.4054284393787384 -0.6038088798522949 0.8893765211105347
0.3976709246635437 -0.6007456183433533 0.8707540035247803
0.37694400548934937 -0.2527931034564972 0.8992456793785095
0.38492661714553833 -0.27301111817359924 0.8917377591133118
0.37797266244888306 -0.2940300703048706 0.878409206867218
0.3833223581314087 -0.2910040020942688 0.8750032186508179
0.3799550235271454 0.06643785536289215 1.0940847396850586
0.3732161223888397 0.09530889242887497 1.074239730834961
0.3998342454433441 -0.41761526465415955 0.9491585493087769
0.40650254487991333 -0.41573724150657654 0.9502301812171936
0.39673855900764465 -0.43471530079841614 0.9439476132392883
0.40753960609436035 -0.45724576711654663 0.9407534599304199
0.37687695026397705 -0.20216386020183563 0.9035618305206299
0.3792739510536194 -0.21941030025482178 0.892471194267273
0.37480148673057556 -0.2254646271467209 0.8961464762687683
0.3783729672431946 0.09016864746809006 1.077277421951294
0.38398614525794983 0.06365666538476944 1.0890607833862305
0.37742412090301514 0.07936851680278778 1.0651576519012451
0.36804354190826416 -0.07661158591508865 0.8880849480628967
0.36779654026031494 -0.08303091675043106 0.8784197568893433
0.36809614300727844 -0.1039852723479271 0.8966696858406067
0.37171342968940735 -0.09301967173814774 0.8896605372428894
0.36385104060173035 -0.08781059086322784 0.887921929359436
0.38431718945503235 -0.3159310519695282 0.8605077266693115
0.38375839591026306 -0.298015296459198 0.8633654117584229
0.38154423236846924 -0.29954278469085693 0.8493832349777222
0.38204216957092285 -0.30651170015335083 0.847713053226471
0.38417747616767883 0.07125692814588547 1.0716619491577148
0.4110487401485443 -0.6150705814361572 0.892169177532196
0.41115283966064453 -0.6049243211746216 0.8754504919052124
0.4135856628417969 -0.6202808618545532 0.886152982711792
0.4109502136707306 -0.6274940371513367 0.8857496976852417
0.405607670545578 -0.5953444242477417 0.864509642124176
0.3929100036621094 -0.11160022765398026 0.9383023977279663
0.3811888098716736 -0.12195999175310135 0.9194411039352417
0.3956196904182434 -0.48454585671424866 0.8441751003265381
0.3999120593070984 -0.5158017873764038 0.8419671058654785
0.40117451548576355 -0.5441023111343384 0.8490691781044006
0.40063464641571045 -0.22127649188041687 0.9727348685264587
0.39733657240867615 -0.24416278302669525 0.966339111328125
0.40636786818504333 -0.2541390359401703 0.956608772277832
0.41238805651664734 -0.4079380929470062 0.9549540281295776
0.40830934047698975 -0.41696640849113464 0.9435548782348633
0.41068553924560547 -0.47663038969039917 0.9309185147285461
0.40126585960388184 -0.37337297201156616 0.950481116771698
0.4037480652332306 -0.4598776698112488 0.8719657063484192
0.4034365713596344 -0.4990711510181427 0.8586145639419556
0.4057427644729614 -0.2190662920475006 0.9678186178207397
0.4146053194999695 -0.3793996274471283 0.9291680455207825
0.4123646914958954 -0.35755443572998047 0.9272105097770691
0.41472622752189636 -0.39815813302993774 0.925986647605896
0.41390371322631836 -0.5640928149223328 0.8779129385948181
0.41317275166511536 -0.5499125719070435 0.8701254725456238
0.3948267996311188 -0.35261106491088867 0.8810473680496216
0.4089876711368561 -0.3575093746185303 0.8950430750846863
0.4019283056259155 -0.37904825806617737 0.8918113708496094
0.4095885753631592 -0.38282209634780884 0.9001380801200867
0.4061712920665741 -0.3000478148460388 0.9430261850357056
0.40742069482803345 -0.3411288261413574 0.9337607622146606
0.4153542220592499 -0.4672626554965973 0.9107797145843506
0.4173566699028015 -0.48996084928512573 0.8985273838043213
0.4114896059036255 -0.501919150352478 0.9028081893920898
0.41283148527145386 -0.447872519493103 0.8888932466506958
0.4151515066623688 -0.4576382040977478 0.8804827332496643
0.40240201354026794 -0.3089636266231537 0.8996816277503967
0.4040820002555847 -0.32778263092041016 0.8940694332122803
0.39923977851867676 -0.293009489774704 0.8891629576683044
0.4025469720363617 -0.3172980844974518 0.8879531621932983
0.403026819229126 -0.33936500549316406 0.8920302391052246
0.4038805365562439 -0.2892017066478729 0.9151877164840698
0.41007646918296814 -0.2728908658027649 0.9269177913665771
0.39470505714416504 -0.25415465235710144 0.9036771655082703
0.40381473302841187 -0.27047431468963623 0.9149857759475708
0.41530168056488037 -0.4694966673851013 0.8836833238601685
0.41967281699180603 -0.4934104382991791 0.8828232288360596
0.41170111298561096 -0.48296090960502625 0.8793237805366516
0.426565945148468 -0.48354285955429077 0.8809555172920227
0.4038393199443817 -0.13201341032981873 0.9452024102210999
0.37003660202026367 -0.4473056495189667 0.9181010127067566
0.3665626347064972 -0.4590480327606201 0.9040257334709167
0.37224364280700684 -0.368694543838501 0.9278655648231506
0.37023672461509705 -0.36500900983810425 0.9250622391700745
0.36921998858451843 -0.3872081935405731 0.9290703535079956
0.3700915575027466 -0.37162137031555176 0.919558048248291
0.36773449182510376 -0.389163613319397 0.9230693578720093
0.3720186948776245 -0.3234553933143616 0.9196391105651855
0.3724805414676666 -0.3366836905479431 0.915777325630188
0.3733982443809509 -0.29760777950286865 0.9242451190948486
0.37950021028518677 -0.3864211142063141 0.9321708083152771
0.38682445883750916 -0.46704667806625366 0.8673876523971558
0.37989693880081177 -0.4924132227897644 0.8882410526275635
0.37669920921325684 -0.3590756952762604 0.9004566669464111
0.3868712782859802 -0.522534966468811 0.8876204490661621
0.3884655237197876 -0.5457223653793335 0.8777977228164673
0.3837297856807709 -0.5248344540596008 0.876936137676239
0.3912338316440582 -0.5668612122535706 0.8824262022972107
0.37166115641593933 -0.1101950854063034 0.9664546251296997
0.38712260127067566 -0.1863963007926941 1.0149376392364502
0.3833616375923157 -0.19341562688350677 1.0038208961486816
0.38940533995628357 -0.1982116848230362 1.0083608627319336
0.37135812640190125 -0.20257294178009033 0.9125477075576782
0.3666772246360779 0.07561926543712616 1.0522459745407104
0.37753167748451233 0.04104585200548172 1.0857045650482178
0.3785823583602905 0.03018529713153839 1.075324535369873
0.3710889220237732 0.035796694457530975 1.0685625076293945
0.39360707998275757 -0.324542760848999 0.9512993097305298
0.40224599838256836 -0.4970397353172302 0.9341893196105957
0.3936740458011627 -0.5663924217224121 0.8587006330490112
0.3698676526546478 0.002510346472263336 1.0191590785980225
0.3778929114341736 -0.02738860994577408 0.9970990419387817
0.39585164189338684 -0.2976367771625519 0.9658549427986145
0.39438003301620483 -0.30599021911621094 0.9560524225234985
0.394030898809433 -0.3532881736755371 0.944201648235321
0.4003923833370209 -0.5737945437431335 0.8595063090324402
0.40888020396232605 -0.6209039688110352 0.8959602117538452
0.4053877294063568 -0.6292629241943359 0.8960530161857605
0.4057553708553314 -0.6187179088592529 0.878410816192627
0.3765113651752472 -0.07938843220472336 0.9767406582832336
0.3832441568374634 -0.10579794645309448 0.9672766923904419
0.4021451473236084 -0.35274747014045715 0.9420545697212219
0.3668246865272522 -0.11007881164550781 0.9446228742599487
0.39452704787254333 -0.5379936695098877 0.845445990562439
0.3956671953201294 -0.1442251205444336 1.046386480331421
0.3979669511318207 -0.14288115501403809 1.043259859085083
0.3955702483654022 -0.15014903247356415 1.0283209085464478
0.4014750123023987 -0.16245463490486145 1.0351790189743042
0.4038408398628235 -0.17637670040130615 1.033022165298462
0.3863072395324707 -0.14307430386543274 1.0069663524627686
0.3951002061367035 -0.14669840037822723 1.0097386837005615
0.4122548997402191 -0.6323200464248657 0.8971636891365051
0.3948266804218292 -0.36759400367736816 0.8795514106750488
0.39522063732147217 -0.3830920457839966 0.8820528388023376
0.3909238874912262 -0.3876945674419403 0.8816986680030823
0.3850710690021515 -0.34187179803848267 0.8742486238479614
0.40258780121803284 -0.16019508242607117 1.0337119102478027
0.40808621048927307 -0.17322811484336853 1.0297257900238037
0.3826666474342346 -0.12304170429706573 0.9059752821922302
0.40586528182029724 -0.14925694465637207 1.036240577697754
0.40410006046295166 -0.15540307760238647 1.0252805948257446
0.41175657510757446 -0.39522549510002136 0.9499611854553223
0.3768100142478943 -0.11726248264312744 0.8772397041320801
0.3714805841445923 -0.1130516454577446 0.8732670545578003
0.37313783168792725 -0.123052679002285 0.8574374914169312
0.3761805593967438 -0.1373860239982605 0.8586633205413818
0.3955952227115631 -0.11071590334177017 0.9625077843666077
0.40713801980018616 -0.1789960265159607 1.0104095935821533
0.4105251431465149 -0.41513925790786743 0.928334653377533
0.4125036597251892 -0.43961837887763977 0.9240283370018005
0.38660839200019836 -0.13514889776706696 0.8981768488883972
0.38491344451904297 -0.14864008128643036 0.8930904865264893
0.38092970848083496 -0.1356464922428131 0.8828346133232117
0.4154912829399109 -0.4356899857521057 0.9161323308944702
0.4154450595378876 -0.4134516716003418 0.9153028726577759
0.41004952788352966 -0.4173785150051117 0.8996475338935852
0.41347840428352356 -0.39321690797805786 0.904881477355957
0.41067203879356384 -0.5175615549087524 0.863301157951355
0.4132069945335388 -0.5240392684936523 0.8683589696884155
0.396035760641098 -0.14168818295001984 0.9157232046127319
0.40783020853996277 -0.15926770865917206 0.9615522623062134
0.40521544218063354 -0.18535611033439636 0.9473615288734436
0.4077821671962738 -0.17193059623241425 0.9417977929115295
0.40638914704322815 -0.20303082466125488 0.9416259527206421
0.40392744541168213 -0.2121153175830841 0.9288021922111511
0.4232178330421448 -0.4369284212589264 0.8977819681167603
0.4207702577114105 -0.4265708029270172 0.8985609412193298
0.4255826473236084 -0.47147130966186523 0.8977512121200562
0.4226946234703064 -0.350504994392395 0.9185344576835632
0.4204963147640228 -0.3858265280723572 0.914666473865509
0.41393616795539856 -0.359576940536499 0.9161133766174316
0.42196768522262573 -0.36901843547821045 0.907812774181366
0.42513802647590637 -0.37843865156173706 0.9113569259643555
0.4190610647201538 -0.3662911653518677 0.9168270230293274
0.42269328236579895 -0.3848752975463867 0.9068818092346191
0.42748069763183594 -0.4838780462741852 0.8895332217216492
0.42837759852409363 -0.4707520008087158 0.8845558762550354
0.36865776777267456 -0.4704931378364563 0.9149410128593445
0.3756604790687561 -0.48858487606048584 0.9057459235191345
0.37103304266929626 -0.461526095867157 0.8970692157745361
0.3726295828819275 -0.4873605966567993 0.8973290920257568
0.3722028136253357 -0.17559760808944702 0.9997312426567078
0.36249998211860657 -0.14105458557605743 0.9397252798080444
0.3633316159248352 -0.15510228276252747 0.9297481775283813
0.3650805652141571 -0.13269416987895966 0.9872381091117859
0.3869304358959198 -0.45567381381988525 0.9206111431121826
0.38406890630722046 -0.4214853346347809 0.9024772047996521
0.36547282338142395 -0.20475691556930542 0.9397763013839722
0.36956995725631714 -0.2108948528766632 0.9234074354171753
0.3720000386238098 -0.19170986115932465 0.9854317307472229
0.3766525387763977 -0.21431946754455566 0.9760826826095581
0.3832906484603882 -0.409368097782135 0.9063382148742676
0.39051103591918945 -0.4708767533302307 0.9195583462715149
0.37328723073005676 -0.24247507750988007 0.9222803115844727
0.373152494430542 -0.2835444211959839 0.9219350814819336
0.37336838245391846 -0.2638038992881775 0.9081834554672241
0.3814637064933777 -0.3863379955291748 0.9046477675437927
0.3972013294696808 -0.5525981187820435 0.8929890990257263
0.397329717874527 -0.5914642810821533 0.8821151852607727
0.39451396465301514 -0.5809767246246338 0.8652576208114624
0.3889186382293701 -0.17745304107666016 1.0288074016571045
0.39144793152809143 -0.21414338052272797 1.0078083276748657
0.38775503635406494 -0.2588496804237366 0.9659177660942078
0.3910229206085205 -0.2877247631549835 0.9622927308082581
0.3755445182323456 -0.2768842875957489 0.8970088362693787
0.39719903469085693 -0.23160278797149658 1.0101712942123413
0.3897157907485962 -0.2036261111497879 0.9847767353057861
0.39127421379089355 -0.21906313300132751 0.977493405342102
0.4053659737110138 -0.5179656147956848 0.9236392378807068
0.4032840430736542 -0.5406365394592285 0.9054465293884277
0.38561221957206726 -0.39261460304260254 0.886629581451416
0.3780437111854553 -0.05516345798969269 1.0159738063812256
0.3760131001472473 -0.03957429900765419 1.0234055519104004
0.37788087129592896 -0.300914466381073 0.8651574850082397
0.3982853293418884 -0.27519655227661133 0.9609853625297546
0.4023382365703583 -0.2977471351623535 0.9695267677307129
0.4078404903411865 -0.5103110671043396 0.9284847378730774
0.40959277749061584 -0.5123512148857117 0.9222473502159119
0.4078066051006317 -0.5288535356521606 0.9145883917808533
0.3788996934890747 -0.15218345820903778 0.8884488940238953
0.37818312644958496 -0.16832005977630615 0.8810467720031738
0.3725951611995697 -0.17093615233898163 0.8820540308952332
0.3701448142528534 -0.145038440823555 0.8845112919807434
0.37768790125846863 -0.14203764498233795 0.8807795643806458
0.3704671561717987 -0.14107990264892578 0.8647493124008179
0.37585505843162537 -0.1878635287284851 0.8985052108764648
0.3648974299430847 -0.1394607126712799 0.8612967729568481
0.36794406175613403 -0.14797446131706238 0.8474631309509277
0.3890046775341034 -0.12100561708211899 0.9887415170669556
0.3929368257522583 -0.12993675470352173 0.9881948828697205
0.38249582052230835 -0.10859382897615433 0.9611943960189819
0.3993229866027832 -0.18224003911018372 1.02065110206604
0.3950962424278259 -0.1923244446516037 1.0078558921813965
0.41021186113357544 -0.4147071838378906 0.9650986194610596
0.4093100130558014 -0.40930458903312683 0.9674200415611267
0.40337619185447693 -0.39976048469543457 0.9579107165336609
0.3723953664302826 -0.13876573741436005 0.8485832214355469
0.36780890822410583 -0.12450889497995377 0.8568570613861084
0.38066762685775757 -0.18906736373901367 0.895431399345398
0.39822208881378174 -0.4437851309776306 0.8715753555297852
0.3939858078956604 -0.46728602051734924 0.8585311770439148
0.4005816876888275 -0.15276433527469635 1.0080254077911377
0.3911580443382263 -0.10458625853061676 0.9946917295455933
0.409904807806015 -0.49083226919174194 0.912521481513977
0.386837899684906 -0.29870039224624634 0.8693438768386841
0.3867582678794861 0.03788120299577713 1.0350148677825928
0.38696783781051636 0.021393023431301117 1.0274500846862793
0.39020398259162903 -0.30651748180389404 0.8724162578582764
0.39804306626319885 -0.08979016542434692 0.9869226813316345
0.3982025384902954 -0.11045598983764648 0.9818018078804016
0.3943087160587311 -0.10496079921722412 0.9710054397583008
0.41461071372032166 -0.43641000986099243 0.8955311179161072
0.39604049921035767 -0.11916839331388474 0.929706871509552
0.3994755744934082 -0.28357571363449097 0.8979131579399109
0.40534424781799316 -0.1290925145149231 0.9738622903823853
0.4070218801498413 -0.15037062764167786 0.966934084892273
0.40827736258506775 -0.15805284678936005 0.9924687147140503
0.40657103061676025 -0.16679644584655762 0.9709528088569641
0.4012191891670227 -0.11569581925868988 0.9665976762771606
0.39927539229393005 -0.11515821516513824 0.9514345526695251
0.42743560671806335 -0.4369942545890808 0.9037037491798401
0.3652932643890381 -0.3394794464111328 0.9354978799819946
0.3637498915195465 -0.3392077386379242 0.9304099678993225
0.3694913387298584 -0.3542850613594055 0.9352813959121704
0.3634367287158966 -0.33404266834259033 0.9268323183059692
0.36680057644844055 -0.35828638076782227 0.9279753565788269
0.37317630648612976 -0.4258803427219391 0.9221668839454651
0.38086023926734924 -0.43833231925964355 0.9230948090553284
0.374939888715744 -0.36237645149230957 0.9199585318565369
0.37600359320640564 -0.37002062797546387 0.9079544544219971
0.3780533969402313 -0.4003825783729553 0.9153158068656921
0.377165287733078 -0.4124135971069336 0.925033688545227
0.3662627935409546 -0.18818949162960052 0.94411301612854
0.37760964035987854 -0.17755791544914246 1.0131995677947998
0.3769758641719818 -0.15423913300037384 1.008467674255371
0.3690430521965027 -0.09330102801322937 0.9966863393783569
0.36765527725219727 -0.08138392865657806 0.9890344142913818
0.3808023929595947 -0.3476957678794861 0.8827133774757385
0.37464454770088196 -0.2952725887298584 0.8946942687034607
0.3792940080165863 -0.3141593039035797 0.8586176633834839
0.37391459941864014 -0.3141019344329834 0.8892174363136292
0.37752193212509155 0.021072067320346832 1.0705376863479614
0.3727606236934662 0.06195715814828873 1.0644001960754395
0.3718087375164032 0.043529756367206573 1.0635234117507935
0.37150251865386963 0.04656480252742767 1.052541971206665
0.36657801270484924 0.033620283007621765 1.041506052017212
0.3714410662651062 -0.03321792185306549 0.9973483085632324
0.37361735105514526 -0.05591919645667076 0.9870941638946533
0.3884592056274414 -0.14883944392204285 1.0409958362579346
0.4009047746658325 -0.4154614806175232 0.9664092659950256
0.3982633054256439 -0.4596218168735504 0.9395319819450378
0.39110615849494934 -0.48339372873306274 0.8438723087310791
0.38691258430480957 -0.48193860054016113 0.8497176170349121
0.36796191334724426 -0.11509742587804794 0.8712513446807861
0.36511120200157166 -0.12442862242460251 0.8609777688980103
0.38589584827423096 -0.038917042315006256 1.021803617477417
0.387111097574234 -0.058907125145196915 1.012481689453125
0.40449970960617065 -0.41357845067977905 0.9710984230041504
0.3861388862133026 -0.2568493187427521 0.8943684697151184
0.3917938470840454 -0.2747448980808258 0.8931361436843872
0.40207532048225403 -0.28681862354278564 0.9600496888160706
0.40239715576171875 -0.3054506778717041 0.9533329010009766
0.40343794226646423 -0.3270333409309387 0.9467920660972595
0.3949252963066101 -0.17858697474002838 0.9094475507736206
0.39056965708732605 0.0034530460834503174 1.0326032638549805
0.38864028453826904 -0.003569371998310089 1.016050100326538
0.41238582134246826 -0.5368425250053406 0.8715254068374634
0.408532053232193 -0.2172164022922516 0.9576585292816162
0.40910616517066956 -0.23270079493522644 0.9396091103553772
0.40089985728263855 -0.18095164000988007 0.9252512454986572
0.39351537823677063 -0.16786445677280426 0.9011450409889221
0.3915669620037079 -0.2015949785709381 0.9063805937767029
0.41007357835769653 -0.17925302684307098 0.9612853527069092
0.40979138016700745 -0.1827383190393448 0.9787969589233398
0.4079589247703552 -0.19344493746757507 0.9721348881721497
0.4106244444847107 -0.19447091221809387 0.953703761100769
0.3679002523422241 -0.16531243920326233 0.9754096269607544
0.3639666438102722 -0.13058160245418549 0.9698286652565002
0.36201542615890503 -0.149448961019516 0.9729408025741577
0.3618353009223938 -0.15397566556930542 0.9578523635864258
0.38119933009147644 -0.4497590661048889 0.8988155126571655
0.36151301860809326 -0.1445082426071167 0.9253777861595154
0.39464226365089417 -0.5026168823242188 0.9106740951538086
0.37014469504356384 -0.22160501778125763 0.9169355630874634
0.3685675859451294 0.006421379745006561 1.0427104234695435
0.3670576214790344 -0.004925131797790527 1.030350923538208
0.3669796884059906 0.003957659006118774 1.0238192081451416
0.3867870569229126 -0.1982133984565735 0.9889678955078125
0.38946717977523804 -0.22377270460128784 1.003575325012207
0.388954758644104 -0.20733624696731567 0.9941547513008118
0.3684626817703247 -0.15326912701129913 0.8910964131355286
0.36387550830841064 -0.14307641983032227 0.8495656251907349
0.3934437930583954 -0.41359326243400574 0.881162166595459
0.3901907205581665 -0.4279410243034363 0.8765994906425476
0.38766729831695557 -0.442188560962677 0.8748297691345215
0.3832435607910156 -0.13101260364055634 0.9911909103393555
0.4016281068325043 -0.22565743327140808 1.005797028541565
0.3961774408817291 -0.23195621371269226 1.0013213157653809
0.39564257860183716 -0.2188967615365982 0.9935487508773804
0.39181381464004517 -0.20724758505821228 0.9785900115966797
0.3932342827320099 -0.5163754224777222 0.841190755367279
0.40374699234962463 -0.5615966320037842 0.8548895716667175
0.37994369864463806 0.04846291244029999 1.0500774383544922
0.3760942220687866 0.07489172369241714 1.0403693914413452
0.3778853714466095 0.066888727247715 1.0535542964935303
0.3792642652988434 0.05402470380067825 1.0462367534637451
0.3785704970359802 0.0510983020067215 1.036210060119629
0.37195491790771484 0.06638507544994354 1.0338106155395508
0.3739430606365204 0.049183256924152374 1.0307248830795288
0.382294237613678 -0.20156055688858032 0.9008896946907043
0.3766638934612274 0.03321031481027603 1.016243815422058
0.3910103142261505 -0.02623096853494644 1.00221586227417
0.38482633233070374 -0.044327203184366226 0.9903916716575623
0.39581000804901123 -0.061841756105422974 1.000042200088501
0.4009075164794922 -0.12919872999191284 0.9808661937713623
0.4037960171699524 -0.14257732033729553 0.9927483797073364
0.3903496265411377 -0.16624534130096436 0.8914238214492798
0.4126122295856476 -0.2771025598049164 0.9349572062492371
0.4073781669139862 -0.24725553393363953 0.9252974987030029
0.42268893122673035 -0.4224819839000702 0.9064368009567261
0.4179660677909851 -0.3055232763290405 0.9244033098220825
0.4209645092487335 -0.3321716785430908 0.921147346496582
0.41866233944892883 -0.32092124223709106 0.9189350008964539
0.4224705100059509 -0.349740207195282 0.9120544195175171
0.37308046221733093 -0.2824395000934601 0.9468300342559814
0.3681522607803345 -0.29696083068847656 0.9397015571594238
0.37435391545295715 -0.25828513503074646 0.959076464176178
0.37217631936073303 -0.2795654535293579 0.9358514547348022
0.38699209690093994 -0.5044289231300354 0.8657507300376892
0.3690383732318878 -0.08629526197910309 0.9799759387969971
0.3725745677947998 -0.10608614981174469 0.9726594090461731
0.3691389262676239 -0.11240247637033463 0.9862253069877625
0.3676493465900421 -0.052918240427970886 1.0094789266586304
0.37280356884002686 -0.06619131565093994 1.0092881917953491
0.3934638798236847 -0.4080401062965393 0.9528335928916931
0.3941488265991211 -0.41223737597465515 0.946466326713562
0.4005594849586487 -0.38209617137908936 0.9515653252601624
0.3921031355857849 -0.4552021622657776 0.8663294315338135
0.3620870113372803 -0.0787079930305481 0.8856833577156067
0.3625602722167969 -0.09474920481443405 0.878990113735199
0.3697914481163025 0.08324721455574036 1.049412488937378
0.3684206008911133 0.07885202765464783 1.0417191982269287
0.3897884786128998 0.002369321882724762 1.0713828802108765
0.3872721791267395 -0.00045580416917800903 1.0638725757598877
0.408098429441452 -0.5376510620117188 0.9035310745239258
0.40989768505096436 -0.5578113794326782 0.8870890140533447
