-0.5713523030281067 0.18160012364387512 1.3434375524520874
-0.5794098377227783 0.17648333311080933 1.3502265214920044
-0.5876262187957764 0.17546294629573822 1.3245859146118164
-0.5844195485115051 0.1781226396560669 1.3915560245513916
-0.575005829334259 0.17053109407424927 1.2389986515045166
-0.5399324297904968 0.17509645223617554 1.275998830795288
-0.5904240012168884 0.19676576554775238 1.4409507513046265
-0.5984570384025574 0.1885153353214264 1.4441895484924316
-0.5570185780525208 0.15493124723434448 1.4479997158050537
-0.561620831489563 0.18131327629089355 1.428401231765747
-0.578284502029419 0.18137764930725098 1.4723488092422485
-0.5625136494636536 0.1641099750995636 1.426238775253296
-0.5645880699157715 0.1919909119606018 1.4667221307754517
-0.5589377880096436 0.18736882507801056 1.5079790353775024
-0.5666687488555908 0.1722140610218048 1.4988359212875366
-0.5628017783164978 0.16478167474269867 1.5427342653274536
-0.5800984501838684 0.16112834215164185 1.5775721073150635
-0.5770263671875 0.1761186718940735 1.5660399198532104
-0.5788648724555969 0.16322100162506104 1.5541458129882812
-0.5560663342475891 0.17046067118644714 1.5503324270248413
-0.5488677024841309 0.16291597485542297 1.614776372909546
-0.5305625796318054 0.14162614941596985 1.5737782716751099
-0.5205163955688477 0.15940500795841217 1.6039237976074219
-0.5735222697257996 0.1503685712814331 1.634534478187561
-0.5686757564544678 0.1663384586572647 1.634728193283081
-0.5485950112342834 0.15178358554840088 1.6103041172027588
-0.526597797870636 0.1364719271659851 1.672378659248352
-0.5232436656951904 0.13066953420639038 1.6621204614639282
-0.5086395740509033 0.14908085763454437 1.6730284690856934
-0.4724867045879364 0.11813782900571823 1.6507487297058105
-0.48756030201911926 0.14417342841625214 1.7075259685516357
-0.4531600773334503 0.11584218591451645 1.700969934463501
-0.4691029191017151 0.14579437673091888 1.6534667015075684
-0.42437219619750977 0.12718108296394348 1.7037423849105835
-0.4101438522338867 0.10728830844163895 1.7116246223449707
-0.4034169018268585 0.1341322958469391 1.6773806810379028
-0.39987993240356445 0.14260707795619965 1.7071709632873535
-0.38426944613456726 0.1163945123553276 1.698462963104248
-0.36768820881843567 0.11771740019321442 1.6504857540130615
-0.37632524967193604 0.08394022285938263 1.694879174232483
-0.36071664094924927 0.096458800137043 1.5745387077331543
-0.3430458903312683 0.0841161459684372 1.6396281719207764
-0.29246869683265686 0.0966578871011734 1.5724114179611206
-0.31401076912879944 0.0864190012216568 1.6132335662841797
-0.3342086672782898 0.10049925744533539 1.645931601524353
-0.2890942096710205 0.06969118118286133 1.563624382019043
-0.24809519946575165 0.08705095946788788 1.5259121656417847
-0.2393270581960678 0.0667329728603363 1.5027389526367188
-0.27464863657951355 0.07257974147796631 1.560509204864502
-0.2791210114955902 0.10681785643100739 1.5137624740600586
-0.1538325697183609 0.033238835632801056 1.3849070072174072
-0.20931635797023773 0.07111945748329163 1.471483826637268
-0.18330903351306915 0.04985278844833374 1.4320563077926636
-0.14380688965320587 0.0676494911313057 1.3526233434677124
-0.14348630607128143 0.04606610909104347 1.3899279832839966
-0.13462743163108826 0.05305738374590874 1.3785393238067627
-0.1350497603416443 0.06033925712108612 1.3303139209747314
-0.0904756709933281 0.018990900367498398 1.338503360748291
-0.0710020586848259 0.034636180847883224 1.340730905532837
-0.07644055783748627 0.04215054214000702 1.3641834259033203
-0.07469426840543747 0.020203638821840286 1.3596405982971191
0.03697729855775833 0.015204213559627533 1.3773022890090942
0.05091458186507225 0.005334187299013138 1.3461390733718872
0.045300208032131195 -0.006586179137229919 1.3660964965820312
0.04618263244628906 0.02210298180580139 1.3607969284057617
0.08074846863746643 0.004840198904275894 1.3973064422607422
0.0826040506362915 0.019294962286949158 1.3925076723098755
0.11028283834457397 -0.0027324892580509186 1.338154911994934
0.1256544589996338 -0.00473552942276001 1.4148504734039307
0.11397300660610199 -0.007926708087325096 1.3428577184677124
0.11215011775493622 0.0040647536516189575 1.4322354793548584
0.11923649162054062 0.014327824115753174 1.344478964805603
0.11672909557819366 0.020004697144031525 1.4227831363677979
0.12631314992904663 0.02647596225142479 1.4852091073989868
0.1281227469444275 0.02518482133746147 1.5494153499603271
0.17811277508735657 -0.011399139650166035 1.4046506881713867
0.13329480588436127 0.017624355852603912 1.5846526622772217
0.16125386953353882 -0.005327679216861725 1.4922538995742798
0.14293614029884338 0.035697467625141144 1.5742038488388062
0.145624577999115 0.033821675926446915 1.657858967781067
0.153177872300148 0.04549875482916832 1.6612412929534912
0.15091510117053986 0.049835287034511566 1.7021502256393433
0.14733392000198364 0.036098167300224304 1.733481764793396
0.15772202610969543 0.029050592333078384 1.7379165887832642
0.17665940523147583 0.034293755888938904 1.7650383710861206
0.20410895347595215 0.058855414390563965 1.7498793601989746
0.18069146573543549 0.05221178010106087 1.7674670219421387
0.21742388606071472 0.023688070476055145 1.7353006601333618
0.2861466705799103 0.027216672897338867 1.637194275856018
0.21135854721069336 0.03908415883779526 1.7669525146484375
0.2570032477378845 0.04752451926469803 1.7769628763198853
0.2564051151275635 0.030924372375011444 1.7787452936172485
0.3153906464576721 0.01454383134841919 1.7524704933166504
0.2844597399234772 0.012245018035173416 1.7132582664489746
0.32472777366638184 -0.017310110852122307 1.6071562767028809
0.33556079864501953 0.009560579434037209 1.544752836227417
0.30960527062416077 0.03839515894651413 1.7644859552383423
0.4145265519618988 -0.008116889744997025 1.7023710012435913
0.3234337568283081 0.02824222669005394 1.7677550315856934
0.36660367250442505 0.011515788733959198 1.7546899318695068
0.3477790951728821 0.025229405611753464 1.7144848108291626
0.37143614888191223 0.02726876363158226 1.755403757095337
0.41147440671920776 0.01390199176967144 1.7103015184402466
0.41317906975746155 0.01229904219508171 1.6830629110336304
0.3670995235443115 0.0008044689893722534 1.6909371614456177
0.37801703810691833 0.011620741337537766 1.7297437191009521
0.41324421763420105 -0.001857120543718338 1.6771571636199951
0.4507129192352295 0.011808265000581741 1.6345829963684082
0.45109522342681885 -0.0024890098720788956 1.6349287033081055
0.46761900186538696 -0.0002468656748533249 1.5939327478408813
0.4818709194660187 -0.02032853290438652 1.5934959650039673
0.508330225944519 0.002716241404414177 1.6153753995895386
0.5006223917007446 -0.00886082835495472 1.6168867349624634
0.5161221027374268 -0.011419182643294334 1.5690560340881348
0.4930631220340729 -0.010067651979625225 1.592998743057251
0.5230939984321594 -0.018290763720870018 1.524787425994873
0.5263493657112122 -0.03195849433541298 1.5250420570373535
0.5711979269981384 -0.024627767503261566 1.490817666053772
0.566216230392456 -0.03506045043468475 1.4531844854354858
0.5428343415260315 -0.04737577587366104 1.4586522579193115
0.5732554793357849 -0.04421296715736389 1.4133861064910889
0.5151082277297974 -0.027515310794115067 1.5656858682632446
0.5557166934013367 -0.020780744031071663 1.546453833580017
0.5586285591125488 -0.03981897979974747 1.500035047531128
0.5437634587287903 -0.041191212832927704 1.5484225749969482
0.6427724361419678 -0.05990056321024895 1.4115490913391113
0.5919620990753174 -0.0636407658457756 1.4448652267456055
0.6098456382751465 -0.05739888548851013 1.4158837795257568
0.6036074757575989 -0.05107159912586212 1.474457025527954
0.5947931408882141 -0.06461255997419357 1.416818380355835
0.6151701807975769 -0.05884164944291115 1.385657548904419
0.6052602529525757 -0.07520581781864166 1.3868128061294556
0.6495217084884644 -0.06037016957998276 1.4250282049179077
0.6389138698577881 -0.07366730272769928 1.412868857383728
0.6380895972251892 -0.06878624856472015 1.4322245121002197
0.6475881934165955 -0.07619082927703857 1.357342004776001
0.7000029683113098 -0.08196595311164856 1.3222510814666748
0.6553367376327515 -0.06801966577768326 1.3331999778747559
0.7011415362358093 -0.07832720875740051 1.2997190952301025
0.6869284510612488 -0.09505858272314072 1.298730731010437
0.7455268502235413 -0.11528018116950989 1.1015851497650146
0.7221277356147766 -0.13295063376426697 1.1253832578659058
0.741888165473938 -0.14711566269397736 1.075929880142212
0.7530979514122009 -0.12622115015983582 1.1050108671188354
0.6974979043006897 -0.1608198881149292 1.0885103940963745
0.7538883686065674 -0.17812110483646393 1.041879653930664
0.7438844442367554 -0.19054216146469116 1.0474296808242798
-0.4685702323913574 0.0668337494134903 0.8244391679763794
-0.43869921565055847 0.052857957780361176 0.7944464087486267
-0.4358920156955719 0.03452683240175247 0.7621951103210449
-0.435115247964859 0.03653291240334511 0.8028614521026611
-0.3991149067878723 0.03989000245928764 0.7327524423599243
-0.38733017444610596 0.01732788234949112 0.7329350709915161
-0.48575663566589355 0.12822964787483215 0.876979649066925
-0.4740868806838989 0.08176569640636444 0.9326903820037842
-0.45570826530456543 0.07336971163749695 0.875637412071228
-0.4430442452430725 0.06720113754272461 0.8733733892440796
-0.40984779596328735 0.049152474850416183 0.8034443855285645
-0.39153826236724854 0.0161532461643219 0.7821854948997498
-0.40058451890945435 0.0023665577173233032 0.7452152371406555
-0.3483039140701294 -0.0029781460762023926 0.6492798328399658
-0.3563467860221863 -0.01650511659681797 0.6739791035652161
-0.32034265995025635 -0.04882366582751274 0.645255982875824
-0.40008336305618286 0.028317447751760483 0.8444543480873108
-0.38269755244255066 0.02859436348080635 0.7748792767524719
-0.3291971683502197 0.005724947899580002 0.6458859443664551
-0.3756875991821289 0.017376497387886047 0.7651046514511108
-0.38187065720558167 0.03081199899315834 0.792133092880249
-0.37451398372650146 0.0020369701087474823 0.7462596893310547
-0.35955116152763367 -0.024148114025592804 0.7540258169174194
-0.4550122916698456 0.1075291559100151 1.0710811614990234
-0.2870562672615051 -0.10839809477329254 0.6349472403526306
-0.2512911558151245 -0.12260880321264267 0.5542255640029907
-0.4849728047847748 0.09466680884361267 1.1868726015090942
-0.48504388332366943 0.09694912284612656 1.1012084484100342
-0.4370572566986084 0.09388358891010284 1.047331690788269
-0.5098618268966675 0.10675927996635437 1.2054553031921387
-0.49550795555114746 0.151837557554245 1.1388450860977173
-0.3566247224807739 -0.051854804158210754 0.8411081433296204
-0.5274332165718079 0.17011705040931702 1.3432481288909912
-0.47921591997146606 0.14165666699409485 1.2853410243988037
-0.24290016293525696 -0.002666708081960678 0.6811514496803284
-0.2173561453819275 -0.012841727584600449 0.5920686721801758
-0.3147943317890167 0.03189682960510254 0.8195451498031616
-0.19218389689922333 -0.03588535264134407 0.5876147150993347
-0.3551841676235199 0.0378854013979435 0.9961339235305786
-0.35899806022644043 0.01259058341383934 0.9313626885414124
-0.316864550113678 0.030352365225553513 0.8892090320587158
-0.3050970733165741 0.03464969992637634 0.9419801235198975
-0.30101263523101807 0.0557473823428154 0.941537082195282
-0.34377074241638184 0.04184487462043762 1.022261381149292
-0.474262535572052 0.11437929421663284 1.4156888723373413
-0.503940761089325 0.16026434302330017 1.4392037391662598
-0.31443947553634644 0.07410381734371185 1.0423223972320557
-0.4015403985977173 0.11167632043361664 1.2059377431869507
-0.4131024479866028 0.08239316195249557 1.188167929649353
-0.45066893100738525 0.11547595262527466 1.5300977230072021
-0.4390561878681183 0.10803389549255371 1.403283953666687
-0.4748809337615967 0.14962667226791382 1.5043816566467285
-0.3382115066051483 0.07144222408533096 1.1346549987792969
-0.3399822413921356 0.10393074154853821 1.1510326862335205
-0.32482242584228516 0.07224764674901962 1.1003385782241821
-0.3140513002872467 0.0789453387260437 1.0909278392791748
-0.38724285364151 0.13125446438789368 1.3430981636047363
-0.3517626225948334 0.12036541104316711 1.2807831764221191
-0.34240931272506714 0.09472818672657013 1.4605435132980347
-0.23686620593070984 0.07622453570365906 1.0946024656295776
-0.40337538719177246 0.138045996427536 1.54707670211792
-0.2667129337787628 0.07370495796203613 1.4395073652267456
-0.3024498224258423 0.11789736151695251 1.430853009223938
-0.24593313038349152 0.07076840102672577 1.3691600561141968
-0.23148319125175476 0.10053873062133789 1.3629052639007568
-0.2007218301296234 0.08512594550848007 1.2750639915466309
-0.1698211133480072 0.06525806337594986 1.237729549407959
0.21572911739349365 0.010150285437703133 1.2169713973999023
0.19137340784072876 -0.01055161003023386 1.2297966480255127
0.23259951174259186 -0.008051563054323196 1.1826164722442627
0.23445722460746765 0.011712078005075455 1.3649017810821533
0.20328867435455322 -0.01942265033721924 1.2877094745635986
0.21516722440719604 0.009289468638598919 1.2958316802978516
0.276305615901947 -0.0029049431905150414 1.248696208000183
0.28515926003456116 -0.03104250505566597 1.2454754114151
0.29916712641716003 -0.011477876454591751 1.1517077684402466
0.3148447573184967 -0.018424618989229202 1.125848650932312
0.2940378785133362 -0.024189898744225502 1.1557703018188477
0.3124374449253082 -0.02915129065513611 1.1355501413345337
0.34355399012565613 -0.018539030104875565 1.1422559022903442
0.26693642139434814 0.01734815537929535 1.5313512086868286
0.26715412735939026 -0.015817267820239067 1.4933221340179443
0.3848291337490082 -0.02816842310130596 1.1236480474472046
0.3618524670600891 -0.048426203429698944 1.1357234716415405
0.33833664655685425 -0.028469476848840714 1.1467740535736084
0.3758377432823181 -0.03364640846848488 1.1201138496398926
0.4126858711242676 -0.04549415782094002 1.0866856575012207
0.30465298891067505 -0.026496175676584244 1.4003899097442627
0.4289221465587616 -0.03413569927215576 1.2237193584442139
0.37619441747665405 -0.05998389422893524 1.1592016220092773
0.3820549547672272 -0.0372806079685688 1.173555612564087
0.3961773216724396 -0.015146005898714066 1.3621714115142822
0.40720972418785095 -0.055367980152368546 1.214468002319336
0.4590364992618561 -0.04905984550714493 1.1374372243881226
0.44254201650619507 -0.03456266224384308 1.1855621337890625
0.44327056407928467 -0.05400587245821953 1.1579370498657227
0.4358246922492981 -0.07959321141242981 1.1855616569519043
0.40615636110305786 -0.021425966173410416 1.4132152795791626
0.43689441680908203 -0.03597332164645195 1.296688199043274
0.41342055797576904 -0.06162451207637787 1.317046046257019
0.3852093815803528 -0.03841497004032135 1.5515350103378296
0.47326964139938354 -0.060194481164216995 1.180834412574768
0.4153953492641449 -0.011844679713249207 1.524385690689087
0.43594586849212646 -0.03005066141486168 1.4662102460861206
0.43587785959243774 -0.0516161285340786 1.5180776119232178
0.5569802522659302 -0.12759153544902802 0.9835857152938843
0.47069311141967773 -0.0702688992023468 1.4479517936706543
0.5049406290054321 -0.07465462386608124 1.4081461429595947
0.49987807869911194 -0.04457293078303337 1.3530607223510742
0.5071820020675659 -0.09801632165908813 1.2588145732879639
0.5213149785995483 -0.06567627191543579 1.2548894882202148
0.52350252866745 -0.04750571399927139 1.3683983087539673
0.5396494269371033 -0.062166694551706314 1.3056864738464355
0.5664956569671631 -0.08886375278234482 1.2404086589813232
0.5539755821228027 -0.04891973361372948 1.3959550857543945
0.5600132942199707 -0.07766705751419067 1.3670339584350586
0.5953093767166138 -0.25062641501426697 0.8387021422386169
0.6271814107894897 -0.2719150185585022 0.6973719000816345
0.675811767578125 -0.22014732658863068 0.6822779178619385
0.6365049481391907 -0.22475291788578033 0.7186421155929565
0.6172901391983032 -0.15996992588043213 1.04588782787323
0.6229740381240845 -0.16335557401180267 1.0031477212905884
0.6129442453384399 -0.08780467510223389 1.2366065979003906
0.7107295393943787 -0.16300347447395325 0.7219445109367371
0.6888640522956848 -0.15913483500480652 0.7962173223495483
0.7038114666938782 -0.16535425186157227 0.9976545572280884
0.7319871783256531 -0.1881142407655716 0.9002296924591064
0.6813284754753113 -0.18680310249328613 0.9068548679351807
0.7096014618873596 -0.21221330761909485 0.9181243777275085
-0.4244242012500763 0.0188903771340847 0.7053152322769165
-0.42403286695480347 0.0021997764706611633 0.719796895980835
-0.5376278162002563 0.1480390876531601 1.0732994079589844
-0.5325344800949097 0.16316521167755127 1.0781456232070923
-0.5074230432510376 0.138516366481781 1.0316085815429688
-0.4527575373649597 0.09057539701461792 0.9354459643363953
-0.444562166929245 0.09041300415992737 0.9906073212623596
-0.448360800743103 0.05294565111398697 0.895095944404602
-0.4085627794265747 0.06405331194400787 0.9069438576698303
-0.46389567852020264 0.07204568386077881 1.043379545211792
-0.5238505005836487 0.1272328794002533 1.2074031829833984
-0.5093557834625244 0.12586019933223724 1.1695507764816284
-0.27275747060775757 0.007638558745384216 0.7231541275978088
-0.31361615657806396 0.015038542449474335 0.6648706793785095
-0.25464436411857605 -0.008818324655294418 0.6012296080589294
-0.49191775918006897 0.1432138979434967 1.2115423679351807
-0.5372426509857178 0.1372525840997696 1.2560856342315674
-0.3431967496871948 -0.023879878222942352 0.8003938794136047
-0.32967644929885864 -0.03992517292499542 0.7817968130111694
-0.2670347988605499 -0.07239410281181335 0.6232500076293945
-0.24404272437095642 -0.09780696779489517 0.5749416947364807
-0.3589116930961609 0.05624983832240105 0.9149012565612793
-0.5614336729049683 0.1595732569694519 1.3613275289535522
-0.3797508478164673 0.06260594725608826 0.9585362672805786
-0.3355950713157654 0.05443945899605751 0.8895947337150574
-0.40564167499542236 0.036853983998298645 0.9900722503662109
-0.3986476957798004 0.026203632354736328 0.968241810798645
-0.3506009876728058 0.0647202655673027 0.9772660136222839
-0.4251965284347534 0.06456442177295685 1.080918312072754
-0.3079065680503845 0.027267225086688995 0.8455497622489929
-0.277033269405365 0.00535273551940918 0.783246636390686
-0.4507431983947754 0.11818866431713104 1.1491557359695435
-0.3962710201740265 0.09054446220397949 1.0953891277313232
-0.39282888174057007 0.05964350700378418 1.063140869140625
-0.515956699848175 0.14416010677814484 1.4271581172943115
-0.4821297228336334 0.09574536234140396 1.236528754234314
-0.3913344144821167 0.07145030796527863 1.1466660499572754
-0.5037662982940674 0.12964406609535217 1.4936609268188477
-0.4339577555656433 0.1411629021167755 1.3898659944534302
-0.4403384029865265 0.09639157354831696 1.2752792835235596
-0.3259359300136566 0.08140318095684052 1.08602774143219
-0.35166066884994507 0.05938216298818588 1.0994473695755005
-0.4175831079483032 0.13058024644851685 1.27700674533844
-0.3808980882167816 0.11524443328380585 1.2147351503372192
-0.38426050543785095 0.13666649162769318 1.460900068283081
-0.36463433504104614 0.09062505513429642 1.281359076499939
-0.31105971336364746 0.07122032344341278 1.2006778717041016
-0.29424595832824707 0.09425093978643417 1.196861743927002
-0.27978718280792236 0.0813487097620964 1.1328773498535156
-0.27609217166900635 0.06725326180458069 1.2374569177627563
-0.2527698278427124 0.0888359546661377 1.1395838260650635
-0.3531950116157532 0.1298258900642395 1.3728713989257812
-0.3101885914802551 0.08935806155204773 1.3400206565856934
-0.21091338992118835 0.07243818044662476 1.1351470947265625
-0.19255372881889343 0.0713343620300293 1.1615597009658813
-0.22621288895606995 0.09399854391813278 1.437849998474121
-0.21575798094272614 0.05751403793692589 1.279985785484314
0.2627725601196289 -0.027117855846881866 1.1676626205444336
0.1783703714609146 0.017452042549848557 1.448161244392395
0.32103338837623596 -0.0043303873389959335 1.2102376222610474
0.3141205310821533 -0.029754584655165672 1.204979419708252
0.32117998600006104 -0.00994947925209999 1.139656901359558
0.3460325002670288 -0.009678507223725319 1.3268173933029175
0.35514116287231445 -0.04731455072760582 1.2492477893829346
0.42174726724624634 -0.03817591071128845 1.0923128128051758
0.3699604272842407 -0.004074659198522568 1.4833259582519531
0.4288412928581238 -0.07282951474189758 1.2151204347610474
0.4674474596977234 -0.040010642260313034 1.4294722080230713
0.5760821104049683 -0.13773363828659058 0.8931660652160645
0.5975224375724792 -0.13575848937034607 0.8747043609619141
0.6095631122589111 -0.1526719033718109 0.7606152892112732
0.6204162240028381 -0.1590968519449234 0.6811020374298096
0.6073187589645386 -0.17541837692260742 0.696540355682373
0.5585258603096008 -0.08968380838632584 1.1746675968170166
0.6278203129768372 -0.14038333296775818 0.7618744373321533
0.6356908082962036 -0.14971648156642914 0.6875061988830566
0.5636453628540039 -0.18542544543743134 0.9555648565292358
0.5542939901351929 -0.19327348470687866 1.0037591457366943
0.5443874001502991 -0.21267914772033691 0.9761674404144287
0.5767333507537842 -0.20097869634628296 0.9041025638580322
0.6546511054039001 -0.14436474442481995 0.7891721129417419
0.6639578342437744 -0.15904147922992706 0.7045428156852722
0.622681200504303 -0.145321324467659 0.9643921852111816
0.5822104215621948 -0.1896427720785141 0.9487541913986206
0.6128303408622742 -0.21106286346912384 0.8932318687438965
0.5759408473968506 -0.2090098261833191 0.9583282470703125
0.5939381718635559 -0.2409706860780716 0.8870534896850586
0.5833288431167603 -0.17067407071590424 1.0236340761184692
0.62812340259552 -0.18757091462612152 0.9711346626281738
0.6526283621788025 -0.23070882260799408 0.731252908706665
0.6385093927383423 -0.2626112699508667 0.6709173917770386
0.6865969896316528 -0.19196268916130066 0.6736887097358704
0.6284145712852478 -0.1363043487071991 1.0430824756622314
0.6554116010665894 -0.17106927931308746 0.8269294500350952
0.6334125995635986 -0.2449934333562851 0.8016492128372192
0.6552891731262207 -0.2358309030532837 0.7908216714859009
0.6878045201301575 -0.2297571748495102 0.705363392829895
0.6863310933113098 -0.16137561202049255 0.9761332869529724
0.7072056531906128 -0.15963591635227203 0.9454609751701355
0.7191261649131775 -0.2081480324268341 0.768685519695282
0.7101090550422668 -0.21172337234020233 0.789283812046051
0.6206076741218567 -0.115275539457798 1.1463261842727661
0.7152091264724731 -0.11559280753135681 1.0967751741409302
0.6758757829666138 -0.13356225192546844 1.094925045967102
0.6593089699745178 -0.09084628522396088 1.2902566194534302
0.6602423191070557 -0.09830134361982346 1.2427572011947632
0.6580967903137207 -0.09437941014766693 1.2388863563537598
0.6593068838119507 -0.11465314775705338 1.2229583263397217
0.6969469785690308 -0.11306509375572205 1.1564680337905884
0.6854095458984375 -0.12039320915937424 1.178065299987793
-0.47799521684646606 0.09695480763912201 0.8732584714889526
-0.47961461544036865 0.07451508194208145 0.8898231983184814
-0.47104793787002563 0.0512843057513237 0.8606952428817749
-0.2654109597206116 -0.05312810093164444 0.5909260511398315
-0.2613057494163513 -0.10020942986011505 0.555259108543396
-0.3293786942958832 -0.034342482686042786 0.7805641293525696
-0.33248090744018555 -0.048151955008506775 0.7248626947402954
-0.34273970127105713 -0.0739203467965126 0.7665476202964783
-0.31710124015808105 -0.08115598559379578 0.6541411280632019
-0.28301650285720825 -0.063154436647892 0.6674156188964844
-0.2709106504917145 -0.09710834920406342 0.6355544924736023
-0.3833127021789551 0.005858294665813446 0.9178216457366943
-0.36094754934310913 -0.027755629271268845 0.8744783401489258
-0.3731764554977417 -0.007992129772901535 0.8720828294754028
-0.3004983961582184 -0.08375649899244308 0.7060439586639404
-0.29291239380836487 -0.05849406123161316 0.7051205635070801
-0.3342590928077698 -0.058510057628154755 0.8029130697250366
-0.3169330954551697 -0.043771952390670776 0.7530169486999512
-0.4157617688179016 0.09505760669708252 1.0574524402618408
-0.31446290016174316 0.048185501247644424 0.909271776676178
-0.2870554029941559 0.03646884858608246 0.9521564245223999
-0.2812216281890869 0.05788727104663849 0.9494433999061584
-0.37735646963119507 0.054645199328660965 1.09746515750885
-0.31417369842529297 0.0593864805996418 1.040941596031189
-0.2903168201446533 0.0628264993429184 0.9841169714927673
-0.2864078879356384 0.042590100318193436 0.9758791923522949
-0.35427361726760864 0.09280627220869064 1.3404096364974976
-0.28745463490486145 0.08089528977870941 1.0732485055923462
-0.2798796594142914 0.05358448624610901 1.1201943159103394
-0.25768762826919556 0.08124935626983643 1.0776453018188477
-0.2144523561000824 0.058173030614852905 1.1273229122161865
-0.22680281102657318 0.07500138878822327 1.0938283205032349
-0.1840115785598755 0.06221775710582733 1.1902551651000977
0.48324042558670044 -0.06276502460241318 1.0919227600097656
0.4323008954524994 -0.027363380417227745 1.5973318815231323
0.5558521747589111 -0.09966757148504257 1.0588513612747192
0.5094504952430725 -0.06849025934934616 1.0355916023254395
0.5243307948112488 -0.10955052077770233 1.0338640213012695
0.5380567908287048 -0.09335585683584213 1.025585651397705
0.5044084191322327 -0.06631328165531158 1.2361974716186523
0.5319554805755615 -0.1445290595293045 1.062686562538147
0.5502908229827881 -0.1605965942144394 1.0071557760238647
0.5327295064926147 -0.18074677884578705 1.030295729637146
0.5383554100990295 -0.18412163853645325 0.9992817640304565
0.5602723956108093 -0.17467482388019562 0.9438555836677551
0.6097177863121033 -0.1959753930568695 0.7388480305671692
0.6243075728416443 -0.201410174369812 0.6863215565681458
0.6520291566848755 -0.19251051545143127 0.675954282283783
0.5820733904838562 -0.13081777095794678 1.0403094291687012
0.5970302224159241 -0.13522036373615265 1.0012158155441284
0.5773453712463379 -0.19168119132518768 0.9791042804718018
0.5734608173370361 -0.1981944590806961 0.9378412961959839
0.5606533885002136 -0.22931134700775146 0.9083611369132996
0.524981677532196 -0.09235898405313492 1.3528056144714355
0.6461973190307617 -0.1606578528881073 0.9721852540969849
0.6751865744590759 -0.1743309646844864 0.9266717433929443
0.6274707913398743 -0.15140286087989807 1.10164475440979
0.7101125121116638 -0.2433336079120636 0.7523230910301208
0.7151353359222412 -0.20363007485866547 0.7146332263946533
0.6691737771034241 -0.18619434535503387 0.9579713344573975
0.6761609315872192 -0.2037176489830017 0.9057455658912659
0.7420283555984497 -0.14783471822738647 1.0892786979675293
0.6978773474693298 -0.18312162160873413 1.0513942241668701
0.7203748822212219 -0.16350622475147247 1.0434238910675049
0.7405039072036743 -0.20391805469989777 0.9114757776260376
0.7391909956932068 -0.1807755082845688 0.9176582098007202
-0.5176388621330261 0.1330571174621582 1.036189079284668
-0.2810097634792328 -0.04386118799448013 0.5310240387916565
-0.3926260471343994 0.0018833428621292114 0.8541020154953003
-0.3725554943084717 -0.021506518125534058 0.827391505241394
-0.41373562812805176 0.035140302032232285 0.8951038122177124
-0.5240664482116699 0.13943082094192505 1.3525147438049316
-0.3936614394187927 0.07028654962778091 0.9289942979812622
-0.37892013788223267 0.04727892205119133 0.9001986980438232
-0.22695602476596832 -0.05888538435101509 0.5729397535324097
-0.21032629907131195 -0.032280083745718 0.5706550478935242
-0.3460080623626709 -0.00698147714138031 0.8747730255126953
-0.33196529746055603 -0.030886948108673096 0.8245077729225159
-0.3425357937812805 -0.02533426508307457 0.8682860732078552
-0.5037649273872375 0.11685200035572052 1.3067365884780884
-0.4554278254508972 0.12563428282737732 1.199544906616211
-0.23611655831336975 0.09181152284145355 1.1984012126922607
0.1637982875108719 0.007790612056851387 1.2529630661010742
0.15032647550106049 -0.006876973435282707 1.2619320154190063
0.2645425796508789 -0.030503589659929276 1.2106167078018188
0.2725009322166443 -0.01614583283662796 1.1348309516906738
0.33774614334106445 -0.015626374632120132 1.2579106092453003
0.4075828492641449 -0.04247748851776123 1.1407843828201294
0.40088018774986267 -0.05782625079154968 1.1252343654632568
0.4534394145011902 -0.07123672217130661 1.2849316596984863
0.46876680850982666 -0.08155962824821472 1.3678923845291138
0.5013642311096191 -0.09982935339212418 1.1814014911651611
0.557735025882721 -0.21843422949314117 0.9109011292457581
0.5927310585975647 -0.20941217243671417 0.8608935475349426
0.5867297053337097 -0.2438977211713791 0.8191537261009216
0.607576310634613 -0.22317063808441162 0.7624174356460571
0.5844792127609253 -0.14642930030822754 1.105532169342041
0.6456291675567627 -0.2695615887641907 0.6945573091506958
-0.4642592966556549 0.060259342193603516 0.8833451271057129
-0.2618354856967926 -0.017292272299528122 0.7281190156936646
-0.23721015453338623 -0.03043772280216217 0.6723853349685669
-0.5350557565689087 0.14641030132770538 1.4607130289077759
-0.2804388403892517 0.07315966486930847 1.0608993768692017
-0.265861839056015 0.07040765881538391 1.030563235282898
-0.2534456253051758 0.06202967092394829 1.0651826858520508
-0.20883809030056 0.07053714990615845 1.1043111085891724
-0.15401290357112885 0.051849402487277985 1.2612497806549072
-0.16314224898815155 0.034757331013679504 1.2639188766479492
0.3854978382587433 -0.04740794003009796 1.4153804779052734
0.40807750821113586 -0.05396219342947006 1.4694654941558838
0.5808833241462708 -0.11732600629329681 1.0700385570526123
0.5806858539581299 -0.11587242037057877 0.9925321936607361
0.529159665107727 -0.12154152989387512 1.17960524559021
0.5743696093559265 -0.18204893171787262 0.8855128288269043
0.5971956253051758 -0.13447049260139465 1.1512662172317505
0.5822129249572754 -0.11477695405483246 1.2377194166183472
0.6739878058433533 -0.15881243348121643 1.0737401247024536
0.6742571592330933 -0.17567060887813568 1.009084701538086
0.6944324970245361 -0.22174690663814545 0.8416595458984375
0.6547357439994812 -0.2413630336523056 0.7534187436103821
0.7131232023239136 -0.2027467042207718 0.8319200277328491
-0.2788267433643341 -0.06346445530653 0.5611904263496399
-0.23554764688014984 -0.039863165467977524 0.5579385757446289
-0.3343021869659424 -0.039879996329545975 0.7751792669296265
-0.2755177319049835 -0.06436288356781006 0.6229277849197388
-0.2333792746067047 -0.06354115158319473 0.6172054409980774
-0.3346547484397888 0.029377494007349014 0.932516872882843
-0.2568361461162567 0.06615729629993439 1.2105884552001953
-0.24433490633964539 0.06344480812549591 1.1542253494262695
-0.2440783679485321 0.07543613761663437 1.1277837753295898
-0.2202332615852356 0.05476764589548111 1.2042837142944336
-0.1955799162387848 0.041643425822257996 1.1378276348114014
-0.190439373254776 0.05612197518348694 1.1256992816925049
0.2771171033382416 -0.0019587092101573944 1.1401898860931396
0.5127177834510803 -0.11980750411748886 1.1039024591445923
0.545732855796814 -0.15143927931785583 1.1047922372817993
0.5585671663284302 -0.1671946942806244 1.0603036880493164
0.6631432771682739 -0.21663087606430054 0.8906344175338745
-0.34116655588150024 -0.01944723166525364 0.6257066130638123
-0.332108736038208 -0.04923643171787262 0.5963361263275146
-0.3257755637168884 -0.03724687919020653 0.5918048024177551
-0.3631422519683838 0.04023692384362221 0.8173065185546875
-0.31469225883483887 -0.02271300181746483 0.7931098341941833
-0.32693830132484436 -0.021976280957460403 0.8454960584640503
-0.18428976833820343 0.048798635601997375 1.2242997884750366
-0.15019312500953674 0.041820965707302094 1.3343944549560547
-0.1371954381465912 0.04713418334722519 1.323272943496704
0.15102523565292358 -0.015927275642752647 1.2749686241149902
0.19918709993362427 0.017906643450260162 1.6690927743911743
0.3699300289154053 0.008053477853536606 1.6146687269210815
0.39229434728622437 -0.011089541018009186 1.6341276168823242
0.4493318796157837 -0.028365638107061386 1.5654736757278442
0.6147561073303223 -0.08202371746301651 1.3131928443908691
0.6405308842658997 -0.0848168358206749 1.3500553369522095
0.6423851251602173 -0.06855707615613937 1.286083698272705
0.6463407278060913 -0.09473592042922974 1.271749496459961
0.6713087558746338 -0.07971030473709106 1.286888837814331
-0.5106720328330994 0.11648721992969513 0.9696497321128845
-0.4967091679573059 0.12641683220863342 0.9488592743873596
-0.563072919845581 0.17030155658721924 1.2151954174041748
-0.5403923392295837 0.1699410080909729 1.2048250436782837
-0.27636340260505676 -0.008502883836627007 0.5769752264022827
-0.2585306167602539 -0.024980828166007996 0.5340325236320496
-0.3070112466812134 -0.0600212924182415 0.6615918278694153
-0.33795928955078125 0.02618546411395073 0.7685731649398804
-0.4020950198173523 0.08312328159809113 0.9805542230606079
-0.5264384746551514 0.1498611718416214 1.5116779804229736
0.27081984281539917 -0.0037103677168488503 1.2056375741958618
0.2864881753921509 0.008104823529720306 1.4381988048553467
0.42754244804382324 -0.048393286764621735 1.1596319675445557
0.40621456503868103 -0.021341126412153244 1.2855921983718872
0.47184163331985474 -0.0713336244225502 1.093309998512268
0.49146559834480286 -0.08531374484300613 1.0438529253005981
0.4743485450744629 -0.10195276141166687 1.1264994144439697
0.589096188545227 -0.15557171404361725 0.8407331109046936
0.5973120927810669 -0.1752869188785553 0.8288334012031555
0.5985445976257324 -0.21786361932754517 0.9014610648155212
0.6576837301254272 -0.14192840456962585 1.0708470344543457
0.6991332769393921 -0.16671784222126007 0.8488587141036987
-0.29870498180389404 -0.048968248069286346 0.5659173727035522
-0.2523326873779297 -0.051150109618902206 0.5270951390266418
-0.255207359790802 0.08171753585338593 1.0332473516464233
-0.21935515105724335 0.0831948071718216 1.1239962577819824
-0.1923273205757141 0.05223039537668228 1.1784334182739258
0.6694759726524353 -0.16364814341068268 0.8826324343681335
0.7037487626075745 -0.2170398235321045 0.6479840874671936
0.7113500237464905 -0.22030682861804962 0.6640475988388062
-0.35763800144195557 -0.026414576917886734 0.8104267716407776
-0.2838066816329956 -0.020670421421527863 0.7436605095863342
-0.2693387269973755 -0.0444910004734993 0.6994022130966187
0.4891459047794342 -0.049256011843681335 1.4867056608200073
0.7185018658638 -0.19845156371593475 0.655611515045166
0.713585376739502 -0.18881502747535706 0.9736580848693848
-0.2551559805870056 0.0986085906624794 1.2742760181427002
0.6877540946006775 -0.15315574407577515 1.065123438835144
-0.2955778241157532 0.00329706072807312 0.8172237873077393
0.6159995198249817 -0.2503338158130646 0.7092337608337402
0.6780553460121155 -0.15592820942401886 1.0501230955123901
-0.3515043258666992 -0.05040130019187927 0.7736082077026367
-0.3684527277946472 -0.14325270056724548 0.9714653491973877
-0.37277570366859436 -0.13953718543052673 0.983391284942627
-0.3567636013031006 -0.16125279664993286 0.9816572666168213
-0.36366671323776245 -0.1599576324224472 0.9929243326187134
-0.34326624870300293 -0.11016814410686493 1.0402709245681763
-0.3483760952949524 -0.12622013688087463 1.0193804502487183
-0.33916354179382324 -0.11240453273057938 0.9904389977455139
-0.3374166190624237 -0.08638057857751846 1.023571252822876
-0.3367106020450592 -0.14074695110321045 1.0278111696243286
-0.3396112620830536 -0.17067064344882965 1.0170087814331055
-0.32398849725723267 -0.07339251041412354 1.1028836965560913
-0.3184267282485962 -0.1678602695465088 1.0185027122497559
-0.33388838171958923 -0.13304579257965088 1.0159918069839478
-0.3180851340293884 -0.14967456459999084 1.0575525760650635
-0.3204820156097412 -0.12460050731897354 1.0464270114898682
-0.3139275908470154 -0.06093868613243103 1.0720804929733276
-0.31392496824264526 -0.11541611701250076 1.0468696355819702
-0.314965158700943 -0.12247654050588608 1.0705634355545044
-0.3206547498703003 -0.09949977695941925 1.0987002849578857
-0.33741408586502075 -0.05704498663544655 1.1339914798736572
-0.3262351453304291 -0.10887988656759262 1.1308019161224365
-0.3031575083732605 -0.006952979136258364 1.1607657670974731
-0.31198209524154663 -0.015950610861182213 1.1154506206512451
-0.327179491519928 -0.05864812061190605 1.1681921482086182
-0.27796387672424316 -0.014738362282514572 1.1049950122833252
-0.2813354432582855 -0.04172904044389725 1.2207233905792236
-0.2935962378978729 -0.10291209816932678 1.1788527965545654
-0.2785956859588623 0.005584153346717358 1.1476378440856934
-0.2457040697336197 -0.0011520562693476677 1.1593408584594727
-0.2511247396469116 0.007161272689700127 1.2164336442947388
-0.22721287608146667 0.007490858435630798 1.2163290977478027
-0.22110645473003387 -0.04555296152830124 1.2898173332214355
-0.25816988945007324 -0.07639648020267487 1.2258862257003784
-0.21783141791820526 0.014184605330228806 1.2612487077713013
-0.2434200644493103 -0.015261741355061531 1.2697023153305054
-0.2054874300956726 0.012109119445085526 1.3000119924545288
-0.1903790980577469 0.009295869618654251 1.3352034091949463
-0.18300260603427887 -0.03929830715060234 1.3452054262161255
-0.2105579674243927 -0.08445461839437485 1.2477924823760986
-0.19140341877937317 0.060372866690158844 1.738910436630249
-0.13881640136241913 0.10998576879501343 1.4031177759170532
-0.13097506761550903 0.06656910479068756 0.8743438720703125
-0.17773544788360596 0.017259269952774048 0.8818851113319397
-0.15451520681381226 -0.07543635368347168 0.8866622447967529
-0.19770415127277374 -0.10353322327136993 0.8776631355285645
-0.17514677345752716 0.0707680732011795 1.6445245742797852
-0.19778363406658173 0.046373624354600906 1.7614346742630005
-0.16635772585868835 0.05346529185771942 1.7101260423660278
-0.14818602800369263 0.08285432308912277 1.659454345703125
-0.15765416622161865 0.06496262550354004 1.6093720197677612
-0.11570937931537628 0.0005223657935857773 1.0436100959777832
-0.153114914894104 -0.0510394386947155 1.007797122001648
-0.1595439612865448 -0.12021474540233612 0.9959155321121216
-0.1529749184846878 0.044928714632987976 1.5392892360687256
-0.2885558605194092 -0.06960069388151169 0.06873229146003723
-0.30374425649642944 -0.1297171264886856 0.032998841255903244
-0.3063434362411499 -0.15527357161045074 0.04949817433953285
-0.15360593795776367 -0.024691756814718246 1.393964409828186
-0.14564120769500732 0.016866538673639297 1.3389770984649658
-0.13846150040626526 -0.009405944496393204 1.3204609155654907
-0.16153573989868164 -0.03724304214119911 1.3821067810058594
-0.14444684982299805 -0.08025103062391281 1.3392080068588257
-0.22870972752571106 -0.03572380915284157 0.48652249574661255
-0.2299925684928894 -0.06344539672136307 0.4028182923793793
-0.24160024523735046 -0.012287527322769165 0.3388029932975769
-0.24629685282707214 -0.03724949434399605 0.3695618212223053
-0.16120192408561707 0.06184720620512962 1.6787837743759155
-0.14012885093688965 -0.0507751926779747 1.289717674255371
-0.14220860600471497 -0.06147696450352669 1.2466511726379395
-0.14418110251426697 -0.08818275481462479 1.278242826461792
-0.1691468060016632 -0.10312094539403915 1.2795466184616089
-0.23716314136981964 -0.0013295967364683747 0.2668742537498474
-0.15400823950767517 -0.021939359605312347 1.5366870164871216
-0.14291666448116302 0.04974302276968956 1.5402448177337646
-0.14974626898765564 0.021180085837841034 1.5336064100265503
-0.19629856944084167 -0.0702914372086525 0.5848022699356079
-0.11171722412109375 0.04515734314918518 1.7747288942337036
-0.1283026784658432 -0.1085902601480484 1.2159249782562256
-0.11740800738334656 -0.03405899554491043 1.1615815162658691
-0.13775229454040527 -0.12536543607711792 0.7555782794952393
-0.11648391932249069 0.09685580432415009 1.720658540725708
-0.13275422155857086 -0.057642608880996704 1.408280849456787
-0.10540745407342911 -0.11784832179546356 0.8582093715667725
-0.14080502092838287 -0.1310914158821106 0.8801542520523071
-0.12401388585567474 -0.20030182600021362 0.9197620153427124
-0.10777312517166138 -0.21555083990097046 0.8553361892700195
-0.2802024781703949 -0.1932048499584198 0.06845606863498688
-0.07665923982858658 0.11950388550758362 1.7193657159805298
-0.1048784926533699 0.056106679141521454 1.7602818012237549
-0.1535683423280716 0.0010606348514556885 1.4464770555496216
-0.13517813384532928 -0.025294695049524307 1.4950121641159058
-0.20364201068878174 0.011577261611819267 0.3351469337940216
-0.23280863463878632 -0.01314802747219801 0.2184079885482788
-0.26971712708473206 -0.19107326865196228 0.11086820811033249
-0.23891404271125793 -0.007899289950728416 0.07577178627252579
-0.11355049908161163 -0.006709035485982895 1.3236054182052612
-0.1770639270544052 -0.09774164855480194 0.557887613773346
-0.2353198081254959 -0.15102960169315338 0.012413286603987217
-0.27763673663139343 -0.15239757299423218 0.006512011401355267
-0.10709024220705032 0.04349372908473015 1.5564624071121216
-0.10868006199598312 0.012875240296125412 1.5134121179580688
-0.03191622346639633 -0.21779665350914001 0.9111530780792236
-0.08021825551986694 0.08930576592683792 0.8688285946846008
-0.2325390726327896 -0.11643265187740326 0.27779316902160645
-0.20928123593330383 -0.11397849023342133 0.20173926651477814
-0.2178356647491455 -0.017581552267074585 0.11909119039773941
-0.0975889265537262 -0.004717499017715454 1.2893056869506836
-0.10473214089870453 -0.0254074539989233 1.247908592224121
-0.07607472687959671 -0.12569372355937958 1.3219841718673706
-0.14305002987384796 -0.029653893783688545 0.6771044731140137
-0.11995745450258255 -0.1273406445980072 0.7453564405441284
-0.07597922533750534 -0.11722802370786667 0.8176410794258118
-0.2011282742023468 -0.1217367872595787 0.16837619245052338
-0.22436726093292236 -0.18480652570724487 0.07825397700071335
-0.1281474232673645 -0.07659280300140381 1.4892578125
-0.09762059152126312 0.005539827048778534 1.3592634201049805
-0.06696013361215591 -0.0003785155713558197 1.293527603149414
-0.1463225930929184 -0.10078895837068558 0.5798745155334473
-0.12208730727434158 -0.08104884624481201 0.5805282592773438
-0.163551926612854 0.015221836976706982 0.521275520324707
-0.09812933951616287 -0.06481224298477173 1.4601082801818848
-0.07425101101398468 -0.022997893393039703 1.4406706094741821
-0.10419581830501556 0.01718081161379814 1.3993253707885742
-0.13392016291618347 -0.021542320027947426 0.5262521505355835
-0.06244570389389992 0.07104956358671188 1.7629352807998657
-0.11954829096794128 -0.11697138845920563 1.6257612705230713
-0.035530637949705124 -0.18864162266254425 0.9951804876327515
-0.07744097709655762 -0.03411325812339783 1.4549872875213623
-0.05599392205476761 -0.06300630420446396 1.44020414352417
-0.07648371160030365 -0.04742620885372162 1.4341988563537598
-0.06621859967708588 -0.11479498445987701 1.5566425323486328
-0.10665993392467499 -0.10906720906496048 1.5025694370269775
-0.0533766970038414 -0.003048337996006012 1.464896559715271
-0.10569992661476135 -0.04564545676112175 0.6465886831283569
-0.01876949891448021 0.024520933628082275 1.786629319190979
-0.03483856841921806 0.127618670463562 1.6889245510101318
-0.054088104516267776 -0.13153161108493805 1.50784170627594
-0.06864647567272186 -0.1097402572631836 1.4608467817306519
-0.03659019619226456 -0.011776566505432129 1.4400224685668945
-0.042605917900800705 -0.11088483035564423 1.46064031124115
-0.00621461495757103 0.008529722690582275 1.4153691530227661
-0.028184762224555016 -0.013065837323665619 1.287712574005127
-0.014442328363656998 0.07974265515804291 1.761153221130371
-0.014802804216742516 -0.014755018055438995 1.4695720672607422
-0.01938512548804283 -0.05834105610847473 1.4557772874832153
0.01396910473704338 0.09619143605232239 1.7195459604263306
-0.00414571538567543 0.0362110435962677 1.7673394680023193
-0.01422567293047905 -0.04984490945935249 1.4415900707244873
0.01505657471716404 -0.07985828071832657 1.4810118675231934
-0.009095819666981697 -0.02877088636159897 1.448209524154663
0.07822085171937943 -0.09132762253284454 0.6016274690628052
0.01569014973938465 0.012935575097799301 1.4987471103668213
0.11324866861104965 -0.11035970598459244 0.5190168619155884
0.003532717004418373 -0.16434717178344727 1.2786767482757568
0.04931945353746414 -0.040377385914325714 1.2684179544448853
0.05165020376443863 -0.06854448467493057 1.1544170379638672
0.14889654517173767 -0.11458291113376617 0.08404374867677689
0.16588518023490906 -0.10571548342704773 0.06652321666479111
0.13661545515060425 0.010577671229839325 0.09448139369487762
0.018632693216204643 -0.14747972786426544 1.2641342878341675
0.007127228192985058 -0.18798214197158813 1.1888277530670166
0.0733845978975296 -0.14141273498535156 0.7428668141365051
0.13152480125427246 -0.03867681324481964 0.0671260878443718
0.0460091233253479 0.027323618531227112 1.7272753715515137
0.005044896155595779 -0.12392225861549377 1.6344685554504395
-0.00225260853767395 -0.10792972147464752 1.547672986984253
0.0022814124822616577 -0.10991992056369781 1.502420425415039
0.09987831115722656 -0.16032616794109344 0.8865864276885986
0.09434466809034348 0.019520707428455353 1.7547247409820557
0.022065188735723495 0.010603267699480057 1.5540703535079956
0.020939823240041733 -0.006991688162088394 1.5245065689086914
0.13719552755355835 -0.017262406647205353 0.34094545245170593
0.12949861586093903 -0.005486574023962021 0.2799904942512512
0.1485631763935089 0.021557606756687164 0.07743948698043823
0.038991477340459824 0.011945057660341263 1.8131678104400635
0.056303031742572784 -0.009718876332044601 1.4213826656341553
0.10049816966056824 -0.21922144293785095 0.8738194704055786
0.0911412239074707 -0.13156838715076447 0.8740568161010742
0.13067422807216644 -0.19481554627418518 0.8751862049102783
0.09879105538129807 -0.04175886884331703 0.7625547647476196
0.19319285452365875 -0.10482162237167358 0.07813363522291183
0.053738147020339966 0.015497244894504547 1.738383412361145
0.04028351232409477 -0.1577776074409485 1.155491590499878
0.047298796474933624 -0.13372918963432312 1.2828295230865479
0.04964728653430939 -0.14986932277679443 1.2800687551498413
0.1269051730632782 -0.18916067481040955 0.9433643817901611
0.04360946640372276 -0.06247355788946152 1.5688502788543701
0.05162493884563446 0.011604111641645432 1.5633864402770996
0.04683130979537964 -0.01390475407242775 1.5524095296859741
0.05409075692296028 -0.03015056625008583 1.547109603881836
0.06482711434364319 -0.04207739233970642 1.5236446857452393
0.13881443440914154 -0.06600482016801834 0.6611355543136597
0.1367339789867401 -0.13227324187755585 0.6806528568267822
0.07282209396362305 -0.04661819711327553 1.4006084203720093
0.0760330855846405 0.0029194876551628113 1.3408260345458984
0.04144857078790665 -0.0011785775423049927 1.3561742305755615
0.05218017101287842 -0.02257133275270462 1.332632064819336
0.1268945187330246 -0.1189577728509903 0.8427262306213379
0.19278018176555634 0.005400657653808594 0.0807238444685936
0.2074274867773056 -0.019208773970603943 0.07409808039665222
0.06602239608764648 0.006465878337621689 1.691602110862732
0.08186280727386475 -0.02412198856472969 1.3944196701049805
0.2005152702331543 -0.061579614877700806 0.3255307376384735
0.08879737555980682 0.02444818988442421 1.6654224395751953
0.06632041186094284 0.05133091285824776 1.669032096862793
0.07499038428068161 0.02076863870024681 1.6336023807525635
0.20930513739585876 -0.030256208032369614 0.15020276606082916
0.2168636918067932 -0.07521429657936096 0.07817696034908295
0.20332030951976776 -0.10605563968420029 0.1045704334974289
0.15392473340034485 -0.01410998497158289 0.9835160970687866
0.15284760296344757 -0.015285586006939411 0.8839138150215149
0.09217946231365204 -0.0011750124394893646 1.7529577016830444
0.17042431235313416 0.038195885717868805 0.891485869884491
0.18202409148216248 0.0016360096633434296 0.9548851251602173
0.10242387652397156 -0.006061118096113205 1.3349610567092896
0.11741107702255249 -0.026349689811468124 1.3210548162460327
0.08466014266014099 -0.049824897199869156 1.366958737373352
0.11578388512134552 -0.01226826012134552 1.2804665565490723
0.10569357872009277 -0.01692252606153488 1.2599600553512573
0.1273048371076584 -0.0924043208360672 1.2421520948410034
0.13797032833099365 -0.04686069115996361 1.2806346416473389
