0.6027249097824097 -0.10645364224910736 1.2107317447662354
0.6457975506782532 -0.11282750964164734 1.1761152744293213
0.630836546421051 -0.12424120306968689 1.173443078994751
0.6553899645805359 -0.12442214787006378 0.9915585517883301
0.636324405670166 -0.13768453896045685 1.0085771083831787
0.6503652930259705 -0.14849889278411865 0.9629398584365845
0.6618214249610901 -0.1317836046218872 0.9912287592887878
0.6063319444656372 -0.16378316283226013 0.9734319448471069
0.6546908617019653 -0.1806321144104004 0.9275874495506287
0.6490117907524109 -0.190573588013649 0.9297661781311035
-0.4697769284248352 0.05303763970732689 0.8619762659072876
-0.44349461793899536 0.03955411911010742 0.8265213966369629
-0.43999722599983215 0.02769792079925537 0.7956622242927551
-0.44030264019966125 0.02667217329144478 0.8328543305397034
-0.4099780321121216 0.029880139976739883 0.770772397518158
-0.4009178876876831 0.009633108973503113 0.7635329961776733
-0.4809427261352539 0.10613313317298889 0.9194562435150146
-0.46166348457336426 0.060356851667165756 0.9613268375396729
-0.4535742402076721 0.05414262041449547 0.9098466634750366
-0.4373006820678711 0.04843423515558243 0.9051584005355835
-0.41798216104507446 0.036356400698423386 0.8336498737335205
-0.40007954835891724 0.007658347487449646 0.8053675889968872
-0.4138484001159668 -0.004519842565059662 0.7749984264373779
-0.37536144256591797 -0.005770064890384674 0.686738133430481
-0.3749227523803711 -0.021748799830675125 0.7049151062965393
-0.3474452495574951 -0.05087783932685852 0.6687811613082886
-0.3991549015045166 0.018984664231538773 0.8669172525405884
-0.39063602685928345 0.019317414611577988 0.8024353384971619
-0.3596276342868805 0.0003987513482570648 0.6818256378173828
-0.38921424746513367 0.0028386861085891724 0.7921025156974792
-0.388031929731369 0.015785910189151764 0.8175703287124634
-0.3887633681297302 -0.00405101478099823 0.7712377905845642
-0.37091827392578125 -0.029954932630062103 0.774384617805481
-0.4319359362125397 0.07298572361469269 1.091059923171997
-0.3182141184806824 -0.10627511888742447 0.6506938338279724
-0.29833483695983887 -0.1157461404800415 0.5723239183425903
-0.44982463121414185 0.053118180483579636 1.1923198699951172
-0.4564889371395111 0.06297045201063156 1.116836428642273
-0.4178120791912079 0.06626705825328827 1.064838171005249
-0.4673747718334198 0.06383228302001953 1.2149441242218018
-0.46234267950057983 0.11192295700311661 1.1574997901916504
-0.35999590158462524 -0.0688031017780304 0.8485698699951172
-0.47587358951568604 0.114209845662117 1.3498626947402954
-0.4392828941345215 0.09114374220371246 1.290712833404541
-0.2745645344257355 -0.007179234176874161 0.7011834383010864
-0.2577723264694214 -0.010274432599544525 0.6199594736099243
-0.3267368972301483 0.015400968492031097 0.8395763039588928
-0.2388998419046402 -0.0375463142991066 0.6066737174987793
-0.347042441368103 0.01123729720711708 1.002529501914978
-0.356935977935791 -0.013156130909919739 0.9364960789680481
-0.31921979784965515 0.010870374739170074 0.9016276597976685
-0.30649834871292114 0.009533919394016266 0.9451041221618652
-0.3000484108924866 0.029105357825756073 0.9509308338165283
-0.3377963602542877 0.012663163244724274 1.0234332084655762
-0.4240453243255615 0.05781438946723938 1.4041160345077515
-0.45039886236190796 0.10111929476261139 1.4329748153686523
-0.306949645280838 0.038877956569194794 1.044631004333496
-0.3697133958339691 0.06982679665088654 1.2072532176971436
-0.3824334740638733 0.03582533448934555 1.1831064224243164
-0.395666241645813 0.05092577263712883 1.509749174118042
-0.3913160562515259 0.050874289125204086 1.3930737972259521
-0.4184015393257141 0.08886076509952545 1.4930343627929688
-0.31881141662597656 0.03158154338598251 1.131093144416809
-0.3176249563694 0.056630101054906845 1.1481232643127441
-0.3096458613872528 0.03061845898628235 1.0950186252593994
-0.30185437202453613 0.03951903060078621 1.0899708271026611
-0.3467743396759033 0.08036159723997116 1.3379172086715698
-0.3159586191177368 0.07176731526851654 1.2767760753631592
-0.29905322194099426 0.03761913254857063 1.4428417682647705
-0.22882691025733948 0.04030723124742508 1.0910388231277466
-0.3462337851524353 0.07582765817642212 1.5265319347381592
-0.22897425293922424 0.02474493905901909 1.4203038215637207
-0.2657952606678009 0.06652811169624329 1.4151861667633057
-0.2191423922777176 0.023138705641031265 1.3525563478469849
-0.20486368238925934 0.05442490056157112 1.3495516777038574
-0.18337276577949524 0.04513830691576004 1.2613579034805298
-0.15645360946655273 0.028720756992697716 1.2267210483551025
0.1695701777935028 -0.032543834298849106 1.1793622970581055
0.15031108260154724 -0.05033741891384125 1.1887625455856323
0.17583154141902924 -0.0465022437274456 1.1411809921264648
0.2145809531211853 -0.038810282945632935 1.3090795278549194
0.17192988097667694 -0.06322253495454788 1.2387619018554688
0.18600055575370789 -0.04018298536539078 1.249328851699829
0.2289818972349167 -0.04113124683499336 1.1964842081069946
0.23484887182712555 -0.07245154678821564 1.1813597679138184
0.23170986771583557 -0.04556959122419357 1.1023832559585571
0.2412775754928589 -0.04915236309170723 1.0725646018981934
0.2276085615158081 -0.06017125025391579 1.1023740768432617
0.242621511220932 -0.06325601041316986 1.079180121421814
0.2705918252468109 -0.05162276700139046 1.0849006175994873
0.27658793330192566 -0.0466185063123703 1.4471138715744019
0.26312941312789917 -0.0729578286409378 1.407504916191101
0.3100328743457794 -0.05835755914449692 1.060396432876587
0.2872362732887268 -0.08117494732141495 1.068923830986023
0.2684413194656372 -0.061887167394161224 1.0896072387695312
0.2954297661781311 -0.06596126407384872 1.053839087486267
0.32551318407058716 -0.0696944147348404 1.0196999311447144
0.28270745277404785 -0.08212850987911224 1.31669282913208
0.3665047883987427 -0.07281358540058136 1.1398628950119019
0.3022802770137787 -0.09271803498268127 1.0852471590042114
0.3130852282047272 -0.07243075221776962 1.1009714603424072
0.3604277968406677 -0.06916050612926483 1.2714917659759521
0.3415773808956146 -0.09319011121988297 1.1297764778137207
0.3798714876174927 -0.0830691009759903 1.0532783269882202
0.3726893663406372 -0.07177145779132843 1.1016170978546143
0.36589527130126953 -0.08451630175113678 1.070142388343811
0.36793529987335205 -0.11177417635917664 1.0934665203094482
0.37825530767440796 -0.07210826128721237 1.3124451637268066
0.383515328168869 -0.08335898816585541 1.2002602815628052
0.3635706305503845 -0.10773168504238129 1.2186038494110107
0.3839706778526306 -0.09790921956300735 1.438541054725647
0.39962878823280334 -0.08876032382249832 1.0901190042495728
0.4120611548423767 -0.07292816787958145 1.41588294506073
0.4165424704551697 -0.09012466669082642 1.355630874633789
0.4286225438117981 -0.10726161301136017 1.4003071784973145
0.4508674740791321 -0.13377074897289276 0.8927640914916992
0.4462117552757263 -0.1193573996424675 1.3328628540039062
0.470011442899704 -0.1224747821688652 1.2902934551239014
0.45329320430755615 -0.09093574434518814 1.250321388244629
0.4501762092113495 -0.1308751255273819 1.1506425142288208
0.45935678482055664 -0.10000836104154587 1.1535948514938354
0.48030972480773926 -0.09434718638658524 1.2569290399551392
0.48654234409332275 -0.10215894132852554 1.1945770978927612
0.504427969455719 -0.11693241447210312 1.1320912837982178
0.5192046165466309 -0.0956282988190651 1.2791752815246582
0.5162031054496765 -0.11958383023738861 1.2515205144882202
0.4729357063770294 -0.23011837899684906 0.7397116422653198
0.4873608946800232 -0.24199573695659637 0.6057075262069702
0.5236201286315918 -0.19539569318294525 0.6002391576766968
0.49435165524482727 -0.1971723586320877 0.6310994625091553
0.521697998046875 -0.162592813372612 0.9398715496063232
0.5212656259536743 -0.1575482040643692 0.9002034068107605
0.5484000444412231 -0.11831895262002945 1.1225450038909912
0.5668002367019653 -0.14094334840774536 0.6398423910140991
0.5576500296592712 -0.14382724463939667 0.7055611610412598
0.5980186462402344 -0.1609620302915573 0.8912561535835266
0.6115802526473999 -0.18132011592388153 0.7961941361427307
0.5630007386207581 -0.1754067838191986 0.8064422011375427
0.5911499261856079 -0.19535742700099945 0.815412700176239
-0.4421723783016205 0.015449199825525284 0.7445423603057861
-0.43604934215545654 -0.0017253905534744263 0.7543065547943115
-0.5053776502609253 0.11442090570926666 1.097605586051941
-0.5014454126358032 0.1255698800086975 1.11054527759552
-0.48076027631759644 0.10637512058019638 1.062146544456482
-0.43916648626327515 0.06653163582086563 0.96750408411026
-0.4311327636241913 0.05996029078960419 1.0121383666992188
-0.4418374300003052 0.03321320563554764 0.9241713881492615
-0.4028729796409607 0.04323633387684822 0.9276918768882751
-0.4394468069076538 0.039664722979068756 1.0586293935775757
-0.4795058071613312 0.0835135281085968 1.2192366123199463
-0.474215030670166 0.08344137668609619 1.1814380884170532
-0.299554705619812 -0.0016092807054519653 0.7451926469802856
-0.3374795615673065 0.006922535598278046 0.695443332195282
-0.29148799180984497 -0.0047281160950660706 0.6306847333908081
-0.4553733170032501 0.0998939499258995 1.2251561880111694
-0.4914867877960205 0.08982142806053162 1.2674236297607422
-0.3558095097541809 -0.039289433509111404 0.8114714026451111
-0.34827733039855957 -0.048269420862197876 0.795426607131958
-0.3007591664791107 -0.07234673202037811 0.6384094953536987
-0.2863956093788147 -0.09637419879436493 0.5936015844345093
-0.3608757555484772 0.030103150755167007 0.9330935478210449
-0.50480717420578 0.10593204200267792 1.3689453601837158
-0.37128639221191406 0.03388356417417526 0.9736469984054565
-0.3393084406852722 0.03687746450304985 0.9036580324172974
-0.3941008448600769 0.00762563943862915 0.9996440410614014
-0.38801902532577515 0.0025836043059825897 0.9771281480789185
-0.3417576849460602 0.0376296266913414 0.9908952116966248
-0.4044991135597229 0.028914574533700943 1.08717679977417
-0.31589359045028687 0.013321470469236374 0.8589456081390381
-0.29720431566238403 -0.005328379571437836 0.7939789295196533
-0.4269639849662781 0.07850081473588943 1.1612006425857544
-0.37513431906700134 0.05333304777741432 1.1032118797302246
-0.3796197175979614 0.02619066834449768 1.0649440288543701
-0.4595205783843994 0.08980964124202728 1.4247853755950928
-0.443377286195755 0.04926019906997681 1.235923171043396
-0.3679635524749756 0.0294867642223835 1.1463011503219604
-0.44411614537239075 0.07338646054267883 1.4804468154907227
-0.38455742597579956 0.09205689281225204 1.3844826221466064
-0.40076813101768494 0.050920404493808746 1.2723636627197266
-0.30976980924606323 0.0431671105325222 1.0885154008865356
-0.33552420139312744 0.02669842541217804 1.1000994443893433
-0.3834694027900696 0.07913751900196075 1.273686408996582
-0.3505516052246094 0.07270832359790802 1.2128591537475586
-0.33875584602355957 0.0795409232378006 1.4485787153244019
-0.3311835527420044 0.04197116196155548 1.2754403352737427
-0.2879794239997864 0.027655642479658127 1.1944514513015747
-0.2749585807323456 0.05275470018386841 1.191630482673645
-0.2629298269748688 0.04410166293382645 1.1276795864105225
-0.25307726860046387 0.020813655108213425 1.2244614362716675
-0.24072536826133728 0.04599731042981148 1.1371960639953613
-0.3125595152378082 0.0751076191663742 1.3624733686447144
-0.2770009934902191 0.03891032189130783 1.3259550333023071
-0.20096829533576965 0.03593795746564865 1.12982177734375
-0.18333962559700012 0.03715439885854721 1.153518795967102
-0.19157494604587555 0.04520484060049057 1.4219310283660889
-0.1949373483657837 0.015231192111968994 1.2663854360580444
0.19869965314865112 -0.059682998806238174 1.120545506477356
0.18350306153297424 -0.03402670472860336 1.3938758373260498
0.2656884491443634 -0.04365714639425278 1.1529326438903809
0.2520884871482849 -0.06497463583946228 1.143373966217041
0.2530081272125244 -0.042556874454021454 1.0878535509109497
0.30531951785087585 -0.06088968738913536 1.249319076538086
0.29756084084510803 -0.08578802645206451 1.1685900688171387
0.3365246653556824 -0.06251399964094162 1.024712324142456
0.36246761679649353 -0.0642985850572586 1.3844246864318848
0.3598557710647583 -0.10874608904123306 1.1219395399093628
0.4399413466453552 -0.09018667787313461 1.319486379623413
0.46039214730262756 -0.13552480936050415 0.8058528304100037
0.4757588505744934 -0.12610149383544922 0.7877596020698547
0.47051459550857544 -0.1346830427646637 0.6791320443153381
0.47300291061401367 -0.13384726643562317 0.6092097759246826
0.4636614918708801 -0.15172262489795685 0.6222973465919495
0.48176810145378113 -0.11226265132427216 1.0714031457901
0.49061915278434753 -0.1265915334224701 0.6864144802093506
0.4852675795555115 -0.1265900433063507 0.6131476759910583
0.45671966671943665 -0.18074123561382294 0.8547518253326416
0.45615658164024353 -0.194801464676857 0.904301643371582
0.43987858295440674 -0.20968031883239746 0.8734825253486633
0.461753785610199 -0.19274400174617767 0.8072198629379272
0.5195770859718323 -0.13407614827156067 0.7088736295700073
0.5170814394950867 -0.14253118634223938 0.629315972328186
0.5174201130867004 -0.14391204714775085 0.8690246939659119
0.47539249062538147 -0.1863764375448227 0.8490312695503235
0.4961855411529541 -0.20154741406440735 0.7957953810691833
0.46976372599601746 -0.20518521964550018 0.8539463877677917
0.47724249958992004 -0.23006637394428253 0.7834462523460388
0.48752501606941223 -0.17238448560237885 0.9219116568565369
0.523047685623169 -0.18081213533878326 0.8695018887519836
0.5139262080192566 -0.205710768699646 0.6370887160301208
0.4910770058631897 -0.22946172952651978 0.5816220641136169
0.5375005006790161 -0.16322046518325806 0.5926278829574585
0.5329837799072266 -0.14514227211475372 0.9413176774978638
0.5266680717468262 -0.1586371511220932 0.735325813293457
0.49879923462867737 -0.22447353601455688 0.7021934986114502
0.5236343741416931 -0.2175663411617279 0.6963436603546143
0.5465766787528992 -0.2055315226316452 0.6181150078773499
0.5762245655059814 -0.15488262474536896 0.8741967678070068
0.5927246809005737 -0.1545773297548294 0.8392122387886047
0.5841776728630066 -0.17762722074985504 0.6721345782279968
0.5812822580337524 -0.19337867200374603 0.6926355361938477
0.5391629338264465 -0.12883085012435913 1.0376325845718384
0.6231145858764648 -0.12616506218910217 0.990054190158844
0.5859737992286682 -0.14297251403331757 0.9826801419258118
0.6054716110229492 -0.1234932690858841 1.1694190502166748
0.596763014793396 -0.1204453781247139 1.1272034645080566
0.5917486548423767 -0.11659491062164307 1.1231534481048584
0.5925685167312622 -0.13364356756210327 1.1094305515289307
0.6195967197418213 -0.12601856887340546 1.0456116199493408
0.610012412071228 -0.1329042613506317 1.0638325214385986
-0.4695757031440735 0.0786346048116684 0.9057029485702515
-0.46648532152175903 0.05696830153465271 0.9194582104682922
-0.46627891063690186 0.032901689410209656 0.8896899223327637
-0.30567464232444763 -0.04974550008773804 0.6138918399810791
-0.30053144693374634 -0.09534887969493866 0.580071210861206
-0.34479260444641113 -0.0464785061776638 0.7921566963195801
-0.35358893871307373 -0.05245279520750046 0.7393335103988647
-0.357168972492218 -0.07950340211391449 0.7768124938011169
-0.341723769903183 -0.08148299157619476 0.6711333990097046
-0.311206579208374 -0.0695079043507576 0.6801749467849731
-0.3034249544143677 -0.0944724977016449 0.6492008566856384
-0.3800046145915985 -0.013512533158063889 0.9280134439468384
-0.36384105682373047 -0.04231958091259003 0.8822581171989441
-0.3731631338596344 -0.02547772228717804 0.8820533752441406
-0.32316821813583374 -0.08624155819416046 0.7131983637809753
-0.3169378936290741 -0.06376919150352478 0.7164776921272278
-0.34421902894973755 -0.06693202257156372 0.8071712255477905
-0.3400432765483856 -0.050528671592473984 0.7647454738616943
-0.40015655755996704 0.06236772611737251 1.0692968368530273
-0.3162955641746521 0.024382319301366806 0.9187418818473816
-0.28450173139572144 0.010960724204778671 0.9575003385543823
-0.2842649221420288 0.030944354832172394 0.9544568657875061
-0.3585721254348755 0.022192183881998062 1.0958936214447021
-0.3039741814136505 0.024813760071992874 1.042885184288025
-0.2890775203704834 0.03538774326443672 0.9866933226585388
-0.28709787130355835 0.016515817493200302 0.9781986474990845
-0.318568617105484 0.0430745854973793 1.3260188102722168
-0.275137335062027 0.04102781042456627 1.0740470886230469
-0.265381395816803 0.016530856490135193 1.115497350692749
-0.249349907040596 0.04486142843961716 1.0788660049438477
-0.20661190152168274 0.02033287286758423 1.1217758655548096
-0.21985571086406708 0.03824272006750107 1.0942498445510864
-0.17132601141929626 0.025581642985343933 1.1813734769821167
0.3957989811897278 -0.087630495429039 1.0075433254241943
0.43910929560661316 -0.09285148233175278 1.473103404045105
0.4641207456588745 -0.11726544052362442 0.964072585105896
0.4148537218570709 -0.0870673805475235 0.950934112071991
0.4325183928012848 -0.12477850914001465 0.9426043033599854
0.43951910734176636 -0.11241127550601959 0.936955988407135
0.43931788206100464 -0.10301443189382553 1.1343309879302979
0.4406281113624573 -0.1589164286851883 0.9592653512954712
0.45074760913848877 -0.1678432673215866 0.9048498868942261
0.437241792678833 -0.19092871248722076 0.9259242415428162
0.4405142366886139 -0.18698984384536743 0.8984745144844055
0.4522346556186676 -0.17233312129974365 0.8482191562652588
0.4707775413990021 -0.1752099096775055 0.6566827297210693
0.4783821403980255 -0.17780347168445587 0.6079871654510498
0.5062347650527954 -0.1687266081571579 0.5949797034263611
0.48880836367607117 -0.14022693037986755 0.9416866898536682
0.49600058794021606 -0.13848242163658142 0.907721757888794
0.4762938916683197 -0.18752402067184448 0.876997709274292
0.46344250440597534 -0.19395166635513306 0.8396647572517395
0.4501705765724182 -0.2167210429906845 0.8062515258789062
0.4847332835197449 -0.1363242119550705 1.237760066986084
0.539621889591217 -0.15396827459335327 0.8722373247146606
0.5604016780853271 -0.16692401468753815 0.8259893655776978
0.5431205630302429 -0.15748050808906555 0.9934663772583008
0.5684708952903748 -0.21489588916301727 0.6533978581428528
0.5714103579521179 -0.17840929329395294 0.6237947344779968
0.5585033297538757 -0.18192967772483826 0.8523224592208862
0.5605268478393555 -0.1913936287164688 0.8021071553230286
0.652837336063385 -0.15136931836605072 0.9750518798828125
0.6041086316108704 -0.18491527438163757 0.9349702000617981
0.620289146900177 -0.1659623086452484 0.9318826198577881
0.6213032007217407 -0.1860228031873703 0.8034385442733765
0.6260087490081787 -0.17401085793972015 0.8172411322593689
-0.49399954080581665 0.10899285227060318 1.067631483078003
-0.3219994306564331 -0.03629692643880844 0.5653181672096252
-0.39471113681793213 -0.013060122728347778 0.8684326410293579
-0.3780861496925354 -0.03421470895409584 0.84083092212677
-0.40884965658187866 0.015614312142133713 0.9132339954376221
-0.47290679812431335 0.08603062480688095 1.3530082702636719
-0.3875114917755127 0.047207824885845184 0.9501508474349976
-0.37973254919052124 0.029990609735250473 0.9216294288635254
-0.26735764741897583 -0.05501410737633705 0.596390426158905
-0.25661978125572205 -0.029418906196951866 0.5938825011253357
-0.3500922918319702 -0.028116140514612198 0.8843929767608643
-0.34026724100112915 -0.045821815729141235 0.8316074013710022
-0.34860724210739136 -0.04559988155961037 0.8710741996765137
-0.4591127932071686 0.06620453298091888 1.3071138858795166
-0.4219028949737549 0.07990936189889908 1.2086859941482544
-0.2221423089504242 0.05045270919799805 1.191988468170166
0.13344624638557434 -0.03703891113400459 1.2198777198791504
0.12012235075235367 -0.04861080273985863 1.2262837886810303
0.20930001139640808 -0.06815807521343231 1.1530649662017822
0.20615720748901367 -0.04826732352375984 1.0887771844863892
0.2882064878940582 -0.05520281940698624 1.1872972249984741
0.3331540822982788 -0.0715787261724472 1.0676474571228027
0.3224329352378845 -0.08314710110425949 1.0531718730926514
0.3998870253562927 -0.11258512735366821 1.1829419136047363
0.4313666820526123 -0.1246083527803421 1.2563599348068237
0.4293380379676819 -0.13231012225151062 1.0778201818466187
0.44310426712036133 -0.21066097915172577 0.812406599521637
0.4752209782600403 -0.2017035037279129 0.7652019262313843
0.46074458956718445 -0.22188004851341248 0.7212458252906799
0.4778329133987427 -0.20321664214134216 0.6737346053123474
0.4972328543663025 -0.15740564465522766 1.0007096529006958
0.5002042651176453 -0.23880702257156372 0.6014147996902466
-0.45544883608818054 0.041884057223796844 0.9126661419868469
-0.2864297330379486 -0.02981334552168846 0.7448314428329468
-0.2676515281200409 -0.04082239046692848 0.6950619220733643
-0.47230225801467896 0.08325624465942383 1.454704999923706
-0.2736782729625702 0.03832025080919266 1.0622466802597046
-0.2635158598423004 0.037210557609796524 1.0334028005599976
-0.24663026630878448 0.03121360018849373 1.059272050857544
-0.20423242449760437 0.038642749190330505 1.1010651588439941
-0.14070971310138702 0.015119818970561028 1.2487640380859375
-0.14583146572113037 -0.0033935941755771637 1.2477298974990845
0.3588874936103821 -0.10137924551963806 1.3155211210250854
0.3929623067378998 -0.10915767401456833 1.357267141342163
0.48837602138519287 -0.13142327964305878 0.9710894227027893
0.4785156548023224 -0.12401340156793594 0.9010149836540222
0.4570350646972656 -0.14690063893795013 1.0722455978393555
0.4544544816017151 -0.17532038688659668 0.7952468395233154
0.5186198949813843 -0.15084561705589294 1.0382494926452637
0.5170006155967712 -0.14052152633666992 1.1247860193252563
0.5829981565475464 -0.1646416187286377 0.9633337259292603
0.5776063203811646 -0.17359691858291626 0.9024468064308167
0.5710068345069885 -0.2057863175868988 0.7394554018974304
0.5173428058624268 -0.216495543718338 0.6605609655380249
0.5821899175643921 -0.18380945920944214 0.73095703125
-0.3166024684906006 -0.0571325421333313 0.5849456191062927
-0.27941441535949707 -0.03578813001513481 0.585390567779541
-0.346474289894104 -0.0463712252676487 0.7866407632827759
-0.3082054853439331 -0.06271978467702866 0.6431769132614136
-0.27231672406196594 -0.05882038176059723 0.6377456784248352
-0.33042216300964355 0.002525683492422104 0.9390406608581543
-0.23729056119918823 0.025151852518320084 1.1996198892593384
-0.22992011904716492 0.028869125992059708 1.1476376056671143
-0.23226457834243774 0.03790087252855301 1.121220350265503
-0.20516356825828552 0.014671824872493744 1.192662239074707
-0.18386664986610413 0.006504211574792862 1.127156376838684
-0.1823703944683075 0.023711027577519417 1.1170611381530762
0.20952235162258148 -0.031919948756694794 1.0952361822128296
0.42839157581329346 -0.13765893876552582 1.0089657306671143
0.46232274174690247 -0.16737812757492065 0.9986832141876221
0.468733549118042 -0.17836213111877441 0.9557802677154541
0.5456889867782593 -0.20595797896385193 0.7893377542495728
-0.3681913912296295 -0.020904190838336945 0.6606541872024536
-0.36090368032455444 -0.04231536015868187 0.6267732977867126
-0.356353759765625 -0.032271869480609894 0.6213144063949585
-0.3699323534965515 0.028050851076841354 0.8372846245765686
-0.3279562294483185 -0.03206980973482132 0.8048748970031738
-0.3371986746788025 -0.03726138174533844 0.852659285068512
-0.17143723368644714 0.008817505091428757 1.2100908756256104
-0.12989096343517303 0.0027728378772735596 1.3204456567764282
-0.11988962441682816 0.007493173703551292 1.3099414110183716
0.12370742857456207 -0.058492064476013184 1.236214280128479
0.23522226512432098 -0.05898384749889374 1.571823239326477
0.38275814056396484 -0.0646931529045105 1.5012192726135254
0.40778982639312744 -0.08565573394298553 1.5127040147781372
0.44736379384994507 -0.0927758440375328 1.4401240348815918
0.5646443963050842 -0.12023719400167465 1.1942188739776611
0.592866837978363 -0.11646372079849243 1.2260253429412842
0.5828133821487427 -0.09914147108793259 1.172684907913208
0.5861557722091675 -0.12344089895486832 1.153641700744629
0.6151894927024841 -0.11020450294017792 1.1711920499801636
-0.49487191438674927 0.09361740946769714 0.9993177652359009
-0.4769462049007416 0.10474663972854614 0.9873905777931213
-0.5189691185951233 0.12515613436698914 1.2393821477890015
-0.5015179514884949 0.1274590790271759 1.2220147848129272
-0.3140859007835388 -0.004196105524897575 0.6101880669593811
-0.3015138506889343 -0.017215503379702568 0.5714573860168457
-0.3346695899963379 -0.06366529315710068 0.6810194253921509
-0.3577190339565277 0.014795564115047455 0.7927351593971252
-0.39440444111824036 0.056070227175951004 0.9977006912231445
-0.46531185507774353 0.08774620294570923 1.5008842945098877
0.21590790152549744 -0.04519118368625641 1.1575285196304321
0.2727951407432556 -0.05015121027827263 1.3647373914718628
0.3513876497745514 -0.07677468657493591 1.0794087648391724
0.3539380729198456 -0.06653708964586258 1.204452633857727
0.38491302728652954 -0.09412023425102234 1.0082621574401855
0.39894938468933105 -0.10520273447036743 0.9575843214988708
0.3973824083805084 -0.12616319954395294 1.032821536064148
0.46776053309440613 -0.15032778680324554 0.7552834749221802
0.472603976726532 -0.16131263971328735 0.7454379796981812
0.48566246032714844 -0.20774208009243011 0.8000640273094177
0.5665213465690613 -0.15064410865306854 0.9643843173980713
0.5713244080543518 -0.15278172492980957 0.7549115419387817
-0.335138738155365 -0.046056587249040604 0.5936287641525269
-0.296328067779541 -0.042996086180210114 0.5590028762817383
-0.24985188245773315 0.05143057927489281 1.0368757247924805
-0.21042203903198242 0.04802411049604416 1.120732307434082
-0.17957192659378052 0.015982314944267273 1.169025182723999
0.549497127532959 -0.14970599114894867 0.7905552387237549
0.5540958046913147 -0.18256443738937378 0.5674157738685608
0.5605406761169434 -0.18728238344192505 0.5803306698799133
-0.36948269605636597 -0.03780585154891014 0.8221631646156311
-0.3076532483100891 -0.028719834983348846 0.7554733157157898
-0.2958378195762634 -0.049885645508766174 0.713437557220459
0.46960505843162537 -0.10139566659927368 1.3646231889724731
0.5667024850845337 -0.16311956942081451 0.5748441815376282
0.6029843688011169 -0.18440911173820496 0.866476833820343
-0.2315247803926468 0.055058009922504425 1.2666586637496948
0.5970248579978943 -0.16147077083587646 0.9538371562957764
-0.30543166399002075 -0.008483529090881348 0.8287239074707031
0.4764271080493927 -0.22289299964904785 0.6188299655914307
0.5829923152923584 -0.1553817093372345 0.9442323446273804
-0.3630448579788208 -0.06207263097167015 0.7893327474594116
-0.34507912397384644 -0.0799117237329483 0.9325029253959656
-0.35232868790626526 -0.07696017622947693 0.9427906274795532
-0.3364688754081726 -0.10312220454216003 0.939050555229187
-0.34850314259529114 -0.09972331672906876 0.9473761916160583
-0.32021453976631165 -0.06613565236330032 1.003360629081726
-0.32770881056785583 -0.07609378546476364 0.9807918071746826
-0.3143281638622284 -0.06319965422153473 0.9532718062400818
-0.3092622458934784 -0.040541213005781174 0.9892821907997131
-0.3209768533706665 -0.09598278999328613 0.9816545844078064
-0.32652851939201355 -0.12044718116521835 0.9672489166259766
-0.3011375963687897 -0.04784880578517914 1.0643795728683472
-0.3076523542404175 -0.1222577840089798 0.9707485437393188
-0.3164243698120117 -0.0869184285402298 0.9761729836463928
-0.3110939860343933 -0.11264882236719131 1.0070817470550537
-0.3060515522956848 -0.08706449717283249 1.0064265727996826
-0.2869398593902588 -0.0330282524228096 1.0402911901474
-0.29948580265045166 -0.07749316841363907 1.0055866241455078
-0.299888014793396 -0.0900866687297821 1.0291942358016968
-0.3011171221733093 -0.07131434977054596 1.059831976890564
-0.31162336468696594 -0.039196792989969254 1.0977184772491455
-0.31381773948669434 -0.08909304440021515 1.0842424631118774
-0.27024468779563904 0.004485296551138163 1.131256103515625
-0.27616292238235474 -0.0015376554802060127 1.0898067951202393
-0.30278098583221436 -0.04653380066156387 1.130223035812378
-0.24536648392677307 0.0012068022042512894 1.0815247297286987
-0.260068416595459 -0.04255909472703934 1.1830309629440308
-0.2854807674884796 -0.09569910168647766 1.1335166692733765
-0.24313032627105713 0.01328693050891161 1.1254445314407349
-0.21547219157218933 4.553981125354767e-05 1.1372010707855225
-0.21899299323558807 -0.002789318561553955 1.1923788785934448
-0.19553306698799133 -0.003309883177280426 1.1941702365875244
-0.20236045122146606 -0.07008793205022812 1.2544162273406982
-0.24755293130874634 -0.08871516585350037 1.1824461221694946
-0.18858298659324646 -0.008467288687825203 1.237016201019287
-0.22021934390068054 -0.03415798023343086 1.2359923124313354
-0.18126508593559265 -0.01819688454270363 1.2737932205200195
-0.1689930260181427 -0.02596079558134079 1.3094758987426758
-0.16788792610168457 -0.07342164218425751 1.3089861869812012
-0.2016390711069107 -0.105296790599823 1.2090356349945068
-0.1582568734884262 -0.010175041854381561 1.6898256540298462
-0.10681330412626266 0.059329673647880554 1.3924139738082886
-0.12850338220596313 0.06485968083143234 0.8515878915786743
-0.17379164695739746 0.014383207075297832 0.8540021181106567
-0.14816975593566895 -0.07948793470859528 0.85938560962677
-0.19100448489189148 -0.10707230865955353 0.8490837812423706
-0.14210765063762665 0.010418970137834549 1.6049766540527344
-0.16587048768997192 -0.021190037950873375 1.7101346254348755
-0.13425114750862122 -0.013182166963815689 1.6639232635498047
-0.1156083270907402 0.019942522048950195 1.6228077411651611
-0.12637649476528168 0.0031620562076568604 1.5698893070220947
-0.11644181609153748 -0.0071577224880456924 1.0289671421051025
-0.15661126375198364 -0.0507659912109375 0.9878957271575928
-0.1642235517501831 -0.11723079532384872 0.9720040559768677
-0.12886154651641846 -0.011599965393543243 1.505582332611084
-0.23894475400447845 -0.07657389342784882 0.03351942449808121
-0.25052595138549805 -0.1452847421169281 0.012582582421600819
-0.2560464143753052 -0.1652837097644806 0.03565863147377968
-0.1390354335308075 -0.06787262856960297 1.3593864440917969
-0.12787288427352905 -0.023490339517593384 1.3155150413513184
-0.12430090457201004 -0.04683883860707283 1.2930866479873657
-0.14851336181163788 -0.07879561185836792 1.345670461654663
-0.13336241245269775 -0.11602889001369476 1.297035813331604
-0.18837405741214752 -0.04468777775764465 0.45513084530830383
-0.18660466372966766 -0.07205759733915329 0.3694200813770294
-0.19872251152992249 -0.019227083772420883 0.31072360277175903
-0.20525440573692322 -0.047635890543460846 0.33636847138404846
-0.12830349802970886 -0.0024666376411914825 1.6343684196472168
-0.12774282693862915 -0.08348166942596436 1.257753849029541
-0.13393062353134155 -0.08703908324241638 1.2183724641799927
-0.13606229424476624 -0.11377060413360596 1.2437076568603516
-0.15992262959480286 -0.12719744443893433 1.239810585975647
-0.19137412309646606 -0.00964150857180357 0.23630012571811676
-0.1312570571899414 -0.07316379249095917 1.494436502456665
-0.11461145430803299 -0.0057759881019592285 1.5061529874801636
-0.12407784163951874 -0.035884492099285126 1.4963030815124512
-0.16203145682811737 -0.08197613060474396 0.5540547966957092
-0.0823722630739212 -0.025019552558660507 1.720549464225769
-0.12409189343452454 -0.1273708939552307 1.1832301616668701
-0.11446887254714966 -0.051967401057481766 1.1448558568954468
-0.11729578673839569 -0.13512450456619263 0.729191780090332
-0.08164650201797485 0.025088004767894745 1.681169033050537
-0.11797536164522171 -0.09726312011480331 1.3663654327392578
-0.09681756794452667 -0.12268562614917755 0.8392342329025269
-0.13500334322452545 -0.13262689113616943 0.8590577244758606
-0.12290321290493011 -0.19611911475658417 0.9027365446090698
-0.10329113900661469 -0.21312853693962097 0.8430725336074829
-0.2288605272769928 -0.19863417744636536 0.060035258531570435
-0.04750807583332062 0.04023592919111252 1.681502342224121
-0.07620216906070709 -0.014658533036708832 1.7059193849563599
-0.13184191286563873 -0.048619553446769714 1.4126825332641602
-0.11447993665933609 -0.07382748275995255 1.453200340270996
-0.16549085080623627 0.0007236916571855545 0.3055843114852905
-0.18794146180152893 -0.0195927731692791 0.1909961849451065
-0.22091123461723328 -0.18908549845218658 0.09985089302062988
-0.18924687802791595 -0.0023552309721708298 0.03556714951992035
-0.09938007593154907 -0.04369862377643585 1.299837350845337
-0.14205598831176758 -0.10794564336538315 0.5280013084411621
-0.1828867495059967 -0.16822431981563568 -0.003835144452750683
-0.22291143238544464 -0.1712578535079956 -0.0073249200358986855
-0.08092935383319855 -0.016016170382499695 1.5196616649627686
-0.08988723903894424 -0.04211144894361496 1.4762042760849
-0.0328114777803421 -0.21443673968315125 0.900033712387085
-0.07855813205242157 0.08795876801013947 0.8551589846611023
-0.1887817084789276 -0.12540540099143982 0.24620303511619568
-0.16439931094646454 -0.11668127775192261 0.16911344230175018
-0.16810046136379242 -0.008417222648859024 0.08315258473157883
-0.08694855868816376 -0.040023453533649445 1.2682231664657593
-0.09734884649515152 -0.055274758487939835 1.2278170585632324
-0.07109011709690094 -0.15908503532409668 1.2754883766174316
-0.11779401451349258 -0.037493422627449036 0.6491996049880981
-0.09964615106582642 -0.13732823729515076 0.7237848043441772
-0.06367745995521545 -0.1239512711763382 0.8036541938781738
-0.1536584347486496 -0.12151747196912766 0.13488095998764038
-0.17206509411334991 -0.1857832968235016 0.06394633650779724
-0.10992220044136047 -0.12258584797382355 1.443447470664978
-0.08245909214019775 -0.03805793076753616 1.3335628509521484
-0.05657714232802391 -0.03763722628355026 1.2762054204940796
-0.11171451956033707 -0.10890276730060577 0.5511454343795776
-0.09224507212638855 -0.08984129875898361 0.5510711669921875
-0.12740471959114075 0.00639626570045948 0.49382662773132324
-0.0867336094379425 -0.10939311236143112 1.4152733087539673
-0.05953613296151161 -0.07343827933073044 1.4022815227508545
-0.0876309871673584 -0.026321368291974068 1.374382734298706
-0.10219943523406982 -0.03109869733452797 0.5005273222923279
-0.034433480352163315 -0.004755035042762756 1.7135599851608276
-0.10481182485818863 -0.1684858798980713 1.565230369567871
-0.040270138531923294 -0.18867149949073792 0.9707087278366089
-0.06421583890914917 -0.08321834355592728 1.4152426719665527
-0.046598248183727264 -0.11159827560186386 1.3982901573181152
-0.06622980535030365 -0.09534779191017151 1.391270399093628
-0.05570508539676666 -0.16533195972442627 1.501724362373352
-0.09092932939529419 -0.15210846066474915 1.4531989097595215
-0.037891700863838196 -0.056094810366630554 1.4285109043121338
-0.07812158018350601 -0.05257182940840721 0.6230089664459229
0.0036708004772663116 -0.04958834499120712 1.7259721755981445
-0.0036499034613370895 0.0521174892783165 1.6563427448272705
-0.04776059463620186 -0.1794317364692688 1.4512221813201904
-0.06034690886735916 -0.1529947817325592 1.4099167585372925
-0.02403457649052143 -0.06411474198102951 1.4033043384552002
-0.03582550212740898 -0.16029483079910278 1.4119263887405396
0.004452113062143326 -0.046660687774419785 1.3842246532440186
-0.0188093613833189 -0.05110546201467514 1.267247200012207
0.008769767358899117 0.0023313015699386597 1.7106907367706299
-0.005216088145971298 -0.06662008166313171 1.4297897815704346
-0.013193722814321518 -0.1084393560886383 1.4129573106765747
0.03863908350467682 0.01523534394800663 1.6776344776153564
0.014514956623315811 -0.03983701393008232 1.7110165357589722
-0.012032654136419296 -0.10120852291584015 1.4030535221099854
0.022617170587182045 -0.1301175206899643 1.4344794750213623
-0.0027330853044986725 -0.082806296646595 1.4088354110717773
0.05830157920718193 -0.09183110296726227 0.5739353895187378
0.028037801384925842 -0.04558822512626648 1.4644371271133423
0.09258636087179184 -0.1150774210691452 0.48977014422416687
-0.008262553252279758 -0.19570985436439514 1.2346322536468506
0.04718640446662903 -0.08300022780895233 1.2407598495483398
0.04450889304280281 -0.09032521396875381 1.1352521181106567
0.12028709799051285 -0.19537439942359924 0.060068510472774506
0.13959148526191711 -0.19498035311698914 0.03453659638762474
0.10922206938266754 -0.0377994067966938 0.04164743423461914
0.005010547116398811 -0.17964163422584534 1.2241886854171753
-0.0034496113657951355 -0.20552560687065125 1.1474156379699707
0.05582939088344574 -0.14080671966075897 0.7123132944107056
0.10463844984769821 -0.10518383979797363 0.014485448598861694
0.059153731912374496 -0.04655531048774719 1.6713197231292725
0.008603919297456741 -0.1804347038269043 1.569915771484375
0.006885213777422905 -0.16022664308547974 1.4921547174453735
0.00466567650437355 -0.15898656845092773 1.4495365619659424
0.09031866490840912 -0.1614387333393097 0.860995352268219
0.10722796618938446 -0.058909740298986435 1.698148250579834
0.03449732065200806 -0.04790571331977844 1.5099165439605713
0.03094661608338356 -0.06808002293109894 1.4810737371444702
0.1137542799115181 -0.03782562538981438 0.3020571768283844
0.10692786425352097 -0.03153059631586075 0.23920610547065735
0.12374027073383331 -0.03338959813117981 0.01964360848069191
0.053549036383628845 -0.06434345245361328 1.7501757144927979
0.06004522368311882 -0.07130932062864304 1.37787663936615
0.09230600297451019 -0.2192644476890564 0.8499785661697388
0.0781373456120491 -0.13222549855709076 0.8454395532608032
0.12189484387636185 -0.19565334916114807 0.846604585647583
0.08319097757339478 -0.039586205035448074 0.7343639135360718
0.1628434956073761 -0.1958063244819641 0.049094974994659424
0.07206457853317261 -0.056453581899404526 1.681852102279663
0.030282653868198395 -0.17657136917114258 1.120171308517456
0.030569622293114662 -0.17629474401474 1.2394887208938599
0.02953658252954483 -0.1938498616218567 1.236436128616333
0.1256381720304489 -0.19166073203086853 0.9142524003982544
0.05200375244021416 -0.11929628252983093 1.5149462223052979
0.06310943514108658 -0.04713495448231697 1.523475170135498
0.05896593630313873 -0.07136064767837524 1.5055547952651978
0.06293550133705139 -0.085950568318367 1.5010050535202026
0.0663575604557991 -0.09924596548080444 1.477386713027954
0.11947499960660934 -0.06656143814325333 0.6310210227966309
0.11667801439762115 -0.13233578205108643 0.6494530439376831
0.065162792801857 -0.11757845431566238 1.358799934387207
0.07332359999418259 -0.07559708505868912 1.302948236465454
0.04399523884057999 -0.07366158068180084 1.3245415687561035
0.04908951371908188 -0.08864923566579819 1.2982289791107178
0.1120574027299881 -0.11952739208936691 0.8118232488632202
0.16861526668071747 -0.06324620544910431 0.02192944660782814
0.18010243773460388 -0.09187477082014084 0.020772337913513184
0.07565261423587799 -0.06232300028204918 1.6375864744186401
0.08225201070308685 -0.08233802765607834 1.3526915311813354
0.17576071619987488 -0.08733154833316803 0.2870536148548126
0.10179170966148376 -0.04576004669070244 1.6166608333587646
0.08060170710086823 -0.020054562017321587 1.6241211891174316
0.08829092979431152 -0.04600732401013374 1.5862348079681396
0.18283416330814362 -0.08820188045501709 0.10241688787937164
0.18862244486808777 -0.16087058186531067 0.040978044271469116
0.1734786480665207 -0.18441572785377502 0.07768241316080093
0.15699169039726257 -0.019496146589517593 0.9518023729324341
0.14318963885307312 -0.018108002841472626 0.850014328956604
0.10378043353557587 -0.07292896509170532 1.691624641418457
0.16317081451416016 0.03472956269979477 0.856389582157135
0.18033847212791443 -0.0026267576031386852 0.9167481064796448
0.09423060715198517 -0.08997545391321182 1.2951512336730957
0.09884022176265717 -0.11544841527938843 1.2796649932861328
0.07319948077201843 -0.12169680744409561 1.3303344249725342
0.09876962751150131 -0.10455527901649475 1.2400949001312256
0.08787164837121964 -0.10498620569705963 1.2205684185028076
0.08863794803619385 -0.182344451546669 1.209510326385498
0.1071307435631752 -0.14132875204086304 1.2394866943359375
0.12000381201505661 -0.1229175552725792 1.171791434288025
0.12317623198032379 -0.13032743334770203 1.0949795246124268
0.14814797043800354 -0.14226199686527252 1.105441927909851
0.14373618364334106 -0.15422184765338898 1.1585264205932617
0.11777032166719437 -0.18567243218421936 1.1807560920715332
0.14691932499408722 -0.1684175431728363 1.054790735244751
0.17029449343681335 -0.22141650319099426 1.1071025133132935
0.17444249987602234 -0.20340684056282043 1.0868293046951294
0.16302542388439178 -0.18025967478752136 1.0616116523742676
0.12675312161445618 -0.25778573751449585 1.0968985557556152
0.14660651981830597 -0.2296174168586731 1.0639028549194336
0.14522311091423035 -0.21221432089805603 1.0482783317565918
0.17609667778015137 -0.28793349862098694 0.9554915428161621
0.12688438594341278 -0.2443755716085434 1.0648200511932373
0.12866419553756714 -0.26368653774261475 1.0375564098358154
0.1633244901895523 -0.24156546592712402 0.9817128777503967
0.12968473136425018 -0.2512016296386719 1.0127837657928467
0.12474897503852844 -0.2769814729690552 1.015687108039856
0.1453971266746521 -0.2732469141483307 0.9881607294082642
0.15992116928100586 -0.27602627873420715 0.9846645593643188
0.1217208057641983 -0.2939499318599701 0.9934368133544922
0.14051420986652374 -0.2899874746799469 0.9848935604095459
0.1308232545852661 -0.2900696396827698 0.9929654598236084
0.170216366648674 -0.2918551564216614 0.9367830157279968
0.13577759265899658 -0.3043546676635742 0.9805692434310913
0.1549963504076004 -0.2765275835990906 0.9515308737754822
0.1578812301158905 -0.3071975111961365 0.9496626853942871
0.17074096202850342 -0.3015643060207367 0.9524964094161987
-0.28557154536247253 -0.02864389680325985 1.063551664352417
-0.2872876822948456 -0.081904835999012 1.0444648265838623
-0.2690202593803406 -0.0660463199019432 1.044810175895691
-0.2957608997821808 -0.10399801284074783 1.0752975940704346
-0.23284074664115906 -0.03203517571091652 1.0639290809631348
-0.27134254574775696 -0.10779674351215363 1.0606462955474854
-0.1786976158618927 -0.030277777463197708 1.2143734693527222
-0.18734829127788544 -0.081194669008255 1.1828489303588867
-0.17652153968811035 -0.09493669867515564 0.9475046396255493
-0.1803487241268158 -0.01406457182019949 0.9248701333999634
-0.1297285556793213 0.05126731097698212 0.9164785742759705
-0.07240575551986694 0.10440828651189804 1.2732182741165161
-0.0694657638669014 0.10644929111003876 1.2174475193023682
-0.06405774503946304 0.13169780373573303 1.1977643966674805
-0.155696839094162 -0.009887082502245903 0.949546217918396
-0.16912730038166046 -0.023881878703832626 1.6792892217636108
-0.1362423449754715 -0.03603881970047951 1.3330355882644653
-0.15443027019500732 -0.026682769879698753 1.2684073448181152
-0.0059465207159519196 0.13138018548488617 1.1084321737289429
-0.027772527188062668 0.1383560299873352 1.0351804494857788
-0.24265959858894348 -0.08171233534812927 0.09521309286355972
-0.2584330141544342 -0.14427290856838226 0.05690130963921547
-0.14780586957931519 -0.03724578768014908 1.663539171218872
-0.13453543186187744 -0.021194156259298325 1.6122002601623535
-0.14905279874801636 -0.14639008045196533 1.2139770984649658
-0.1491311490535736 -0.1580430418252945 1.1881998777389526
-0.15511055290699005 -0.17758837342262268 1.180233120918274
-0.07987789809703827 0.061599984765052795 1.3716456890106201
-0.07039761543273926 0.055811136960983276 1.3687841892242432
-0.13101081550121307 -0.15191298723220825 1.230234980583191
-0.1394391655921936 -0.07734299451112747 1.1886212825775146
-0.2155228704214096 -0.1058773547410965 0.15924124419689178
-0.22375504672527313 -0.06050014868378639 0.1724420040845871
-0.0276661217212677 0.0862242802977562 1.2662769556045532
-0.13882923126220703 -0.06221950426697731 1.422822117805481
-0.13769161701202393 -0.05561641976237297 1.402984619140625
-0.12556162476539612 -0.05627547204494476 1.3848274946212769
-0.14032775163650513 -0.05195498839020729 1.3831262588500977
-0.14225466549396515 -0.06668943911790848 1.3698701858520508
-0.13601122796535492 -0.11769039928913116 0.7752031683921814
-0.1493714600801468 -0.07926370948553085 0.7673749923706055
0.0071144793182611465 0.18137246370315552 1.124563455581665
0.004971708171069622 0.17559073865413666 1.1701130867004395
-0.12201356142759323 -0.1455632746219635 1.226348876953125
-0.12113140523433685 -0.11340378224849701 0.8501769304275513
-0.2158159464597702 -0.01684047281742096 0.08817832171916962
-0.22048135101795197 -0.02049309015274048 0.04688071832060814
-0.13489943742752075 -0.18580827116966248 0.8410681486129761
-0.025701167061924934 0.14387063682079315 1.256770372390747
-0.13853763043880463 -0.13831092417240143 1.5653005838394165
-0.10653942823410034 -0.02970905415713787 1.5005208253860474
-0.06845425814390182 0.051053572446107864 1.4883408546447754
-0.0701766312122345 0.015153586864471436 1.5339889526367188
-0.09177202731370926 0.016034580767154694 1.5096828937530518
-0.07847177982330322 0.03968540579080582 1.438068151473999
-0.025074351578950882 0.06891696155071259 1.5332703590393066
-0.10159388184547424 -0.06044508516788483 1.451807975769043
-0.08769699931144714 0.04450000822544098 0.9664255976676941
-0.11057064682245255 -0.0348733551800251 1.7564294338226318
-0.11750196665525436 -0.04004949331283569 1.749117136001587
-0.1266094446182251 -0.04874074459075928 1.7360295057296753
0.0005064345896244049 0.022708754986524582 1.4347021579742432
-0.04762610048055649 0.07259389013051987 1.4151757955551147
-0.15651491284370422 -0.09453132748603821 0.01947792060673237
0.001685227733105421 0.11170833557844162 1.3693238496780396
-0.10866586118936539 -0.13558638095855713 1.4816327095031738
-0.13867084681987762 -0.07217653840780258 0.37423357367515564
-0.03966473415493965 0.01729263737797737 1.4832417964935303
-0.06510495394468307 -0.023254748433828354 1.4578171968460083
-0.005260649137198925 0.08071964234113693 1.4616100788116455
-0.03246501460671425 0.0496288537979126 0.8512852191925049
-0.1464807540178299 -0.010084270499646664 0.3261856436729431
0.04973471164703369 0.15185153484344482 1.041707992553711
-0.02924156002700329 0.029628783464431763 1.0329941511154175
-0.1049921065568924 -0.1733703315258026 1.2226440906524658
-0.10489595681428909 -0.1651395559310913 1.1305912733078003
-0.13348165154457092 -0.038781434297561646 0.30346381664276123
-0.11761696636676788 -0.0525827556848526 0.241774320602417
-0.1488213688135147 -0.005151786375790834 0.23750092089176178
-0.04468325898051262 -0.0016160868108272552 1.4947986602783203
-0.06728652119636536 -0.11351238191127777 0.6752930283546448
-0.09356269985437393 -0.040302377194166183 0.6428356170654297
0.05517522990703583 0.17946749925613403 1.163403034210205
0.05859101563692093 0.1802542805671692 1.088023066520691
-0.06050293520092964 -0.2008136510848999 1.150313377380371
-0.14091886579990387 -0.07000750303268433 0.10356707870960236
0.046570394188165665 0.13468563556671143 1.0719513893127441
0.035972148180007935 0.1096818596124649 1.1039787530899048
0.018852071836590767 -0.004492701962590218 1.4909147024154663
-0.08233875036239624 -0.12607543170452118 1.3587722778320312
0.05216417461633682 0.1144266128540039 1.3556280136108398
0.043836332857608795 0.016117610037326813 1.4246976375579834
0.008892294019460678 -0.011713188141584396 1.4867300987243652
0.0916796550154686 0.1248852014541626 1.082123875617981
0.10765808820724487 0.11723572015762329 1.0384105443954468
-0.025286274030804634 -0.14360162615776062 1.3532629013061523
0.016909565776586533 0.026743510738015175 1.0307577848434448
-0.035879313945770264 -0.21039460599422455 1.0854485034942627
0.10853897035121918 0.0873694121837616 1.3756356239318848
0.016496773809194565 -0.05221007019281387 1.281646490097046
0.07787266373634338 0.05369274690747261 1.4652653932571411
0.043303802609443665 0.013586297631263733 1.4620800018310547
0.02570190280675888 -0.06034987419843674 1.1978343725204468
0.047264352440834045 0.0913400948047638 0.9159866571426392
0.007519885897636414 -0.08059141784906387 1.690112829208374
0.09765550494194031 -0.15433290600776672 0.05957183986902237
