0.027768941596150398 -0.027930494397878647 1.218315839767456
0.04473665729165077 0.09520350396633148 0.928466796875
-0.0015637874603271484 -0.0119200199842453 1.758512258529663
0.1270800083875656 -0.08047357201576233 0.0988570973277092
0.11828452348709106 -0.08597788959741592 0.07542531192302704
0.11970782279968262 -0.0279911570250988 0.1106947660446167
-0.03595542535185814 -0.1333107352256775 1.6347957849502563
0.06709848344326019 -0.06233629584312439 0.7271941900253296
0.08468194305896759 0.05920422077178955 1.448797345161438
0.03182936832308769 -0.046819545328617096 1.4974751472473145
0.06967543810606003 -0.033048585057258606 1.4423404932022095
0.026576995849609375 0.0015933029353618622 1.4175291061401367
0.11371742933988571 -0.02821427956223488 0.4097052216529846
0.13653449714183807 -0.10588060319423676 0.2509750723838806
0.13196219503879547 -0.017051391303539276 0.21861766278743744
0.13476623594760895 0.15765076875686646 1.044933795928955
0.12745456397533417 0.1863642930984497 1.0099232196807861
0.10559909045696259 -0.14598610997200012 0.754807710647583
0.10954152047634125 -0.05250553414225578 0.6699507236480713
-0.0009548366069793701 -0.060935311019420624 1.746030330657959
0.03852742165327072 -0.07110418379306793 1.7011278867721558
0.12589873373508453 -0.12911248207092285 0.5629572868347168
0.016808459535241127 -0.006019920110702515 1.7717722654342651
0.039892323315143585 -0.023437511175870895 1.7219572067260742
0.0653000921010971 -0.09582877159118652 1.1528366804122925
0.06989504396915436 -0.08310940116643906 1.125512719154358
0.06143065169453621 -0.15678513050079346 1.108839511871338
0.024993356317281723 -0.11251406371593475 1.6339951753616333
0.044771838933229446 -0.043924830853939056 1.5257678031921387
0.03321104869246483 -0.08272243291139603 1.5265018939971924
0.17218077182769775 0.13586178421974182 1.004042387008667
0.07046391069889069 -0.08858587592840195 1.3098418712615967
0.08208271116018295 -0.15464140474796295 1.270329236984253
0.07654841244220734 -0.0993875190615654 1.256739854812622
0.1773775964975357 -0.0023173168301582336 0.16925646364688873
0.1870812624692917 -0.08170334249734879 0.18652668595314026
0.2021968960762024 -0.07056066393852234 0.17127497494220734
0.059858985245227814 0.0016325339674949646 1.744042158126831
0.08051364868879318 -0.09824322164058685 1.3099298477172852
0.18684624135494232 -0.03476032614707947 0.4486185312271118
0.16595658659934998 -0.09075815975666046 0.5001484751701355
0.19584813714027405 -0.04655253887176514 0.39309564232826233
0.08359615504741669 -0.04888980835676193 1.4361563920974731
0.07068759948015213 -0.04324018955230713 1.4327423572540283
0.08985842764377594 -0.03286103159189224 1.390122413635254
0.11988742649555206 0.06558050960302353 0.9377021789550781
0.13165536522865295 -0.11639909446239471 0.8754776120185852
0.20544928312301636 -0.024984348565340042 0.2674477696418762
0.21899330615997314 -0.05631355941295624 0.27402299642562866
0.09528663009405136 -0.012189052999019623 1.3852458000183105
0.1591993272304535 0.08771158754825592 1.287045955657959
0.1683569699525833 0.11364185065031052 1.2615001201629639
0.09244856983423233 -0.2280082255601883 1.1673471927642822
0.15077334642410278 -0.06453080475330353 1.0090527534484863
0.15338900685310364 -0.12237358093261719 1.0041698217391968
0.12607352435588837 -0.003471784293651581 1.2074811458587646
0.15635518729686737 -0.10879077017307281 1.1005568504333496
0.17375269532203674 -0.0709720030426979 1.084319829940796
0.16066120564937592 -0.14362791180610657 1.1640119552612305
-0.29942503571510315 -0.06650345772504807 1.0707430839538574
-0.30726519227027893 -0.12575887143611908 1.0521271228790283
-0.2363281399011612 -0.10786932706832886 1.1506251096725464
-0.24866139888763428 -0.10886739194393158 1.1979010105133057
-0.21292150020599365 -0.07042427361011505 1.1583099365234375
-0.2129981815814972 -0.02956198900938034 1.1797051429748535
-0.19305506348609924 -0.1534622460603714 0.8847008347511292
-0.10065138339996338 0.17984093725681305 1.0274115800857544
-0.1067962795495987 0.1693079173564911 1.1308599710464478
-0.15992897748947144 -0.23219069838523865 1.1358838081359863
-0.13898494839668274 -0.16175013780593872 0.9675828218460083
-0.27045947313308716 -0.05195830762386322 0.2877601683139801
-0.24705705046653748 -0.10310007631778717 0.30250120162963867
-0.19705991446971893 0.0016948169795796275 0.5080175399780273
-0.15206831693649292 -0.19391272962093353 0.8648636937141418
-0.17452512681484222 -0.05644707754254341 0.6510964632034302
-0.16302651166915894 -0.09694965928792953 0.7042328119277954
-0.14786839485168457 -0.03698442503809929 0.7090823650360107
-0.10242372751235962 -0.016778558492660522 1.1050523519515991
-0.11264700442552567 -0.07767020910978317 1.1324412822723389
-0.024900216609239578 0.2172662615776062 1.2049777507781982
-0.11460544168949127 -0.01792532578110695 0.8665975332260132
-0.2041548192501068 -0.11674993485212326 0.3150480389595032
-0.11776362359523773 -0.020260285586118698 1.2120640277862549
-0.09456009417772293 -0.03869929537177086 1.1388887166976929
-0.1882532387971878 -0.09346673637628555 0.45537951588630676
-0.1414424031972885 0.0137045718729496 1.7384432554244995
-0.147173672914505 -0.023223813623189926 1.7294450998306274
-0.10741370916366577 -0.0606202557682991 1.7390835285186768
-0.12507644295692444 -0.09930644929409027 1.696536660194397
-0.13932162523269653 -0.09015540778636932 1.5949687957763672
-0.17802289128303528 -0.0716058537364006 0.34932741522789
-0.08268747478723526 -0.1181972399353981 0.7465016841888428
-0.15712718665599823 -0.08141611516475677 0.2788994014263153
-0.1747979074716568 -0.10948073118925095 0.28338780999183655
-0.19210776686668396 -0.03016763925552368 0.21419928967952728
-0.04797101765871048 0.06541494280099869 0.9723235964775085
-0.09435414522886276 0.023820195347070694 1.7853296995162964
-0.11114824563264847 0.011117111891508102 1.771165132522583
0.05487927049398422 0.1378033608198166 1.1856348514556885
-0.033185359090566635 0.15132328867912292 1.188673973083496
0.03167937695980072 0.12401283532381058 1.245358943939209
-0.0029390566051006317 -0.030870065093040466 1.2581716775894165
0.045891255140304565 0.20696450769901276 1.2378818988800049
0.05072843283414841 0.15403558313846588 1.0716004371643066
0.1098199114203453 0.21513278782367706 1.1561064720153809
0.012971451506018639 0.11647765338420868 1.6662425994873047
0.08271842449903488 0.14258776605129242 1.0791690349578857
0.04207288473844528 -0.21899420022964478 0.915511429309845
0.10130578279495239 -0.07247669994831085 0.2707934081554413
0.13133956491947174 -0.07753593474626541 0.21249648928642273
0.06666623800992966 -0.12959015369415283 0.7097423076629639
0.033492833375930786 0.011422280222177505 1.0756611824035645
0.09143953770399094 -0.048287853598594666 0.5801558494567871
0.09283509105443954 0.09892548620700836 1.3160920143127441
0.055071521550416946 -0.058402590453624725 1.4239448308944702
0.044221777468919754 0.10233690589666367 1.6297662258148193
0.03653367608785629 0.03325950354337692 1.6015362739562988
0.04310256987810135 0.0495406910777092 1.5739021301269531
0.014200044795870781 0.001664537936449051 1.8200627565383911
0.05932853743433952 -0.07768292725086212 1.3576061725616455
0.15593351423740387 -0.015816261991858482 0.5149992108345032
0.12159460783004761 -0.004153411835432053 0.5111768245697021
0.1514863818883896 -0.004546646028757095 0.36242878437042236
0.1729622483253479 -0.005629550665616989 0.3346959948539734
0.067659392952919 -0.03891779109835625 1.517784595489502
0.05396021157503128 -0.04782582074403763 1.5278035402297974
0.06913122534751892 -0.046839118003845215 1.510511875152588
0.13327667117118835 -0.05281796306371689 0.7763513922691345
0.14946085214614868 -0.09551852941513062 0.646097719669342
0.11818872392177582 0.02595752850174904 0.9778673648834229
0.10129580646753311 -0.07542635500431061 1.1005587577819824
0.09479823708534241 -0.12949183583259583 1.0923473834991455
0.10354459285736084 -0.1546192765235901 1.0405470132827759
0.0723784863948822 -0.0018472671508789062 1.6410243511199951
0.0835152193903923 -0.008809681981801987 1.5559234619140625
0.07642180472612381 -0.1453767567873001 1.2527544498443604
0.10145807266235352 0.06452083587646484 1.542843222618103
0.08988723903894424 0.038247257471084595 1.5836818218231201
0.20347148180007935 0.003410540521144867 0.10254241526126862
0.21717266738414764 -0.03743959963321686 0.09187176078557968
0.11090512573719025 0.043831948190927505 1.5088227987289429
0.11793689429759979 0.05727922543883324 1.4738173484802246
0.12550640106201172 0.04488814249634743 1.4373785257339478
0.1282735913991928 0.05993864685297012 1.4230448007583618
0.08621355146169662 -0.22969016432762146 1.1873252391815186
0.17892681062221527 -0.15593522787094116 0.89163738489151
0.10421533137559891 -0.20339307188987732 1.1987082958221436
0.10105770081281662 -0.2293832004070282 1.1860225200653076
0.2070954442024231 -0.11144012212753296 0.9120341539382935
0.20973128080368042 -0.08895836770534515 0.8923166394233704
0.21740999817848206 -0.05394039675593376 0.9023791551589966
-0.21855786442756653 -0.09868194162845612 1.2049307823181152
-0.1776396930217743 -0.09756200015544891 1.2743008136749268
-0.18486417829990387 -0.09523189067840576 1.2570377588272095
-0.1757875382900238 -0.08778496086597443 1.2641475200653076
-0.17348787188529968 -0.08482226729393005 1.2809416055679321
-0.19856294989585876 0.0023485450074076653 0.890788733959198
-0.1483173817396164 -0.048891715705394745 1.2998205423355103
-0.14546659588813782 -0.06468422710895538 1.080607295036316
-0.13978451490402222 0.10405799746513367 1.5477852821350098
-0.14676067233085632 -0.08284810185432434 1.2045179605484009
-0.1439884454011917 -0.07883566617965698 1.1513354778289795
-0.10931426286697388 0.106483094394207 1.4412118196487427
-0.09635274857282639 0.10176167637109756 1.4010694026947021
-0.13321399688720703 -0.14059928059577942 1.0489223003387451
-0.09920630604028702 -0.16696839034557343 1.0083807706832886
-0.13719071447849274 -0.028252651914954185 0.794759213924408
-0.030939217656850815 0.19329552352428436 1.2757701873779297
-0.08321967720985413 0.13192488253116608 1.6410963535308838
-0.18830403685569763 -0.040174901485443115 0.07922157645225525
-0.20094235241413116 -0.028807690367102623 0.07028224319219589
-0.08412301540374756 0.026256315410137177 0.8752530813217163
-0.0002548918128013611 0.09616277366876602 0.8597185611724854
-0.06732848286628723 -0.018736571073532104 0.8532062768936157
0.021933985874056816 0.09568196535110474 1.3394525051116943
-0.05051451921463013 -0.07982087135314941 0.7715049982070923
-0.0718880295753479 -0.11944028735160828 1.6124006509780884
-0.00793586764484644 0.015297534875571728 0.8794106245040894
-0.005951031111180782 -0.024938717484474182 0.858310341835022
0.017479397356510162 -0.11799950152635574 0.8635556697845459
-0.07991500198841095 -0.16541558504104614 0.8633581399917603
-0.006740055978298187 -0.22625485062599182 0.8563429117202759
0.03667584806680679 -0.10998586565256119 0.8438279032707214
-0.0067017581313848495 -0.1618311107158661 0.868249773979187
-0.013569384813308716 0.0302654467523098 1.4939569234848022
0.02941286750137806 -0.036194875836372375 0.8553850650787354
0.03325843811035156 -0.04999612271785736 0.8399506211280823
-0.001902896910905838 0.039923302829265594 1.5725568532943726
0.0028923600912094116 0.04330328106880188 1.5462714433670044
0.04507762938737869 -0.12418942153453827 0.8594237565994263
0.13244643807411194 0.058382727205753326 0.8696789741516113
0.10330255329608917 -0.043343961238861084 0.2716484069824219
0.056674469262361526 -0.036049678921699524 0.8280484080314636
0.09345786273479462 0.13177771866321564 1.2194558382034302
0.13309922814369202 -0.08071208000183105 0.3962060809135437
0.12822496891021729 -0.05496165156364441 0.33418452739715576
0.1448306292295456 -0.07809300720691681 0.34807121753692627
0.14364446699619293 -0.11558085680007935 0.2928442358970642
0.0864911824464798 0.07733505964279175 1.509013056755066
0.0824725404381752 -0.01657295599579811 0.8634516596794128
0.11158725619316101 -0.036399755626916885 0.8444215059280396
0.0746622234582901 -0.07153145223855972 1.256697177886963
0.16182073950767517 -0.09412962198257446 0.44379302859306335
0.07368827611207962 0.05206101015210152 1.6190299987792969
0.060448333621025085 -0.026752565056085587 1.308345079421997
0.17442870140075684 -0.07816833257675171 0.35085248947143555
0.12068295478820801 0.19012495875358582 1.2162343263626099
0.07962947338819504 -0.052682679146528244 1.229912519454956
0.16564586758613586 -0.011100970208644867 0.22647270560264587
0.1634957492351532 0.18523971736431122 1.135350227355957
0.1611700803041458 -0.00045946985483169556 0.26477882266044617
0.18670569360256195 -0.11628711968660355 0.26564985513687134
0.13368476927280426 0.07994664460420609 1.3345638513565063
0.07973147928714752 -0.03137880936264992 1.4747599363327026
0.08898209035396576 -0.02725100889801979 1.4392879009246826
0.07765808701515198 -0.030765313655138016 1.472618818283081
0.10292203724384308 -0.024765731766819954 1.4183714389801025
0.09489761292934418 -0.1712961196899414 1.2399177551269531
0.08190422505140305 -0.18020690977573395 1.2343195676803589
0.1628638356924057 0.10189744830131531 1.2428326606750488
0.18678085505962372 0.13473749160766602 1.1803261041641235
0.18286019563674927 0.12698093056678772 1.1465473175048828
0.10264500975608826 -0.03174123167991638 1.2624380588531494
0.09660704433917999 -0.06448796391487122 1.2758708000183105
0.16155391931533813 -0.18055856227874756 0.900538980960846
0.10246312618255615 -0.07602833211421967 1.2843173742294312
0.10729684680700302 -0.09725415706634521 1.1800497770309448
0.12496794760227203 -0.02988487482070923 1.1649136543273926
0.11364857107400894 -0.07742936909198761 1.1506236791610718
0.17104847729206085 -0.1248670294880867 1.1971065998077393
0.1969749927520752 -0.10251526534557343 1.0710186958312988
0.17380580306053162 -0.15008880198001862 1.1197521686553955
-0.1638367474079132 -0.21896234154701233 1.1752783060073853
-0.16393142938613892 -0.14799393713474274 1.221864938735962
-0.16994570195674896 -0.1346965730190277 1.2408171892166138
-0.15335996448993683 -0.20432136952877045 1.1751365661621094
-0.12775641679763794 0.11033143103122711 1.46969735622406
-0.1343403458595276 0.09965086728334427 1.4534578323364258
-0.131737619638443 0.11624600738286972 1.4104077816009521
-0.16489513218402863 0.011757351458072662 1.70001220703125
-0.16892293095588684 -0.024040892720222473 1.6156666278839111
-0.23518285155296326 -0.0704551637172699 0.3472885191440582
-0.13399860262870789 -0.06675190478563309 0.8662000894546509
-0.13734109699726105 -0.09113429486751556 0.8454066514968872
-0.08510497957468033 0.19445060193538666 1.0060036182403564
-0.113549143075943 -0.11996066570281982 1.2628812789916992
-0.12118425965309143 -0.028426136821508408 0.839908242225647
-0.11842509359121323 -0.0032324641942977905 1.7517045736312866
-0.10432758182287216 -0.12072049081325531 1.1399857997894287
-0.07176041603088379 -0.18380534648895264 1.1381006240844727
-0.03156405687332153 0.16844774782657623 1.1131771802902222
0.042360663414001465 0.1543901115655899 1.1116158962249756
-0.07230499386787415 -0.021840164437890053 1.1547222137451172
-0.055869292467832565 -0.11368133127689362 0.8560231328010559
-0.06044895201921463 -0.18791314959526062 1.069976568222046
-0.05185268446803093 0.01752881333231926 1.0614267587661743
-0.06422653049230576 -0.10804862529039383 1.7113033533096313
0.03535393252968788 -0.10266856849193573 0.7803620100021362
-0.026987450197339058 0.11338307708501816 1.3100440502166748
0.11473999172449112 -0.04942847415804863 0.06547201424837112
0.1530669778585434 0.20053446292877197 1.0699596405029297
0.1098632961511612 0.14754216372966766 1.1340930461883545
0.09820627421140671 0.2236321121454239 1.0788938999176025
0.10138226300477982 0.08759298175573349 0.8719089031219482
0.17577949166297913 0.02971421182155609 0.09443788230419159
0.12490105628967285 -0.03787686675786972 0.8711717128753662
0.16595005989074707 -0.08340681344270706 0.40103375911712646
0.08628325164318085 -0.05147964879870415 1.4027795791625977
0.08575394004583359 -0.07116016745567322 1.3235737085342407
0.20223920047283173 5.505979061126709e-06 0.8928459882736206
0.20031499862670898 -0.04996556416153908 0.9574145078659058
0.18851259350776672 -0.13310804963111877 1.0860042572021484
-0.2578064799308777 -0.12261675298213959 1.1660470962524414
-0.1971966028213501 -0.08509889245033264 0.9478988647460938
-0.21618187427520752 -0.0727066844701767 0.895002007484436
-0.1352788209915161 0.09832605719566345 1.4060055017471313
-0.11353084444999695 0.13162332773208618 1.2647937536239624
-0.148903027176857 0.023538712412118912 1.5325913429260254
-0.13797679543495178 -0.057180505245923996 1.0482678413391113
-0.14509209990501404 -0.08502401411533356 1.0883067846298218
-0.14853136241436005 0.02804988995194435 1.533701777458191
-0.1496930867433548 0.014892391860485077 1.5198369026184082
-0.1479315161705017 0.01991378888487816 1.5275202989578247
-0.14983348548412323 0.019157379865646362 1.5321016311645508
-0.15453971922397614 0.007923506200313568 1.520727276802063
-0.22974437475204468 -0.12889054417610168 0.19596239924430847
-0.16649232804775238 -0.0607452355325222 1.668167233467102
-0.04548218101263046 -0.01426166296005249 1.210026741027832
-0.19250251352787018 -0.1458958089351654 0.07103591412305832
-0.061631493270397186 -0.0193850826472044 1.2530115842819214
-0.01682530716061592 -0.02660844847559929 1.1665987968444824
-0.036351047456264496 0.09363842755556107 0.9351961612701416
-0.05516798049211502 -0.014585219323635101 1.7698675394058228
-0.07138427346944809 -0.07170198857784271 0.7110586166381836
-0.0011737828608602285 0.11540944129228592 1.2737507820129395
-0.0012910999357700348 -0.191989004611969 1.018473505973816
-0.049685053527355194 -0.18169927597045898 1.2394460439682007
0.048073939979076385 0.1397688239812851 1.1555595397949219
0.12365240603685379 -0.04300205782055855 0.2020014524459839
0.05749460682272911 -0.1800035536289215 1.0034154653549194
0.10771670937538147 -0.17355285584926605 0.9904118776321411
0.05834142491221428 0.050494834780693054 1.5421030521392822
0.04967495799064636 -0.16402608156204224 1.1883116960525513
0.02501397579908371 -0.0362696535885334 1.1658188104629517
0.08260203897953033 -0.02917724847793579 1.092421531677246
0.0776684433221817 0.05891011282801628 0.9679085612297058
0.16512718796730042 -0.07165651023387909 0.03890898823738098
0.14066371321678162 -0.06539876013994217 0.038624536246061325
0.19630499184131622 -0.05035672336816788 0.047282423824071884
0.2065138965845108 -0.09007645398378372 0.25265005230903625
0.0765141099691391 -0.03051616996526718 1.4710330963134766
0.07521984726190567 -0.02933705598115921 1.4699515104293823
0.07044713944196701 -0.043409571051597595 1.3312574625015259
0.08507911115884781 -0.06524662673473358 1.3128459453582764
0.20220120251178741 0.1500740498304367 1.0781528949737549
0.19917207956314087 0.12986043095588684 1.0311142206192017
0.2083502560853958 0.13406547904014587 1.0279756784439087
0.21150633692741394 -0.09480629116296768 1.0712852478027344
0.19241836667060852 -0.1537908911705017 1.0649998188018799
0.19991403818130493 -0.1801186501979828 1.0588889122009277
-0.25429612398147583 -0.08332958817481995 1.0910121202468872
-0.17206168174743652 -0.17821510136127472 1.2112175226211548
-0.2062840610742569 -0.07604288309812546 0.375143438577652
-0.048563748598098755 0.17531198263168335 0.9804331064224243
-0.11123689264059067 -0.14177116751670837 1.087845802307129
-0.03721744567155838 -0.041370075196027756 0.8509591221809387
-0.062087006866931915 -0.02943883277475834 0.8173277378082275
-0.05678180605173111 -0.08205815404653549 0.8185284733772278
-0.009192549623548985 0.010213106870651245 1.1068129539489746
0.025235086679458618 -0.20896385610103607 0.8469552993774414
0.0980379730463028 0.014660126529633999 0.8792273998260498
0.1288028508424759 0.1450672447681427 1.0987727642059326
0.07853221893310547 0.013640221208333969 1.5589500665664673
0.09058106690645218 0.035327501595020294 1.5357162952423096
0.18755707144737244 -0.11904124170541763 0.9576655626296997
-0.17612873017787933 -0.19118374586105347 1.1799864768981934
-0.14733968675136566 0.07337077707052231 1.5649561882019043
-0.021723899990320206 0.18350915610790253 1.0270081758499146
-0.12663306295871735 0.10017798840999603 1.5965920686721802
-0.1034001037478447 0.06083958223462105 1.5860929489135742
-0.07161317020654678 0.05134446918964386 1.5654624700546265
0.02216939628124237 -0.19454270601272583 1.076611042022705
0.03837430477142334 -0.1374782770872116 1.2751655578613281
0.16134221851825714 -0.0908752828836441 0.17361128330230713
0.07670764625072479 -0.1257924884557724 1.2327203750610352
0.0877358615398407 -0.1199442446231842 1.1792973279953003
0.11099471151828766 0.06662333011627197 1.4360969066619873
0.09894128143787384 0.09448181092739105 1.4451457262039185
0.0921684205532074 -0.07485239952802658 1.1848928928375244
0.1297983080148697 -0.07528036832809448 0.8550547361373901
0.06538752466440201 -0.16104266047477722 1.2572312355041504
0.13723821938037872 0.09548471122980118 1.3562288284301758
-0.10547442734241486 0.12618660926818848 1.3503304719924927
-0.1977403461933136 0.0007256148383021355 0.38223451375961304
0.051104117184877396 -0.10184629261493683 0.739376962184906
-0.008313775062561035 -0.11444012075662613 1.6909971237182617
-0.10032586753368378 0.19028227031230927 1.0749895572662354
-0.1670750230550766 -0.08654870092868805 1.2837133407592773
-0.15596866607666016 -0.04004053771495819 0.4171919524669647
0.01564066857099533 0.1373438686132431 1.4756489992141724
0.1228054016828537 -0.0754341185092926 0.04360082745552063
0.07021395862102509 -0.045012570917606354 1.513411045074463
0.07051769644021988 -0.04583238810300827 1.5096369981765747
0.07462114095687866 -0.03330901637673378 1.4263224601745605
0.1980990171432495 -0.07295575737953186 0.224563866853714
0.19535690546035767 -0.03862101584672928 0.21385446190834045
0.11473174393177032 -0.09810377657413483 1.2290233373641968
-0.17470049858093262 -0.15826526284217834 0.9445134401321411
-0.11803488433361053 0.11213576793670654 1.3800463676452637
-0.11716147512197495 0.10941603034734726 1.3800219297409058
-0.12160727381706238 0.10763125121593475 1.380509853363037
-0.1731393188238144 -0.06712143868207932 0.21523278951644897
-0.036407068371772766 -0.09616820514202118 0.8517507314682007
0.13413892686367035 -0.06911690533161163 0.16203944385051727
0.13297845423221588 -0.12651683390140533 1.1877005100250244
0.05258633941411972 -0.06834155321121216 1.6489884853363037
0.14730696380138397 -0.098626509308815 0.8047912120819092
0.12631353735923767 0.0566340833902359 1.4040361642837524
0.13438089191913605 0.07540331780910492 1.368300199508667
0.12260548025369644 -0.0019437000155448914 0.07482149451971054
0.011911656707525253 -0.4689365029335022 1.1064045429229736
0.018629267811775208 -0.43791812658309937 1.082106351852417
0.01594594493508339 -0.44990599155426025 1.0852468013763428
0.009572858922183514 -0.4450317919254303 1.0892966985702515
0.006314684636890888 -0.46764618158340454 1.0948811769485474
0.01816042885184288 -0.45719635486602783 1.1093964576721191
0.08993794023990631 -0.3325505554676056 1.0781886577606201
0.07554996013641357 -0.33424681425094604 1.0699868202209473
0.076368048787117 -0.3540928065776825 1.079951286315918
0.06799645721912384 -0.36113888025283813 1.082365870475769
0.14930526912212372 -0.19816330075263977 0.9992858171463013
0.1426679939031601 -0.21210074424743652 1.016456961631775
0.14048224687576294 -0.2096041887998581 0.991091251373291
0.06566791236400604 -0.34902358055114746 1.0376694202423096
0.06101545691490173 -0.3615491986274719 1.0515693426132202
0.06539755314588547 -0.3849877715110779 1.1068270206451416
0.06889781355857849 -0.37275534868240356 1.0919554233551025
0.1200927272439003 -0.2421654760837555 0.9751848578453064
0.11943493038415909 -0.2474384605884552 1.0007612705230713
0.12524284422397614 -0.27932584285736084 1.0672725439071655
0.12111249566078186 -0.2704785466194153 1.061225414276123
0.034943826496601105 -0.4437357783317566 1.1178029775619507
0.02879020757973194 -0.4319652020931244 1.0701171159744263
0.1465846747159958 -0.21390554308891296 0.9821263551712036
0.13851243257522583 -0.21762727200984955 0.9807397127151489
0.2631305158138275 -0.05529239401221275 1.0542997121810913
0.2536509037017822 -0.06655018031597137 1.053175687789917
0.25844693183898926 -0.05604264885187149 1.0338257551193237
0.05264442041516304 -0.40538290143013 1.1009734869003296
0.04083641245961189 -0.4264351427555084 1.1075804233551025
0.14288435876369476 -0.2169003188610077 0.975567102432251
0.14331009984016418 -0.2137548178434372 0.9659075736999512
-0.004325984977185726 -0.487166166305542 1.0585986375808716
-0.009063148871064186 -0.5004218220710754 1.0673385858535767
0.2700713574886322 -0.048614248633384705 1.0465867519378662
0.2676279544830322 -0.056697778403759 1.0595136880874634
0.26492446660995483 -0.04759630560874939 1.0412198305130005
0.26337140798568726 -0.05668270215392113 1.0312142372131348
-0.011657720431685448 -0.5256906151771545 1.1203937530517578
-0.015966255217790604 -0.5434229373931885 1.1317901611328125
-0.023501485586166382 -0.5429109334945679 1.1143627166748047
0.09488587081432343 -0.30189189314842224 1.010608196258545
0.09048588573932648 -0.3197553753852844 1.0093600749969482
0.07602939754724503 -0.33631306886672974 1.008840799331665
0.0799090564250946 -0.33767014741897583 1.0012329816818237
0.2675713896751404 -0.062476061284542084 1.0658063888549805
0.2694636881351471 -0.047653187066316605 1.0378656387329102
0.06526975333690643 -0.404544472694397 1.1160088777542114
0.06968960911035538 -0.40638643503189087 1.1149784326553345
0.05564413219690323 -0.4159969985485077 1.1170423030853271
0.05264078080654144 -0.4333091676235199 1.1244466304779053
0.11566799879074097 -0.26890796422958374 0.9941208362579346
0.10680205374956131 -0.28461241722106934 0.990795373916626
0.1046331450343132 -0.2856060266494751 0.9963196516036987
0.2725486159324646 -0.050403892993927 1.0425646305084229
0.269845575094223 -0.0650842934846878 1.062717318534851
0.26413995027542114 -0.0599052868783474 1.0344005823135376
0.15099617838859558 -0.19276025891304016 0.9357255101203918
0.14699400961399078 -0.19970227777957916 0.9284294843673706
0.14606289565563202 -0.208632230758667 0.9525741338729858
0.14803925156593323 -0.2040189951658249 0.9427804350852966
0.14599180221557617 -0.19852963089942932 0.9396470189094543
0.07017411291599274 -0.3570310175418854 1.0000635385513306
0.07264617830514908 -0.34167754650115967 0.995740532875061
0.0694410502910614 -0.34811097383499146 0.9852052927017212
0.06807755678892136 -0.3548448085784912 0.9848759770393372
0.26695719361305237 -0.06563933938741684 1.041238784790039
-0.015579303726553917 -0.5521936416625977 1.1393101215362549
-0.016176635399460793 -0.548945426940918 1.1206116676330566
-0.017006682232022285 -0.5591719150543213 1.1364684104919434
-0.023493601009249687 -0.5622439980506897 1.1385438442230225
-0.020320620387792587 -0.5433745384216309 1.107560157775879
0.1698037087917328 -0.21163110435009003 0.9923803806304932
0.1533973217010498 -0.2179030478000641 0.9796634316444397
0.010234563611447811 -0.4743351936340332 1.0479586124420166
-0.00163330789655447 -0.49494606256484985 1.0584582090377808
-0.007694783620536327 -0.5151146650314331 1.0730664730072021
0.14242777228355408 -0.2738876938819885 1.0671685934066772
0.12981410324573517 -0.2873612642288208 1.0679596662521362
0.1313943713903427 -0.3014252185821533 1.0643510818481445
0.07653678953647614 -0.4022378623485565 1.1194653511047363
0.06977934390306473 -0.40996772050857544 1.1111633777618408
0.0452335923910141 -0.4519382119178772 1.1224565505981445
0.08333347737789154 -0.3758525848388672 1.1023955345153809
0.030096925795078278 -0.4545995891094208 1.064160704612732
0.012807154096662998 -0.48254862427711487 1.0652968883514404
0.14553353190422058 -0.27556777000427246 1.0605124235153198
0.08352677524089813 -0.390876442193985 1.0862231254577637
0.08920235931873322 -0.3757930397987366 1.0753999948501587
0.07438470423221588 -0.4059769809246063 1.0899516344070435
0.00024421513080596924 -0.5240310430526733 1.1068192720413208
0.0056661441922187805 -0.5156655311584473 1.095521092414856
0.06788492202758789 -0.3796687424182892 1.0318806171417236
0.07676606625318527 -0.38456520438194275 1.048403263092041
0.06458748877048492 -0.39446592330932617 1.0510915517807007
0.06993525475263596 -0.3976687788963318 1.061163306236267
0.11209580302238464 -0.3339775800704956 1.0692715644836426
0.09308689832687378 -0.3619219660758972 1.0752127170562744
0.04535173252224922 -0.45367610454559326 1.099678874015808
0.03743299841880798 -0.4704310894012451 1.0995649099349976
0.0263857189565897 -0.47496944665908813 1.104917049407959
0.044965293258428574 -0.44602811336517334 1.0739750862121582
0.040490586310625076 -0.45349645614624023 1.071042537689209
0.09509527683258057 -0.3484686613082886 1.03229558467865
0.08779996633529663 -0.3617796301841736 1.0345240831375122
0.09176094084978104 -0.33939701318740845 1.0169212818145752
0.08697859942913055 -0.35629352927207947 1.0258105993270874
0.08001089096069336 -0.3697405755519867 1.037685751914978
0.10801082104444504 -0.3359258770942688 1.0399250984191895
0.11813969165086746 -0.32290318608283997 1.0448750257492065
0.11078877747058868 -0.30958494544029236 1.016777515411377
0.11219506710767746 -0.32194435596466064 1.0344045162200928
0.039910174906253815 -0.4616698622703552 1.0782790184020996
0.03298158943653107 -0.4782359004020691 1.0858912467956543
0.03024136833846569 -0.46960803866386414 1.078735589981079
0.04225955158472061 -0.47514790296554565 1.0820550918579102
0.17004162073135376 -0.22588488459587097 1.007624626159668
0.024468177929520607 -0.4197183847427368 1.096382975578308
0.01278524287045002 -0.43031376600265503 1.0886013507843018
0.0556110180914402 -0.36848336458206177 1.0777533054351807
0.05727958679199219 -0.3659440875053406 1.0725696086883545
0.04657037556171417 -0.3787878155708313 1.0852962732315063
0.052286483347415924 -0.3715571165084839 1.0706167221069336
0.04554649069905281 -0.3828166127204895 1.080127477645874
0.07164796441793442 -0.34108513593673706 1.054271936416626
0.06596828997135162 -0.35306286811828613 1.0546679496765137
0.08300872147083282 -0.3255952000617981 1.0496867895126343
0.05577553063631058 -0.37972429394721985 1.0890954732894897
0.01692367158830166 -0.4519232511520386 1.0602660179138184
0.008334445767104626 -0.4623011648654938 1.0893555879592896
0.05445287749171257 -0.36998438835144043 1.0496498346328735
-0.0015907064080238342 -0.4837754964828491 1.0992224216461182
-0.011827507987618446 -0.5026971101760864 1.099233865737915
-0.0017777029424905777 -0.489690363407135 1.0908458232879639
-0.012300778180360794 -0.5178419947624207 1.1114516258239746
0.16065911948680878 -0.19557960331439972 1.0175962448120117
0.16074718534946442 -0.23692074418067932 1.0896508693695068
0.14745377004146576 -0.24175362288951874 1.0806673765182495
0.1546574831008911 -0.24574688076972961 1.085977554321289
0.11322543025016785 -0.2684546113014221 1.004122018814087
0.25033360719680786 -0.0600644089281559 1.0230047702789307
0.25444552302360535 -0.07682578265666962 1.0654306411743164
0.24736563861370087 -0.08656659722328186 1.0613908767700195
0.24600061774253845 -0.08208627253770828 1.0540045499801636
0.0963963195681572 -0.34223973751068115 1.0836894512176514
0.03111409954726696 -0.4599211812019348 1.1340571641921997
-0.015727754682302475 -0.5210622549057007 1.0896198749542236
0.2169538289308548 -0.11423171311616898 1.0217411518096924
0.20663359761238098 -0.13843494653701782 1.0120172500610352
0.10980143398046494 -0.32324689626693726 1.0879619121551514
0.10126839578151703 -0.3273804187774658 1.081623911857605
0.07961516082286835 -0.36341598629951477 1.087451696395874
-0.0181586816906929 -0.5307474136352539 1.094058632850647
-0.01777094416320324 -0.5545413494110107 1.1443649530410767
-0.021527834236621857 -0.5583361387252808 1.1473296880722046
-0.022138841450214386 -0.5574294328689575 1.128766655921936
0.17871129512786865 -0.17527717351913452 1.0145877599716187
0.1736803650856018 -0.19827863574028015 1.0165019035339355
0.08954335004091263 -0.3665080666542053 1.087705135345459
0.15669792890548706 -0.1999731957912445 0.9953975081443787
-0.009483379311859608 -0.5053116679191589 1.0695061683654785
0.189099982380867 -0.20555083453655243 1.1008845567703247
0.18952050805091858 -0.20872768759727478 1.100181221961975
0.1809256225824356 -0.21502499282360077 1.087023377418518
0.18324854969978333 -0.22180646657943726 1.0970957279205322
0.17883771657943726 -0.23318830132484436 1.1031582355499268
0.1687985062599182 -0.20926669239997864 1.067739486694336
0.17735393345355988 -0.21574068069458008 1.070664644241333
-0.019031422212719917 -0.5600405335426331 1.1494473218917847
0.059281669557094574 -0.3889198303222656 1.0355873107910156
0.055640485137701035 -0.3968347907066345 1.0440316200256348
0.04944349080324173 -0.3991684913635254 1.0452996492385864
0.06396950036287308 -0.37065523862838745 1.0215935707092285
0.184894859790802 -0.22282525897026062 1.0970736742019653
0.17919984459877014 -0.2331317812204361 1.0990365743637085
0.15085910260677338 -0.22299647331237793 0.9683323502540588
0.1894083023071289 -0.21573752164840698 1.0949506759643555
0.1835862249135971 -0.22222323715686798 1.0871832370758057
0.08038493245840073 -0.394974946975708 1.1101796627044678
0.14092177152633667 -0.22358699142932892 0.9407616257667542
0.13865603506565094 -0.22231262922286987 0.9373274445533752
0.13167130947113037 -0.23235304653644562 0.9249918460845947
0.12741081416606903 -0.24044638872146606 0.9310159683227539
0.17808479070663452 -0.2058885246515274 1.0141828060150146
0.1732037216424942 -0.24033454060554504 1.0837146043777466
0.06716980785131454 -0.41157078742980957 1.0982351303100586
0.05685459077358246 -0.4292881190776825 1.1042777299880981
0.14513614773750305 -0.23392167687416077 0.9667582511901855
0.14022232592105865 -0.24257883429527283 0.9658850431442261
0.13593606650829315 -0.23621989786624908 0.9529189467430115
0.05994327366352081 -0.4300498962402344 1.0940399169921875
0.06977922469377518 -0.41591939330101013 1.0857678651809692
0.0571865439414978 -0.42352181673049927 1.073779821395874
0.0701206773519516 -0.4062589406967163 1.0705715417861938
0.010214759036898613 -0.4936717450618744 1.0765111446380615
0.012050850316882133 -0.5007132291793823 1.0852453708648682
0.15501882135868073 -0.2375556379556656 0.9855331778526306
0.1683233678340912 -0.2397889792919159 1.0334208011627197
0.15278801321983337 -0.25921571254730225 1.0314371585845947
0.157988503575325 -0.253956139087677 1.0190279483795166
0.14881692826747894 -0.2727310359477997 1.030434489250183
0.13747331500053406 -0.2797390818595886 1.0223101377487183
0.05979787930846214 -0.4388904869556427 1.0788723230361938
0.06475985050201416 -0.431209534406662 1.0740606784820557
0.05213402956724167 -0.46376389265060425 1.094223141670227
0.09715822339057922 -0.37707769870758057 1.0660498142242432
0.08055178076028824 -0.39970099925994873 1.0745242834091187
0.08928685635328293 -0.3826466202735901 1.0664162635803223
0.08591573685407639 -0.3928203582763672 1.0635188817977905
0.08473771810531616 -0.3984462022781372 1.0716276168823242
0.08618442714214325 -0.38721734285354614 1.0693767070770264
0.07987935841083527 -0.4028594493865967 1.0674586296081543
0.04448234289884567 -0.4744137227535248 1.0898363590240479
0.04657356068491936 -0.4665262699127197 1.08055579662323
0.01506812684237957 -0.4373686909675598 1.1037662029266357
0.009714847430586815 -0.450633704662323 1.1007895469665527
0.014216801151633263 -0.43628913164138794 1.0849156379699707
0.002644668333232403 -0.45368534326553345 1.0951496362686157
0.14561574161052704 -0.22762751579284668 1.0704313516616821
0.1380523294210434 -0.21920731663703918 1.0031486749649048
0.13000836968421936 -0.229619562625885 0.999180018901825
0.15690730512142181 -0.2019907832145691 1.0431761741638184
0.030366968363523483 -0.43030256032943726 1.1046593189239502
0.03806108236312866 -0.4106428325176239 1.0754990577697754
0.11687904596328735 -0.2587807774543762 1.0273525714874268
0.11356276273727417 -0.268709659576416 1.0161080360412598
0.1361333727836609 -0.24233020842075348 1.0629229545593262
0.12887567281723022 -0.2607053816318512 1.0629545450210571
0.04118542745709419 -0.4043576717376709 1.0758490562438965
0.027755677700042725 -0.4440607726573944 1.1102955341339111
0.1016022339463234 -0.2889214754104614 1.0261919498443604
0.0875580906867981 -0.3178730607032776 1.041670560836792
0.0909675657749176 -0.3057277798652649 1.0225830078125
0.04910436272621155 -0.3880860507488251 1.0654194355010986
-0.005559706129133701 -0.5052518248558044 1.1176475286483765
-0.020382924005389214 -0.5358473658561707 1.1207598447799683
-0.021797357127070427 -0.5305823683738708 1.1004739999771118
0.16679565608501434 -0.22879689931869507 1.0961302518844604
0.14846378564834595 -0.2569739818572998 1.0920677185058594
0.11883245408535004 -0.2947082221508026 1.0716032981872559
0.10603826493024826 -0.3148355782032013 1.0797728300094604
0.08702050149440765 -0.31965208053588867 1.016190767288208
0.14598700404167175 -0.270277202129364 1.1006900072097778
0.14389824867248535 -0.2546962797641754 1.0681644678115845
0.1389697939157486 -0.26840364933013916 1.0679048299789429
0.02133530005812645 -0.4786056876182556 1.1296937465667725
0.010105527937412262 -0.49557459354400635 1.1242095232009888
0.04756665229797363 -0.3975810408592224 1.052162528038025
0.20103436708450317 -0.15104344487190247 1.0402008295059204
0.2068677842617035 -0.13981398940086365 1.041399598121643
0.07172098010778427 -0.3427693843841553 0.9976996183395386
0.11893901228904724 -0.31025493144989014 1.0735477209091187
0.11551876366138458 -0.32348185777664185 1.0911306142807007
0.029096245765686035 -0.4723981022834778 1.131934642791748
0.029444897547364235 -0.4758569598197937 1.1275126934051514
0.018471211194992065 -0.4864959716796875 1.1253553628921509
0.13265663385391235 -0.24350836873054504 0.9635106921195984
0.12236921489238739 -0.25625500082969666 0.9637095928192139
0.11862393468618393 -0.25417906045913696 0.9651544690132141
0.12794986367225647 -0.2369903326034546 0.9563509821891785
0.1316280961036682 -0.23982615768909454 0.9541875720024109
0.12434272468090057 -0.2396390438079834 0.9389506578445435
0.11676067113876343 -0.2626696228981018 0.986892819404602
0.11912085860967636 -0.2371559590101242 0.9352768659591675
0.11432032287120819 -0.24862855672836304 0.9270306825637817
0.17882320284843445 -0.20532506704330444 1.0422154664993286
0.17423483729362488 -0.2108689546585083 1.0463310480117798
0.16934408247470856 -0.19968178868293762 1.0137205123901367
0.1699424684047699 -0.23730561137199402 1.0942598581314087
0.16293665766716003 -0.24640193581581116 1.0838990211486816
0.07621349394321442 -0.4028902053833008 1.1297633647918701
0.07693155109882355 -0.39740127325057983 1.1301474571228027
0.07248840481042862 -0.39355915784835815 1.116347074508667
0.12098295986652374 -0.24364033341407776 0.9231244325637817
0.1270904690027237 -0.22975251078605652 0.9250762462615967
0.12023363262414932 -0.2646968960762024 0.9834438562393188
0.0336427316069603 -0.44216686487197876 1.058181881904602
0.01881764456629753 -0.4574670195579529 1.0549635887145996
0.17902636528015137 -0.22434449195861816 1.0727077722549438
0.18993210792541504 -0.19210749864578247 1.0409287214279175
0.03558826446533203 -0.4661388695240021 1.1106300354003906
0.08118465542793274 -0.3435675799846649 1.0018587112426758
0.24589362740516663 -0.09539205580949783 1.0234559774398804
0.23820285499095917 -0.10643500834703445 1.0211927890777588
0.08186393976211548 -0.35005414485931396 1.006561279296875
0.1938195824623108 -0.18826937675476074 1.0294408798217773
0.18563979864120483 -0.20301178097724915 1.032830834388733
0.18018673360347748 -0.2006862759590149 1.021133303642273
0.05269478261470795 -0.4378398060798645 1.0752102136611938
0.16776973009109497 -0.22001543641090393 0.9895229935646057
0.1007588803768158 -0.3317272663116455 1.0230929851531982
0.1801290363073349 -0.21866029500961304 1.0322664976119995
0.17499853670597076 -0.23432505130767822 1.0349500179290771
0.17794504761695862 -0.23401446640491486 1.0602600574493408
0.1662725806236267 -0.24262908101081848 1.0433578491210938
0.18227030336856842 -0.2104555368423462 1.0210542678833008
0.17712217569351196 -0.21436208486557007 1.006518840789795
0.06321215629577637 -0.4386671185493469 1.0842934846878052
0.06765902787446976 -0.34392595291137695 1.0719863176345825
0.06298404932022095 -0.3465192914009094 1.0690107345581055
0.06060243397951126 -0.35523998737335205 1.0771832466125488
0.06326672434806824 -0.34205830097198486 1.0633212327957153
0.05716559663414955 -0.35944223403930664 1.0731759071350098
0.033636756241321564 -0.4071626663208008 1.0916177034378052
0.034661177545785904 -0.41685205698013306 1.0986318588256836
0.05832384526729584 -0.36674565076828003 1.0683972835540771
0.052879855036735535 -0.3746076822280884 1.0621776580810547
0.045273736119270325 -0.3918053209781647 1.0774805545806885
0.04376109689474106 -0.3992587924003601 1.0908454656600952
0.12402251362800598 -0.24605417251586914 1.0251591205596924
0.15450364351272583 -0.22755180299282074 1.0820667743682861
0.16270528733730316 -0.2139568030834198 1.0715434551239014
0.17349745333194733 -0.17753998935222626 1.038132905960083
0.17600566148757935 -0.17123568058013916 1.0262125730514526
0.06042231246829033 -0.37033092975616455 1.0307210683822632
0.07618611305952072 -0.3315045237541199 1.0209643840789795
0.06302092969417572 -0.3552968204021454 0.9957919120788574
0.06851519644260406 -0.3436785340309143 1.023856282234192
0.24308526515960693 -0.09174293279647827 1.0613123178482056
0.2552253305912018 -0.06715871393680573 1.038657784461975
0.24655351042747498 -0.07770856469869614 1.0444279909133911
0.24163296818733215 -0.08111564069986343 1.0346217155456543
0.23381787538528442 -0.08833813667297363 1.0295298099517822
0.1982516199350357 -0.140840083360672 1.0153782367706299
0.1887202262878418 -0.15654519200325012 1.0138603448867798
0.18069657683372498 -0.20707350969314575 1.097081184387207
0.07075319439172745 -0.3991648554801941 1.1305263042449951
0.04682350158691406 -0.4350094795227051 1.1232026815414429
0.00765914935618639 -0.471182644367218 1.045271873474121
0.005996582098305225 -0.4671279191970825 1.0500710010528564
0.13464444875717163 -0.22150006890296936 0.9335025548934937
0.12252037972211838 -0.22721406817436218 0.9284552335739136
0.2136349231004715 -0.1432243138551712 1.0394320487976074
0.206074059009552 -0.16047605872154236 1.0391170978546143
0.07467186450958252 -0.3982512950897217 1.1339123249053955
0.09868639707565308 -0.3115929365158081 1.0077688694000244
0.09608754515647888 -0.3269067406654358 1.0155736207962036
0.11682935059070587 -0.3178216218948364 1.0780359506607056
0.10786078870296478 -0.33255547285079956 1.0803343057632446
0.09691178798675537 -0.3472856283187866 1.0804494619369507
0.1409526914358139 -0.2635573744773865 0.9931229948997498
0.23507902026176453 -0.1179419755935669 1.034083604812622
0.23017171025276184 -0.1281067281961441 1.0235886573791504
0.007723931223154068 -0.508333683013916 1.0922901630401611
0.14596059918403625 -0.27750080823898315 1.0499656200408936
0.13749831914901733 -0.2941361665725708 1.0412296056747437
0.14650365710258484 -0.26070547103881836 1.0092077255249023
0.14128464460372925 -0.25700706243515015 0.9820348024368286
0.12504741549491882 -0.2738208770751953 0.9978418350219727
0.16343995928764343 -0.2555833160877228 1.0410475730895996
0.16904473304748535 -0.252910315990448 1.0566720962524414
0.16078448295593262 -0.2610280215740204 1.0550150871276855
0.15491774678230286 -0.26526641845703125 1.039310336112976
0.14181114733219147 -0.22573918104171753 1.0436434745788574
0.14909251034259796 -0.2046695500612259 1.0267002582550049
0.14366157352924347 -0.2138437032699585 1.0366015434265137
0.13687366247177124 -0.22134637832641602 1.024512529373169
0.025532569736242294 -0.42943161725997925 1.0825221538543701
0.13060015439987183 -0.2234029769897461 0.9940528273582458
0.018410148099064827 -0.4650175869464874 1.1133244037628174
0.10568514466285706 -0.27747461199760437 1.0145100355148315
0.2231132835149765 -0.1047961413860321 1.0407471656799316
0.21613264083862305 -0.1148226410150528 1.034235954284668
0.2174832820892334 -0.11137663573026657 1.023138165473938
0.1438806653022766 -0.25134366750717163 1.0702476501464844
0.14292891323566437 -0.26434093713760376 1.0926005840301514
0.1447671502828598 -0.25601518154144287 1.078879475593567
0.12680980563163757 -0.24100160598754883 0.9655681848526001
0.1144721582531929 -0.24298818409442902 0.9246280193328857
0.041930656880140305 -0.41696903109550476 1.0534870624542236
0.0357266366481781 -0.4265451431274414 1.054436206817627
0.028177186846733093 -0.4356728196144104 1.058200716972351
0.1685936003923416 -0.20627015829086304 1.046075463294983
0.151908740401268 -0.26940006017684937 1.0954535007476807
0.14385059475898743 -0.272063672542572 1.0927064418792725
0.14641350507736206 -0.2662314176559448 1.0821634531021118
0.1439286768436432 -0.2622224688529968 1.0657554864883423
-0.004770043306052685 -0.49384015798568726 1.0562061071395874
-0.011278975754976273 -0.523697018623352 1.0857449769973755
0.2501510977745056 -0.0823805183172226 1.033640742301941
0.2539249360561371 -0.067552849650383 1.0127700567245483
0.2546265423297882 -0.06854461133480072 1.0280929803848267
0.2500993609428406 -0.08005937933921814 1.0268017053604126
0.2474987953901291 -0.08470059186220169 1.0182156562805176
0.24805225431919098 -0.07308906316757202 1.00978422164917
0.24256807565689087 -0.08438508957624435 1.0128153562545776
0.11923322081565857 -0.2739027738571167 0.9908887147903442
0.23351435363292694 -0.10026541352272034 1.0078718662261963
0.21675719320774078 -0.1430283635854721 1.0184446573257446
0.20339956879615784 -0.15538263320922852 1.0149719715118408
0.20641368627548218 -0.16549775004386902 1.029478907585144
0.18147872388362885 -0.21469682455062866 1.0392372608184814
0.18029926717281342 -0.22252126038074493 1.0539028644561768
0.1349746137857437 -0.25497251749038696 0.9710368514060974
0.12140924483537674 -0.3235395550727844 1.0531378984451294
0.12819713354110718 -0.30618035793304443 1.0343822240829468
0.06981522589921951 -0.427493155002594 1.0814036130905151
0.1116395816206932 -0.3471856713294983 1.0564345121383667
0.10462729632854462 -0.3658201992511749 1.0618431568145752
0.10591436922550201 -0.3573063611984253 1.0575103759765625
0.09469621628522873 -0.3793642520904541 1.0606038570404053
0.09356176853179932 -0.3091844618320465 1.064514398574829
0.08329340815544128 -0.3170594573020935 1.0617715120315552
0.10761312395334244 -0.2920321226119995 1.0660561323165894
0.0903400182723999 -0.3082011938095093 1.051348090171814
0.0029638432897627354 -0.47763538360595703 1.073690414428711
0.17423215508460999 -0.1780456006526947 1.0196055173873901
0.16607701778411865 -0.19176143407821655 1.0214706659317017
0.16466541588306427 -0.19163116812705994 1.0359452962875366
0.19393745064735413 -0.14874602854251862 1.0335183143615723
0.19147151708602905 -0.15795430541038513 1.0387237071990967
0.06224651634693146 -0.39330822229385376 1.1153432130813599
0.05988018959760666 -0.39957886934280396 1.1121042966842651
0.07777513563632965 -0.3813377618789673 1.1057446002960205
0.023075412958860397 -0.44730788469314575 1.0563398599624634
0.14833006262779236 -0.1923225075006485 0.9328173398971558
0.13945555686950684 -0.20546814799308777 0.933224618434906
0.25623756647109985 -0.05822652578353882 1.0179821252822876
0.25137946009635925 -0.0625377893447876 1.013822317123413
0.24594251811504364 -0.1071486696600914 1.0681438446044922
0.24328778684139252 -0.11187782138586044 1.0645371675491333
0.014810224995017052 -0.49654123187065125 1.1202642917633057
0.004228096455335617 -0.5166531205177307 1.1131973266601562
0.017584512010216713 -0.4950442314147949 1.0934277772903442
