-0.042113907635211945 -0.036417290568351746 1.3071225881576538
-0.0710039883852005 -0.25403642654418945 0.5717651844024658
-0.04823484271764755 -0.23440121114253998 0.5701978802680969
-0.08661588281393051 -0.15613915026187897 0.4910597801208496
-0.06477520614862442 -0.15087535977363586 1.4768128395080566
-0.045545805245637894 -0.09933826327323914 1.4473415613174438
-0.08723197877407074 -0.04337040334939957 1.4164390563964844
-0.05725134536623955 -0.18867066502571106 0.5063361525535583
-0.055763695389032364 -0.003185827285051346 1.793843150138855
-0.08546032756567001 -0.20655828714370728 1.6600089073181152
-0.015621732920408249 -0.19241689145565033 0.9948451519012451
-0.04710114374756813 -0.1139051765203476 1.4673283100128174
-0.021154126152396202 -0.14254708588123322 1.448862075805664
-0.044635750353336334 -0.12527120113372803 1.435831069946289
-0.023305023089051247 -0.19413919746875763 1.588861107826233
-0.06611791253089905 -0.19675958156585693 1.531651258468628
-0.024792300537228584 -0.07670200616121292 1.4816393852233887
-0.04639860987663269 -0.16870200634002686 0.6281744241714478
0.0032002925872802734 -0.04543101042509079 1.815788745880127
-0.0356123112142086 0.0724945068359375 1.7183036804199219
-0.00731375627219677 -0.21320989727973938 1.5372333526611328
-0.02595490962266922 -0.1943037211894989 1.4795032739639282
-0.006892278790473938 -0.08214177191257477 1.4494400024414062
0.0024846913293004036 -0.19335819780826569 1.4800955057144165
0.024033937603235245 -0.0496751070022583 1.427781581878662
-0.0014353040605783463 -0.040485210716724396 1.2987537384033203
-0.0027625560760498047 0.01477067545056343 1.789775013923645
0.01831192709505558 -0.08501411974430084 1.4862806797027588
0.016231266781687737 -0.13775154948234558 1.4654836654663086
0.0270718801766634 0.043356187641620636 1.7452553510665894
0.0170145183801651 -0.029901470988988876 1.795928955078125
0.015614409931004047 -0.13243307173252106 1.4411413669586182
0.06082874909043312 -0.15013423562049866 1.5026240348815918
0.022694654762744904 -0.10497232526540756 1.4531667232513428
0.05947933346033096 -0.05226706340909004 0.5656849145889282
0.046502485871315 -0.04129571467638016 1.5185519456863403
0.09348564594984055 -0.034650206565856934 0.4846790134906769
0.04496844485402107 -0.19976046681404114 1.2467926740646362
0.08469156175851822 -0.051802460104227066 1.273579716682434
0.08192773908376694 -0.048538997769355774 1.1497002840042114
0.1263592392206192 0.1892431080341339 0.12276844680309296
0.15570764243602753 0.20924872159957886 0.12071016430854797
0.11154712736606598 0.2511940896511078 0.19559302926063538
0.05989326536655426 -0.17325596511363983 1.2394781112670898
0.05137059465050697 -0.19324645400047302 1.1655534505844116
0.05711071938276291 -0.12302063405513763 0.6989507675170898
0.10787016153335571 0.2325913906097412 0.15186235308647156
0.07342192530632019 -0.02546662837266922 1.7517046928405762
0.054579902440309525 -0.19253087043762207 1.6692959070205688
0.046524349600076675 -0.17696604132652283 1.5790417194366455
0.050317808985710144 -0.18302296102046967 1.5296951532363892
0.08977207541465759 -0.15697701275348663 0.8465452790260315
0.12815824151039124 -0.02704022079706192 1.7808382511138916
0.05313561111688614 -0.04127950221300125 1.573317289352417
0.054684240370988846 -0.0630144476890564 1.5448192358016968
0.11636307835578918 0.12548530101776123 0.37582653760910034
0.11162731051445007 0.16425850987434387 0.33219119906425476
0.1271328330039978 0.2645643949508667 0.18791595101356506
0.06760220229625702 -0.05013963580131531 1.8429665565490723
0.10362578183412552 -0.06780166923999786 1.434316873550415
0.09528285264968872 -0.21575871109962463 0.8396391868591309
0.07598204165697098 -0.12791919708251953 0.8314915895462036
0.12200672179460526 -0.19002078473567963 0.8293390274047852
0.0849888026714325 -0.02799748070538044 0.7330430150032043
0.17803044617176056 0.1972772479057312 0.1253904551267624
0.08336849510669708 -0.03846658766269684 1.7634222507476807
0.07998424768447876 -0.14784666895866394 1.1380003690719604
0.09122847765684128 -0.16914960741996765 1.253536343574524
0.0952872484922409 -0.18897463381290436 1.2446951866149902
0.13525991141796112 -0.18391747772693634 0.9022616744041443
0.0871327742934227 -0.11793912202119827 1.5947623252868652
0.08393745124340057 -0.03252140432596207 1.5819578170776367
0.08529384434223175 -0.060875583440065384 1.5714073181152344
0.0949612632393837 -0.077398881316185 1.5689334869384766
0.10860320925712585 -0.09086257219314575 1.5458602905273438
0.12237616628408432 -0.03866194188594818 0.6282120943069458
0.11939285695552826 -0.10766905546188354 0.6367583274841309
0.1242455318570137 -0.13210159540176392 1.390299916267395
0.13341812789440155 -0.05383634939789772 1.3564965724945068
0.08958268165588379 -0.05849689245223999 1.3671796321868896
0.09778738021850586 -0.07059242576360703 1.3372328281402588
0.1098899245262146 -0.11571069806814194 0.799119234085083
0.17361792922019958 0.24057939648628235 0.17414672672748566
0.18937920033931732 0.2275775969028473 0.1629026085138321
0.09916708618402481 -0.043316151946783066 1.7156275510787964
0.13662104308605194 -0.072161465883255 1.4079562425613403
0.18066391348838806 0.09221887588500977 0.3412719666957855
0.12270385026931763 -0.016946934163570404 1.6877368688583374
0.09193585813045502 0.007443215698003769 1.6902570724487305
0.10751400887966156 -0.020829852670431137 1.6541004180908203
0.19567428529262543 0.18375885486602783 0.20008417963981628
0.20319552719593048 0.20498383045196533 0.14030280709266663
0.1764889508485794 0.1697700172662735 0.1341523975133896
0.16442081332206726 -0.010188792832195759 0.9405357837677002
0.14059048891067505 -0.012988165020942688 0.8400904536247253
0.13071148097515106 -0.04907892271876335 1.7793153524398804
0.16107739508152008 0.04330716282129288 0.8476752042770386
0.18308722972869873 0.004110037349164486 0.905585527420044
0.16939160227775574 -0.06354644894599915 1.3469175100326538
0.18883009254932404 -0.08650287240743637 1.3205747604370117
0.14035989344120026 -0.12996195256710052 1.35343337059021
0.1925143003463745 -0.050022270530462265 1.2921451330184937
0.17979928851127625 -0.04560597985982895 1.2703617811203003
0.23238210380077362 -0.13544759154319763 1.2121407985687256
0.22165536880493164 -0.0925317034125328 1.2726565599441528
0.2322556972503662 -0.01996183767914772 1.2312425374984741
0.2554055154323578 0.021699979901313782 1.159753680229187
0.28609222173690796 0.018564604222774506 1.1744539737701416
0.28078004717826843 -0.03355251997709274 1.208043098449707
0.28150832653045654 -0.09880082309246063 1.2024153470993042
0.3080941438674927 0.03453584015369415 1.118804931640625
0.3688930571079254 -0.04998617619276047 1.1372802257537842
0.3633042871952057 -0.010232217609882355 1.1333708763122559
0.34175777435302734 0.02193106710910797 1.118109941482544
0.36440759897232056 -0.10178542137145996 1.0943671464920044
0.3656582534313202 -0.038687773048877716 1.0834846496582031
0.35318267345428467 -0.011114180088043213 1.082327961921692
0.4519931972026825 -0.011312715709209442 0.9512677192687988
0.36048582196235657 -0.06874807178974152 1.0714119672775269
0.369983971118927 -0.07134364545345306 1.0362595319747925
0.39975765347480774 0.0026068314909934998 1.0021802186965942
0.36981070041656494 -0.046398427337408066 1.0185266733169556
0.3850060999393463 -0.07506909966468811 1.0069338083267212
0.40741533041000366 -0.03934348747134209 0.9839046001434326
0.4328336715698242 -0.03160737454891205 0.9783029556274414
0.4045959711074829 -0.0873582661151886 0.9671159386634827
0.42245879769325256 -0.05527128279209137 0.9677538871765137
0.41454675793647766 -0.07085207104682922 0.9728145599365234
0.45312660932540894 -0.010661423206329346 0.9288907051086426
0.429005891084671 -0.07629496604204178 0.9533883333206177
0.4231816232204437 -0.016532935202121735 0.9473748803138733
0.450158953666687 -0.04582502692937851 0.928164541721344
0.4636269509792328 -0.03214985877275467 0.9373623728752136
-0.32820236682891846 0.0023147116880863905 1.03402578830719
-0.3262455463409424 -0.07011068612337112 1.0082546472549438
-0.3064410090446472 -0.04814571514725685 1.0118035078048706
-0.3382244110107422 -0.11041869968175888 1.0395125150680542
-0.25495830178260803 2.4477951228618622e-05 1.0428283214569092
-0.3032052516937256 -0.10560810565948486 1.0301718711853027
-0.1754799783229828 -0.041126664727926254 1.2329663038253784
-0.18254658579826355 -0.10338345170021057 1.1922965049743652
-0.18249234557151794 -0.09380382299423218 0.9494950771331787
-0.1895967423915863 -0.012095985002815723 0.9034601449966431
-0.1404499113559723 0.049510255455970764 0.9045345187187195
-0.173726886510849 0.16185006499290466 1.2547190189361572
-0.1712714284658432 0.17305520176887512 1.1863445043563843
-0.1779029816389084 0.20663957297801971 1.1511850357055664
-0.16538557410240173 -0.00964625645428896 0.9431763887405396
-0.2099769115447998 -0.05972406268119812 1.761644959449768
-0.131677508354187 -0.06142550706863403 1.3657704591751099
-0.15056687593460083 -0.04101262241601944 1.2972300052642822
-0.0993075966835022 0.241949200630188 1.0403189659118652
-0.13388411700725555 0.25844016671180725 0.9486753940582275
-0.19213418662548065 -0.27510133385658264 0.10358794033527374
-0.19479431211948395 -0.34045034646987915 0.06573908776044846
-0.17869481444358826 -0.06054592877626419 1.7424798011779785
-0.16312900185585022 -0.046631816774606705 1.6847782135009766
-0.11947255581617355 -0.17632251977920532 1.229062795639038
-0.11766760796308517 -0.18818151950836182 1.1966016292572021
-0.12131522595882416 -0.20994973182678223 1.1866698265075684
-0.1527101695537567 0.09520994871854782 1.3923494815826416
-0.14072926342487335 0.08996661752462387 1.386629581451416
-0.09754790365695953 -0.1769622266292572 1.24824059009552
-0.1244870126247406 -0.08134250342845917 1.2146515846252441
-0.16676199436187744 -0.30351269245147705 0.17194680869579315
-0.1720920354127884 -0.2608394920825958 0.1883968561887741
-0.11214621365070343 0.1540144830942154 1.246455430984497
-0.1369398683309555 -0.10162846744060516 1.47172212600708
-0.1365530639886856 -0.09413248300552368 1.4462590217590332
-0.12153991311788559 -0.09173962473869324 1.4232913255691528
-0.1368248462677002 -0.08858517557382584 1.4228730201721191
-0.13352063298225403 -0.10625419020652771 1.406459927558899
-0.12742295861244202 -0.1394243836402893 0.7875151634216309
-0.14122803509235382 -0.11121001094579697 0.7623964548110962
-0.10500052571296692 0.3056982755661011 1.0489284992218018
-0.10702069848775864 0.29074692726135254 1.105896234512329
-0.0888524129986763 -0.16612277925014496 1.2490652799606323
-0.1224040761590004 -0.10563714802265167 0.8517459630966187
-0.16972573101520538 -0.2029951810836792 0.1071697250008583
-0.17597094178199768 -0.20530833303928375 0.06237008795142174
-0.13711334764957428 -0.1904052048921585 0.8516199588775635
-0.12658828496932983 0.22405506670475006 1.2255675792694092
-0.1317264288663864 -0.17999985814094543 1.655545949935913
-0.11826140433549881 -0.04999610409140587 1.5588151216506958
-0.1102038100361824 0.06068504974246025 1.5320725440979004
-0.09769462049007416 0.010820161551237106 1.5865955352783203
-0.11980586498975754 0.007328163832426071 1.5604560375213623
-0.11880907416343689 0.0478796660900116 1.4778496026992798
-0.06728142499923706 0.09764031320810318 1.5735955238342285
-0.09824321419000626 -0.09399335086345673 1.5093148946762085
-0.09928400814533234 0.04430585354566574 0.9658979773521423
-0.1373567283153534 -0.05640971660614014 1.8473483324050903
-0.15095263719558716 -0.06581496447324753 1.842275619506836
-0.14876475930213928 -0.07740963995456696 1.828325629234314
-0.02837306074798107 0.06094007566571236 1.459546685218811
-0.11207030713558197 0.10872567445039749 1.440970778465271
-0.1050710678100586 -0.2760365605354309 0.034880802035331726
-0.07687319070100784 0.17624174058437347 1.370971441268921
-0.08830859512090683 -0.17516040802001953 1.5642104148864746
-0.0926082655787468 -0.2558860182762146 0.3926163911819458
-0.060094546526670456 0.026605602353811264 1.5239640474319458
-0.06792831420898438 -0.037986692041158676 1.508313536643982
-0.0570400133728981 0.1218360885977745 1.488473892211914
-0.043756477534770966 0.05219075083732605 0.84273362159729
-0.09933391213417053 -0.20504681766033173 0.33235180377960205
-0.04597634822130203 0.29774603247642517 0.9469445943832397
-0.03704679757356644 0.0434778556227684 1.0347394943237305
-0.06547102332115173 -0.19201341271400452 1.2442870140075684
-0.06632894277572632 -0.16475322842597961 1.151429533958435
-0.0859798714518547 -0.23564982414245605 0.3178597688674927
-0.06792015582323074 -0.2613520622253418 0.26321709156036377
-0.09866887331008911 -0.21575137972831726 0.2508981227874756
-0.0561649352312088 -0.0029595978558063507 1.5434623956680298
-0.03875482827425003 -0.19438037276268005 0.702400267124176
-0.06500500440597534 -0.14330144226551056 0.6366981267929077
-0.04442662000656128 0.3139820992946625 1.0951464176177979
-0.03710527718067169 0.325573593378067 0.9994299411773682
-0.012358258478343487 -0.1989796757698059 1.1705989837646484
-0.09048791229724884 -0.25562193989753723 0.12447096407413483
-0.037436824291944504 0.26893991231918335 0.9929088354110718
-0.04235297814011574 0.2352757751941681 1.0338536500930786
0.014491520822048187 0.020135601982474327 1.5323071479797363
-0.05162540823221207 -0.1568482220172882 1.3931699991226196
-0.017904996871948242 0.20297950506210327 1.3450738191604614
0.02559124119579792 0.06644633412361145 1.4444150924682617
0.01109623908996582 -0.003729395568370819 1.5338512659072876
0.02571730688214302 0.27333304286003113 1.0017683506011963
0.04577069729566574 0.2721535563468933 0.9517779350280762
0.012395652011036873 -0.1704917550086975 1.3830018043518066
0.013788631185889244 0.04669318348169327 1.027881145477295
0.008017187006771564 -0.19727322459220886 1.1125848293304443
0.06797952950000763 0.18230420351028442 1.3673274517059326
0.040114689618349075 -0.03558384254574776 1.3168046474456787
0.058287348598241806 0.11789487302303314 1.49056875705719
0.033959224820137024 0.05603697896003723 1.490509033203125
0.054506100714206696 -0.028026826679706573 1.2236789464950562
0.03959488868713379 0.10063125193119049 0.9109495878219604
0.022614380344748497 -0.08023320883512497 1.7804136276245117
0.09871876984834671 0.19355973601341248 0.1423027068376541
0.1033499613404274 0.21267150342464447 0.12867319583892822
0.08731138706207275 0.2195245921611786 0.184218168258667
0.0038507506251335144 -0.20883876085281372 1.662214756011963
0.05456870049238205 -0.04367315024137497 0.6940817832946777
0.10058464854955673 0.06365270167589188 1.4555983543395996
0.06825026869773865 -0.1086886003613472 1.5118424892425537
0.11621604859828949 -0.10259243100881577 1.4434372186660767
0.06280312687158585 -0.06450573354959488 1.4240384101867676
0.09506417065858841 0.08465346693992615 0.4241812229156494
0.11375512182712555 0.0853705182671547 0.25516262650489807
0.1244453713297844 0.1824333369731903 0.28550243377685547
0.10486789792776108 0.2731434106826782 1.0094430446624756
0.09044285863637924 0.3097896873950958 0.9737398624420166
0.09085553884506226 -0.1297091692686081 0.709699273109436
0.0960698053240776 -0.0268836822360754 0.6397241353988647
0.029765257611870766 -0.13209640979766846 1.7689405679702759
0.07522605359554291 -0.1317170262336731 1.7236528396606445
0.10934408009052277 -0.0713052898645401 0.5149807929992676
0.04148981347680092 -0.0710478127002716 1.7926280498504639
0.07256226241588593 -0.08047670871019363 1.7415988445281982
0.09756151586771011 -0.07702586054801941 1.1401759386062622
0.09989188611507416 -0.06384752690792084 1.109259009361267
0.09431318938732147 -0.14280354976654053 1.0918091535568237
0.06817895174026489 -0.17557334899902344 1.6595655679702759
0.08181364089250565 -0.09796704351902008 1.5443329811096191
0.07477286458015442 -0.1448366343975067 1.5473172664642334
0.1519107073545456 0.26713481545448303 0.9628264904022217
0.11258567869663239 -0.1368527114391327 1.2870144844055176
0.12848573923110962 -0.19603392481803894 1.2279162406921387
0.11522725969552994 -0.11060452461242676 1.2408711910247803
0.17151165008544922 0.20288196206092834 0.2396262288093567
0.1540757268667221 0.12608996033668518 0.20407144725322723
0.17386966943740845 0.13947026431560516 0.19318798184394836
0.08774800598621368 -0.05331103876233101 1.7636966705322266
0.12537533044815063 -0.1560131311416626 1.2804555892944336
0.1694817692041397 0.059693511575460434 0.45749297738075256
0.14842122793197632 -0.013075210154056549 0.47597068548202515
0.1777907907962799 0.07442118227481842 0.4044029414653778
0.1344340741634369 -0.12070527672767639 1.4306902885437012
0.11794671416282654 -0.11545942723751068 1.4277610778808594
0.14147865772247314 -0.08278612792491913 1.3956571817398071
0.1194300577044487 0.06955921649932861 0.9065289497375488
0.11729642748832703 -0.11449550092220306 0.8286002278327942
0.19648407399654388 0.1412687450647354 0.30450767278671265
0.20492632687091827 0.11235320568084717 0.2952493727207184
0.15048664808273315 -0.07233718037605286 1.3925625085830688
0.1567685455083847 0.1531163901090622 1.2684543132781982
0.15806815028190613 0.188558891415596 1.2424570322036743
0.14287741482257843 -0.241449236869812 1.1070187091827393
0.16723573207855225 -0.054755356162786484 0.9707869291305542
0.17003071308135986 -0.11660899966955185 0.9593421220779419
0.19253961741924286 -0.014182962477207184 1.223120927810669
0.28969040513038635 -0.06394750624895096 1.0757073163986206
0.2835448682308197 -0.00913798063993454 1.0798144340515137
0.3114134967327118 -0.1272132843732834 1.1205790042877197
-0.30986329913139343 -0.007134260609745979 1.0069829225540161
-0.3335230350494385 -0.07116865366697311 0.9709762334823608
-0.2434520572423935 -0.10968610644340515 1.0965416431427002
-0.26037636399269104 -0.13227473199367523 1.1422293186187744
-0.20384982228279114 -0.07213631272315979 1.124221682548523
-0.19196122884750366 -0.02737458422780037 1.1586166620254517
-0.19260135293006897 -0.15252718329429626 0.8665326237678528
-0.1699208766222 0.24655181169509888 0.9932659864425659
-0.1736542284488678 0.2087719738483429 1.1070806980133057
-0.12397676706314087 -0.2548685669898987 1.0765323638916016
-0.14086928963661194 -0.16061410307884216 0.9553345441818237
-0.18404096364974976 -0.26316970586776733 0.27287641167640686
-0.16136537492275238 -0.30725038051605225 0.2961893081665039
-0.12412905693054199 -0.16595368087291718 0.47722327709198
-0.1480059027671814 -0.1963532269001007 0.8583970665931702
-0.12070489674806595 -0.17909345030784607 0.618209958076477
-0.11875393986701965 -0.18729117512702942 0.6879359483718872
-0.11026842147111893 -0.12644559144973755 0.6701552271842957
-0.10211871564388275 -0.010935783386230469 1.109239935874939
-0.09312336146831512 -0.07902509719133377 1.1311261653900146
-0.08898512274026871 0.2657064199447632 1.1877050399780273
-0.11360961943864822 -0.019008025527000427 0.8276990652084351
-0.11802465468645096 -0.3154701888561249 0.3147768974304199
-0.1003027856349945 -0.03999991714954376 1.2201634645462036
-0.083346888422966 -0.0366637259721756 1.1450319290161133
-0.10981380939483643 -0.26667654514312744 0.446708619594574
-0.13646149635314941 -0.07422982156276703 1.7619303464889526
-0.13609002530574799 -0.11170263588428497 1.7512062788009644
-0.08716440200805664 -0.1473027765750885 1.763610601425171
-0.0988994613289833 -0.18834909796714783 1.721437931060791
-0.11178618669509888 -0.17831291258335114 1.6182947158813477
-0.09618411958217621 -0.2667618989944458 0.3397127091884613
-0.04633922129869461 -0.17039284110069275 0.7561912536621094
-0.07125747203826904 -0.2894704341888428 0.274236261844635
-0.08931799232959747 -0.3160342574119568 0.28272923827171326
-0.10329647362232208 -0.23215100169181824 0.21490849554538727
-0.060279183089733124 0.0673193708062172 0.9585620760917664
-0.08796785026788712 -0.05850677564740181 1.8085254430770874
-0.10177072882652283 -0.0740131363272667 1.794614553451538
0.016417307779192924 0.2050350159406662 1.1667059659957886
-0.08731057494878769 0.19686359167099 1.1697944402694702
-0.006334402598440647 0.17419186234474182 1.230834722518921
0.022387679666280746 -0.0466865599155426 1.262017846107483
-0.004766970872879028 0.2651021182537079 1.2233772277832031
0.007184919901192188 0.24508382380008698 1.0392059087753296
0.06554251909255981 0.3043612539768219 1.1345515251159668
0.019668003544211388 0.07437010109424591 1.6875286102294922
0.04870489239692688 0.23798057436943054 1.0473275184631348
0.04995865747332573 -0.21872937679290771 0.8961473703384399
0.08066688477993011 0.10765162110328674 0.28886717557907104
0.09799166023731232 0.13291028141975403 0.2427852898836136
0.0521622933447361 -0.1083483099937439 0.6676751375198364
0.042855843901634216 0.02427797019481659 1.0637624263763428
0.07437298446893692 -0.00920841284096241 0.5602260231971741
0.08039237558841705 0.14552710950374603 1.3038073778152466
0.09022911638021469 -0.14912962913513184 1.4054862260818481
0.057242367416620255 0.06457087397575378 1.6463570594787598
0.060396239161491394 -0.014741223305463791 1.6152698993682861
0.06343188881874084 0.006712175905704498 1.5878419876098633
0.035266727209091187 -0.06777700781822205 1.8428698778152466
0.09384587407112122 -0.1548612415790558 1.328493595123291
0.13805174827575684 0.045639559626579285 0.5195898413658142
0.10390597581863403 0.05872483551502228 0.5211087465286255
0.13490869104862213 0.12498721480369568 0.3970906734466553
0.1589367836713791 0.13477309048175812 0.37144267559051514
0.10695309937000275 -0.08773143589496613 1.534247636795044
0.0934438407421112 -0.10028256475925446 1.5451596975326538
0.10941925644874573 -0.09407428652048111 1.5269274711608887
0.1190023124217987 -0.04304951801896095 0.7459730505943298
0.13498124480247498 -0.06645586341619492 0.6092496514320374
0.12796521186828613 0.029649820178747177 0.9447734951972961
0.12999573349952698 -0.056508228182792664 1.0802900791168213
0.12580683827400208 -0.11228061467409134 1.071913242340088
0.1317424327135086 -0.14218229055404663 1.0146605968475342
0.10274681448936462 -0.04868483170866966 1.658447027206421
0.11775565147399902 -0.04978625476360321 1.5687624216079712
0.12002959847450256 -0.17816582322120667 1.2137775421142578
0.12577521800994873 0.03422427177429199 1.5571367740631104
0.11825987696647644 -0.0006002523005008698 1.5956344604492188
0.18971851468086243 0.22527825832366943 0.18251463770866394
0.20117439329624176 0.2083587944507599 0.16126596927642822
0.13953086733818054 0.022968389093875885 1.5175131559371948
0.14298370480537415 0.04614658281207085 1.4882155656814575
0.15177151560783386 0.05487440153956413 1.4424246549606323
0.1487879455089569 0.0776933878660202 1.426912546157837
0.135200634598732 -0.2511054575443268 1.124677300453186
0.17098990082740784 -0.15148405730724335 0.8343070149421692
0.15421634912490845 -0.22526219487190247 1.1440666913986206
0.15237173438072205 -0.25057849287986755 1.1257362365722656
0.1988910734653473 -0.10937915742397308 0.8510916233062744
0.19882909953594208 -0.0870814248919487 0.8326075077056885
0.20880359411239624 -0.05240418016910553 0.8448198437690735
-0.21687251329421997 -0.1297832727432251 1.1625683307647705
-0.15063370764255524 -0.1500183492898941 1.2467641830444336
-0.1610604077577591 -0.14450207352638245 1.2292096614837646
-0.15048575401306152 -0.13798773288726807 1.2399358749389648
-0.1458379626274109 -0.13850712776184082 1.2585082054138184
-0.20549353957176208 -0.0004336852580308914 0.83343505859375
-0.11902635544538498 -0.10191570222377777 1.2898634672164917
-0.13804833590984344 -0.06353689730167389 1.0832819938659668
-0.14769555628299713 0.035664431750774384 1.5683051347732544
-0.12193259596824646 -0.10749292373657227 1.1981505155563354
-0.125803142786026 -0.08816994726657867 1.149369716644287
-0.12660768628120422 0.06699495017528534 1.4634079933166504
-0.12481909990310669 0.08036565780639648 1.413891077041626
-0.11712337285280228 -0.14337238669395447 1.0476937294006348
-0.08472113311290741 -0.17171157896518707 1.0071790218353271
-0.12065862864255905 -0.06666257232427597 0.7482274174690247
-0.08685920387506485 0.22387804090976715 1.2670589685440063
-0.0911291241645813 0.07412807643413544 1.6652305126190186
-0.09951388835906982 -0.2121405005455017 0.06457680463790894
-0.114168182015419 -0.1994122862815857 0.05275662988424301
-0.08932331204414368 0.023146528750658035 0.8440439105033875
-0.015271921642124653 0.09807287156581879 0.8400683403015137
-0.06107132136821747 -0.02123430371284485 0.8262286186218262
0.001093752682209015 0.11985549330711365 1.336472988128662
-0.025031043216586113 -0.11672210693359375 0.7648665904998779
-0.03515797108411789 -0.19871383905410767 1.6369588375091553
-0.016306091099977493 0.01864391565322876 0.8614829778671265
-0.007336761802434921 -0.022826174274086952 0.8415558338165283
0.00750990305095911 -0.11569356173276901 0.84348464012146
-0.07752421498298645 -0.1680644303560257 0.8570609092712402
0.0006261542439460754 -0.22765260934829712 0.8449710607528687
0.020713960751891136 -0.10612165927886963 0.8102015256881714
-0.005518307909369469 -0.16371552646160126 0.8565784692764282
0.009260572493076324 -0.03015141934156418 1.50736665725708
0.016002727672457695 -0.0323965810239315 0.8351584672927856
0.019685901701450348 -0.0464993417263031 0.8106616735458374
0.018332988023757935 -0.015110593289136887 1.5868505239486694
0.023203782737255096 -0.008433844894170761 1.5597537755966187
0.030029674991965294 -0.1198444813489914 0.8287417888641357
0.12050053477287292 0.06427694857120514 0.8382374048233032
0.08363798260688782 0.1336563527584076 0.3037678003311157
0.04010343551635742 -0.03231791406869888 0.7989816665649414
0.06353013217449188 0.2010534405708313 1.200819492340088
0.11341285705566406 0.04622367024421692 0.39142706990242004
0.1105218231678009 0.09287665039300919 0.34826523065567017
0.12633490562438965 0.06650237739086151 0.35080504417419434
0.12394049763679504 0.05949201434850693 0.28719276189804077
0.10501989722251892 0.049191784113645554 1.5292606353759766
0.06986436247825623 -0.012757453136146069 0.8345966339111328
0.09532931447029114 -0.03410666063427925 0.8113642930984497
0.112052321434021 -0.08042305707931519 1.2506767511367798
0.1436687707901001 0.012494735419750214 0.4256199896335602
0.09723417460918427 0.011279206722974777 1.6325061321258545
0.09829908609390259 -0.05244002491235733 1.3117594718933105
0.15753662586212158 0.06473220884799957 0.3529207706451416
0.08311862498521805 0.26983121037483215 1.197948694229126
0.11412765085697174 -0.048044539988040924 1.2285189628601074
0.16708652675151825 0.17650356888771057 0.28760826587677
0.1335182636976242 0.2883109450340271 1.1085102558135986
0.15057379007339478 0.16959719359874725 0.31767353415489197
0.1666996330022812 0.06655675917863846 0.2632647454738617
0.13540062308311462 0.12966236472129822 1.3232101202011108
0.12878616154193878 -0.11071566492319107 1.4744573831558228
0.13862355053424835 -0.09687811881303787 1.4427624940872192
0.12766262888908386 -0.10930217802524567 1.4741284847259521
0.1585177779197693 -0.06952094286680222 1.4279273748397827
0.14294947683811188 -0.201246976852417 1.1942293643951416
0.1277494728565216 -0.21268291771411896 1.1837984323501587
0.15258783102035522 0.17966152727603912 1.2211424112319946
0.1705687791109085 0.23133309185504913 1.1549038887023926
0.1669461727142334 0.2294587343931198 1.1178488731384277
0.16923217475414276 -0.06434712558984756 1.2614359855651855
0.1602373719215393 -0.11449609696865082 1.2541253566741943
0.1561826765537262 -0.1773698627948761 0.8481975197792053
0.1706756055355072 -0.13726788759231567 1.2561594247817993
0.21945831179618835 -0.12196939438581467 1.1475061178207397
0.20225408673286438 -0.034674398601055145 1.1652781963348389
0.2207295447587967 -0.08312481641769409 1.1286052465438843
0.3046734631061554 -0.11746416240930557 1.1635539531707764
0.3266306519508362 -0.02038264274597168 1.0569226741790771
0.33165594935417175 -0.10419198125600815 1.0791945457458496
-0.12914948165416718 -0.25151869654655457 1.119369626045227
-0.13055920600891113 -0.18888509273529053 1.184436559677124
-0.1399814486503601 -0.18085956573486328 1.2061872482299805
-0.11787302792072296 -0.23567397892475128 1.1252199411392212
-0.14268070459365845 0.05979734659194946 1.4952737092971802
-0.14998584985733032 0.05272740125656128 1.477342128753662
-0.15789616107940674 0.08247897028923035 1.4311139583587646
-0.15952633321285248 -0.07543428242206573 1.722791314125061
-0.15407952666282654 -0.112677663564682 1.6363383531570435
-0.15332944691181183 -0.2668784260749817 0.3326888084411621
-0.12815618515014648 -0.06740465015172958 0.8322770595550537
-0.1257166862487793 -0.09815658628940582 0.8232444524765015
-0.1541130393743515 0.2717336416244507 0.9669941663742065
-0.07877989113330841 -0.15648289024829865 1.243823528289795
-0.11147967725992203 -0.04052470251917839 0.7964816093444824
-0.10780555009841919 -0.08888216316699982 1.7744536399841309
-0.07794282585382462 -0.1250373125076294 1.1317198276519775
-0.03878737986087799 -0.18553103506565094 1.1247708797454834
-0.08852186799049377 0.23198488354682922 1.0884857177734375
-0.0019733388908207417 0.23494219779968262 1.0854413509368896
-0.061694368720054626 -0.019601313397288322 1.1621403694152832
-0.049976199865341187 -0.11409492790699005 0.8435431718826294
-0.03604407608509064 -0.18994098901748657 1.0667297840118408
-0.054247770458459854 0.02525762841105461 1.058620572090149
-0.0316091813147068 -0.18861864507198334 1.736474633216858
0.019995523616671562 -0.090979665517807 0.7425535917282104
-0.06513158231973648 0.13235491514205933 1.3044549226760864
0.09657161682844162 0.22834211587905884 0.14262279868125916
0.11601296812295914 0.31801819801330566 1.0384047031402588
0.0781908854842186 0.23921889066696167 1.1079661846160889
0.048206694424152374 0.32951638102531433 1.0509172677993774
0.08833165466785431 0.09519273042678833 0.845819890499115
0.16258883476257324 0.2522942125797272 0.1952705830335617
0.11160548031330109 -0.03637511283159256 0.8316934704780579
0.147428497672081 0.03997194766998291 0.3950100541114807
0.1333504468202591 -0.13749617338180542 1.388113021850586
0.13628780841827393 -0.13761109113693237 1.298466682434082
0.19322016835212708 0.0024013519287109375 0.8414039611816406
0.20074085891246796 -0.04921872913837433 0.9039515256881714
0.3378813564777374 -0.06468307226896286 1.056415319442749
-0.2752392888069153 -0.13214604556560516 1.1023480892181396
-0.20452792942523956 -0.0784301906824112 0.9060958027839661
-0.21911391615867615 -0.07303601503372192 0.8494155406951904
-0.15766172111034393 0.06372842192649841 1.4258815050125122
-0.16919569671154022 0.13728724420070648 1.2577157020568848
-0.13964319229125977 -0.055598702281713486 1.548130750656128
-0.13624067604541779 -0.05408668518066406 1.0462926626205444
-0.13328152894973755 -0.0849144384264946 1.0892837047576904
-0.1402149796485901 -0.05034003406763077 1.5490455627441406
-0.13508982956409454 -0.06842130422592163 1.535576343536377
-0.13747133314609528 -0.06138314679265022 1.543980598449707
-0.13780495524406433 -0.06224028393626213 1.5478438138961792
-0.141164630651474 -0.07746841013431549 1.535850167274475
-0.13965973258018494 -0.3242366909980774 0.17482542991638184
-0.14833073318004608 -0.15324901044368744 1.6922273635864258
-0.025951625779271126 -0.023775620386004448 1.2188400030136108
-0.09088172018527985 -0.3236904442310333 0.06791988760232925
-0.039972227066755295 -0.04311308264732361 1.2603967189788818
0.0008396987104788423 -0.020001526921987534 1.1718323230743408
-0.04875320941209793 0.09553684294223785 0.9172757863998413
-0.03865991532802582 -0.09318371117115021 1.7916131019592285
-0.03106147050857544 -0.14785219728946686 0.7028879523277283
-0.038905225694179535 0.14922995865345 1.2647017240524292
0.022421810775995255 -0.19062300026416779 1.0110728740692139
-0.01086372323334217 -0.20630308985710144 1.2108207941055298
0.009167970158159733 0.21243931353092194 1.1322509050369263
0.0999191626906395 0.17039532959461212 0.26064321398735046
0.08070026338100433 -0.17107295989990234 0.9878835678100586
0.12640497088432312 -0.16662153601646423 0.9563267230987549
0.08214621990919113 0.017455171793699265 1.5521368980407715
0.08983663469552994 -0.16136261820793152 1.1650396585464478
0.04742559790611267 -0.02276666648685932 1.1692397594451904
0.10310102999210358 -0.011714883148670197 1.074326992034912
0.08262476325035095 0.06349751353263855 0.9458817839622498
0.16628387570381165 0.24058867990970612 0.11798790842294693
0.13997511565685272 0.24504366517066956 0.12175911664962769
0.1942020207643509 0.23965075612068176 0.13416464626789093
0.18576082587242126 0.08868153393268585 0.2546939253807068
0.12551739811897278 -0.10837680101394653 1.4706852436065674
0.12586885690689087 -0.10854066163301468 1.4714876413345337
0.11349380016326904 -0.09971962124109268 1.3215478658676147
0.13432350754737854 -0.12430647015571594 1.2926325798034668
0.18347816169261932 0.27031728625297546 1.0450364351272583
0.18381518125534058 0.2583272159099579 0.9928526282310486
0.194322407245636 0.26569774746894836 0.9897590279579163
0.3356908857822418 -0.006978616118431091 1.0647064447402954
0.35921069979667664 -0.07257585972547531 1.027565836906433
0.38372576236724854 -0.0898633748292923 1.0097812414169312
-0.2584705948829651 -0.04627732187509537 1.0356295108795166
-0.14045599102973938 -0.21941964328289032 1.1655303239822388
-0.12442122399806976 -0.2659974694252014 0.36480674147605896
-0.10710188001394272 0.2663135528564453 0.9398934841156006
-0.08905169367790222 -0.142136350274086 1.0844736099243164
-0.03224549442529678 -0.04199010506272316 0.8336142301559448
-0.048159677535295486 -0.04376557841897011 0.7879902720451355
-0.04189508780837059 -0.09352518618106842 0.8080146908760071
-0.00224996916949749 0.023551683872938156 1.1032525300979614
0.027434494346380234 -0.20801356434822083 0.8302085995674133
0.08874544501304626 0.019793890416622162 0.8509323596954346
0.09993951767683029 0.2469952404499054 1.0685570240020752
0.1101575717329979 -0.025821978226304054 1.5701149702072144
0.11925187706947327 0.00456715002655983 1.5464407205581665
0.18799269199371338 -0.1167474165558815 0.9011333584785461
-0.14401116967201233 -0.22517573833465576 1.130375862121582
-0.14957982301712036 0.0012451373040676117 1.5834729671478271
-0.08055560290813446 0.270990788936615 0.992323637008667
-0.1311645358800888 0.030431710183620453 1.6156526803970337
-0.09829870611429214 -0.005910161882638931 1.6022007465362549
-0.05980585515499115 -0.012910332530736923 1.5798239707946777
0.051324475556612015 -0.18649554252624512 1.0659536123275757
0.07694105058908463 -0.16297981142997742 1.248801827430725
0.11909126490354538 0.13392631709575653 0.19521412253379822
0.11700756847858429 -0.13099044561386108 1.2136582136154175
0.12497977912425995 -0.10468285530805588 1.1640156507492065
0.13159918785095215 0.07215811312198639 1.4478967189788818
0.10838179290294647 0.10557383298873901 1.455812692642212
0.12566262483596802 -0.0580233559012413 1.1768537759780884
0.11529133468866348 -0.07379542291164398 0.8159089088439941
0.10624860227108002 -0.1998460292816162 1.2136307954788208
0.138392373919487 0.14058275520801544 1.34736967086792
-0.1523597687482834 0.11619610339403152 1.3545149564743042
-0.11787872761487961 -0.1914578378200531 0.35736802220344543
0.03677697107195854 -0.08413863182067871 0.7020668983459473
0.030258148908615112 -0.1836557388305664 1.7164759635925293
-0.17157508432865143 0.2486974596977234 1.0457253456115723
-0.1382921189069748 -0.14136621356010437 1.2626144886016846
-0.07631019502878189 -0.2218259871006012 0.4000643193721771
0.0011427290737628937 0.1301649659872055 1.4892667531967163
0.11779453605413437 0.2366849184036255 0.11941713839769363
0.11057734489440918 -0.09329488128423691 1.5277235507965088
0.11040079593658447 -0.09343165159225464 1.5247858762741089
0.12208792567253113 -0.10034829378128052 1.426383376121521
0.1776999831199646 0.11441393196582794 0.2375047504901886
0.1889319270849228 0.14928926527500153 0.24920107424259186
0.21185223758220673 -0.14252951741218567 1.1944279670715332
-0.18092116713523865 -0.15259861946105957 0.9247713088989258
-0.1555853635072708 0.09160857647657394 1.3899617195129395
-0.1542181372642517 0.0892028659582138 1.3911486864089966
-0.15939702093601227 0.08610750734806061 1.391200304031372
-0.08474947512149811 -0.2714000642299652 0.21000581979751587
-0.0312734879553318 -0.09449698030948639 0.8374202251434326
0.09350495040416718 0.16364037990570068 0.20821507275104523
0.2640034854412079 -0.14031140506267548 1.1480743885040283
0.09289077669382095 -0.12497158348560333 1.6711468696594238
0.13135918974876404 -0.09123922884464264 0.7660068273544312
0.1459416002035141 0.0839962363243103 1.403490662574768
0.14166943728923798 0.1148526668548584 1.3634543418884277
0.09562283009290695 0.24854955077171326 0.17001479864120483
0.3774585425853729 -0.5032572746276855 0.8983593583106995
0.367674320936203 -0.4582056403160095 0.8895216584205627
0.3691624402999878 -0.4733526110649109 0.8879522681236267
0.36034631729125977 -0.4767031669616699 0.8947996497154236
0.3698263466358185 -0.5004466772079468 0.8891089558601379
0.3736618459224701 -0.49150165915489197 0.9063313603401184
0.37164032459259033 -0.3159669041633606 0.9421724677085876
0.3551527261734009 -0.3227250874042511 0.9335349202156067
0.37055495381355286 -0.34589457511901855 0.9330856800079346
0.3701612651348114 -0.3568335771560669 0.931779682636261
0.3518287241458893 -0.11408738791942596 0.9374597668647766
0.3488444685935974 -0.13790330290794373 0.9494373798370361
0.3492780327796936 -0.1271369904279709 0.9243153929710388
0.36257967352867126 -0.32937920093536377 0.8943538665771484
0.36541271209716797 -0.34822505712509155 0.9018091559410095
0.3766177296638489 -0.3917960822582245 0.9438682794570923
0.374359130859375 -0.3730120062828064 0.9363601207733154
0.34970125555992126 -0.16478335857391357 0.8924294710159302
0.3528474271297455 -0.17988067865371704 0.9129178524017334
0.37541821599006653 -0.2390032559633255 0.962242066860199
0.36490780115127563 -0.22809991240501404 0.9596388936042786
0.38362178206443787 -0.4742051959037781 0.9228758215904236
0.3717401623725891 -0.4446902871131897 0.883762538433075
0.3585103154182434 -0.12144267559051514 0.9152389168739319
0.35331156849861145 -0.1287078708410263 0.9091710448265076
0.36471518874168396 0.0746406614780426 1.074351191520691
0.3615415692329407 0.05991891771554947 1.067259430885315
0.3592587113380432 0.07988813519477844 1.0533859729766846
0.3794262409210205 -0.4186953604221344 0.9277908802032471
0.3805679976940155 -0.4453369677066803 0.9240291118621826
0.3569796085357666 -0.12357528507709503 0.9070644378662109
0.35622483491897583 -0.11834391951560974 0.8978580236434937
0.37365803122520447 -0.5079157948493958 0.8423954844474792
0.373670369386673 -0.528855562210083 0.8448188900947571
0.36545926332473755 0.08841466158628464 1.0715630054473877
0.3656699061393738 0.07060906291007996 1.0787642002105713
0.3604365289211273 0.09050658345222473 1.0663334131240845
0.36468884348869324 0.08362627029418945 1.052493691444397
0.3838987946510315 -0.578356146812439 0.8824945688247681
0.3922801613807678 -0.602645993232727 0.8854789733886719
0.38324838876724243 -0.6000753045082092 0.8675751686096191
0.364826500415802 -0.2532259225845337 0.892604410648346
0.3715684413909912 -0.27395811676979065 0.8850039839744568
0.3646255135536194 -0.2949071526527405 0.8731526136398315
0.3691839575767517 -0.29220879077911377 0.8683568239212036
0.3718484342098236 0.06767673790454865 1.0822546482086182
0.3646790385246277 0.09594640880823135 1.0626273155212402
0.3885524570941925 -0.41728270053863525 0.9435539841651917
0.3950687050819397 -0.41581588983535767 0.9439737200737
0.3854319155216217 -0.4343878924846649 0.938109815120697
0.396775484085083 -0.45652106404304504 0.935245156288147
0.36479708552360535 -0.20282500982284546 0.896056056022644
0.3661804795265198 -0.2197626829147339 0.8854095935821533
0.3624638617038727 -0.22624808549880981 0.8889070749282837
0.3693073093891144 0.091365747153759 1.0654590129852295
0.3762584328651428 0.06469149142503738 1.0773080587387085
0.3681800961494446 0.0801609456539154 1.0532649755477905
0.3543323278427124 -0.0772937461733818 0.8797512054443359
0.35428398847579956 -0.08417489379644394 0.8698514699935913
0.3547362983226776 -0.10531291365623474 0.8883169293403625
0.3579714298248291 -0.09387040138244629 0.8813433647155762
0.35050228238105774 -0.08867044746875763 0.8799818754196167
0.36975613236427307 -0.31672757863998413 0.8546411395072937
0.369891494512558 -0.29836705327033997 0.857490062713623
0.3670104146003723 -0.30056360363960266 0.8438928127288818
0.3681720495223999 -0.30787530541419983 0.8415421843528748
0.3757404685020447 0.07207485288381577 1.0594555139541626
0.39751696586608887 -0.6138739585876465 0.8888415098190308
0.39709699153900146 -0.6042569279670715 0.8716421127319336
0.3999842703342438 -0.6186351776123047 0.882535457611084
0.3975695073604584 -0.6259450912475586 0.8824486136436462
0.39168229699134827 -0.5947405099868774 0.8615172505378723
0.38104167580604553 -0.11210346221923828 0.9290061593055725
0.36871790885925293 -0.12251073122024536 0.9109976887702942
0.38112375140190125 -0.4839250445365906 0.8398191928863525
0.38553762435913086 -0.5152862071990967 0.8380419015884399
0.38699620962142944 -0.5437823534011841 0.8452657461166382
0.3897169828414917 -0.22167366743087769 0.9648556709289551
0.38626405596733093 -0.24425099790096283 0.9585195779800415
0.3950980603694916 -0.254044771194458 0.9491009712219238
0.4012107849121094 -0.40774381160736084 0.9487225413322449
0.39630457758903503 -0.4165554940700531 0.9376193284988403
0.3983874022960663 -0.4763525724411011 0.9259937405586243
0.3899969756603241 -0.3731400966644287 0.9444282054901123
0.389779269695282 -0.4597707986831665 0.8674372434616089
0.38942891359329224 -0.4991748631000519 0.8543639183044434
0.39460328221321106 -0.21923372149467468 0.9594774842262268
0.4026111960411072 -0.3792559504508972 0.9224777817726135
0.40010473132133484 -0.35807591676712036 0.9201996326446533
0.40278589725494385 -0.39829036593437195 0.9199512004852295
0.39992088079452515 -0.5628745555877686 0.8738792538642883
0.39961153268814087 -0.5490776896476746 0.8658580780029297
0.38173866271972656 -0.35307854413986206 0.8746444582939148
0.3964056372642517 -0.35824450850486755 0.8891328573226929
0.38902315497398376 -0.3790627717971802 0.8856115341186523
0.39649689197540283 -0.3823329210281372 0.89431232213974
0.39499589800834656 -0.30080342292785645 0.9362703561782837
0.39589938521385193 -0.3412703573703766 0.9265540838241577
0.40265822410583496 -0.46734312176704407 0.9051424264907837
0.40387505292892456 -0.4892212748527527 0.8935181498527527
0.3985499441623688 -0.5014992952346802 0.8979517221450806
0.39946606755256653 -0.4482794404029846 0.8833029866218567
0.4015518128871918 -0.45758622884750366 0.8751176595687866
0.38902437686920166 -0.3094436526298523 0.892825722694397
0.3910132646560669 -0.32789304852485657 0.8873841762542725
0.38633933663368225 -0.293940007686615 0.8822649121284485
0.38913628458976746 -0.3175135552883148 0.8812687993049622
0.3902076482772827 -0.33993980288505554 0.8858031630516052
0.3909619450569153 -0.2898104786872864 0.9080841541290283
0.39803531765937805 -0.2732730805873871 0.9194761514663696
0.38184860348701477 -0.25483524799346924 0.8968772888183594
0.3908061683177948 -0.2715080678462982 0.9076683521270752
0.4019322395324707 -0.46924155950546265 0.8786299824714661
0.4059051275253296 -0.49302199482917786 0.8776373863220215
0.39831939339637756 -0.48278799653053284 0.8742269277572632
0.4127349853515625 -0.4828585982322693 0.8754389882087708
0.3918689489364624 -0.13251005113124847 0.9358092546463013
0.35742029547691345 -0.44721126556396484 0.9135876893997192
0.3533894419670105 -0.4585649371147156 0.8998441696166992
0.3603058457374573 -0.3691462278366089 0.9227025508880615
0.35839587450027466 -0.3655511140823364 0.9197285771369934
0.3573102056980133 -0.3872416615486145 0.9245321154594421
0.35811442136764526 -0.37177038192749023 0.9144250154495239
0.3554610013961792 -0.3893384337425232 0.9175189733505249
0.35948726534843445 -0.32353368401527405 0.9140782356262207
0.3599667251110077 -0.33766084909439087 0.9097373485565186
0.3612367510795593 -0.2983664274215698 0.9187532663345337
0.36777982115745544 -0.38635098934173584 0.9272655844688416
0.37300431728363037 -0.46679311990737915 0.863071084022522
0.36707475781440735 -0.49157148599624634 0.8847421407699585
0.363993763923645 -0.3593260645866394 0.8954403400421143
0.3742494285106659 -0.5222175121307373 0.8836205005645752
0.3740719258785248 -0.5449197292327881 0.8742130398750305
0.369720458984375 -0.5244300961494446 0.8736711144447327
0.37820330262184143 -0.5658918619155884 0.8791826963424683
0.360405832529068 -0.11063054949045181 0.9580376744270325
0.3775947690010071 -0.18576863408088684 1.0065391063690186
0.3737342953681946 -0.19327545166015625 0.9955809116363525
0.37985339760780334 -0.1983834207057953 0.9999881982803345
0.35894525051116943 -0.20376968383789062 0.9059164524078369
0.3579798638820648 0.07669121026992798 1.0408231019973755
0.36973217129707336 0.04252219945192337 1.074202537536621
0.3700423836708069 0.030964002013206482 1.0640950202941895
0.3628779351711273 0.03664021193981171 1.0577219724655151
0.38243892788887024 -0.32458847761154175 0.9448670744895935
0.3906235694885254 -0.49601733684539795 0.9299670457839966
0.3798171579837799 -0.5660039782524109 0.8553597331047058
0.3604654371738434 0.003085523843765259 1.0088977813720703
0.3668343722820282 -0.027499496936798096 0.9865528345108032
0.38586127758026123 -0.2977617383003235 0.9592788815498352
0.38327088952064514 -0.305947870016098 0.9494597911834717
0.38305869698524475 -0.35357990860939026 0.9380443096160889
0.3861314356327057 -0.573035717010498 0.8562639951705933
0.3955206871032715 -0.6194151639938354 0.8922457098960876
0.3921164572238922 -0.627204954624176 0.8929564952850342
0.3920345604419708 -0.6173226237297058 0.8753342628479004
0.36555856466293335 -0.07915613055229187 0.9675267934799194
0.37225863337516785 -0.10626731067895889 0.9581267833709717
0.39087948203086853 -0.3530861735343933 0.9357832670211792
0.35483914613723755 -0.11059559881687164 0.9355601668357849
0.3798234462738037 -0.5374147891998291 0.8422110080718994
0.386595219373703 -0.1435057371854782 1.0367902517318726
0.38938596844673157 -0.14222663640975952 1.034540057182312
0.3869377076625824 -0.149549663066864 1.0192804336547852
0.39258360862731934 -0.1622738540172577 1.0253878831863403
0.39500734210014343 -0.17633582651615143 1.024139404296875
0.37656790018081665 -0.141845241189003 0.9987339973449707
0.38577401638031006 -0.1463421881198883 1.0008692741394043
0.39895161986351013 -0.6305098533630371 0.8941582441329956
0.3821948766708374 -0.3686697483062744 0.873835027217865
0.38241541385650635 -0.383277028799057 0.8768195509910583
0.3778054416179657 -0.38808968663215637 0.8761906623840332
0.37105199694633484 -0.3424583971500397 0.8688770532608032
0.3930628001689911 -0.15956097841262817 1.024520754814148
0.3991325795650482 -0.17233508825302124 1.0205134153366089
0.3696950674057007 -0.12421464920043945 0.8978347778320312
0.39715060591697693 -0.14900466799736023 1.0270233154296875
0.3950936496257782 -0.15565714240074158 1.0161144733428955
0.40112727880477905 -0.3956984877586365 0.9439852237701416
0.3631930947303772 -0.11786995083093643 0.8692319989204407
0.35750043392181396 -0.11424025148153305 0.8656567931175232
0.3594137728214264 -0.1242346316576004 0.8494764566421509
0.3620661795139313 -0.13882100582122803 0.8509577512741089
0.3836040794849396 -0.11062818020582199 0.9530631303787231
0.39773181080818176 -0.17900550365447998 1.0014997720718384
0.39816930890083313 -0.41498684883117676 0.9226455092430115
0.40086647868156433 -0.4387843906879425 0.9180105328559875
0.3734191954135895 -0.13567784428596497 0.8897798657417297
0.37142035365104675 -0.14932842552661896 0.8848055601119995
0.3675849437713623 -0.13637788593769073 0.874689519405365
0.40286552906036377 -0.43513888120651245 0.9100743532180786
