0.44971054792404175 -0.02938871458172798 1.1656463146209717
0.4249749183654785 -0.0042743319645524025 1.291613221168518
0.4982706904411316 -0.04763223975896835 1.1005141735076904
0.5201696157455444 -0.05858108401298523 1.0520777702331543
0.5036256909370422 -0.07869738340377808 1.1350055932998657
0.6252003908157349 -0.11942082643508911 0.8508023619651794
0.635654866695404 -0.13958391547203064 0.8382754325866699
0.6414909362792969 -0.18227188289165497 0.9125912189483643
0.6928855776786804 -0.10593512654304504 1.083289384841919
0.7381254434585571 -0.12624043226242065 0.8612028360366821
-0.3765908181667328 -0.028242839500308037 0.58608478307724
-0.3335152268409729 -0.02866639755666256 0.5446571707725525
-0.29009726643562317 0.08491119742393494 1.039661169052124
-0.2433861345052719 0.08619032800197601 1.1285080909729004
-0.20877832174301147 0.05418546497821808 1.1816394329071045
0.7068966031074524 -0.12636332213878632 0.8935827612876892
0.7460147142410278 -0.1720263510942459 0.6594600677490234
0.7558625340461731 -0.17537006735801697 0.6762329339981079
-0.4157649278640747 -0.018930649384856224 0.8273396492004395
-0.3468632698059082 -0.006987910717725754 0.7598168849945068
-0.33658960461616516 -0.029337042942643166 0.7145392894744873
0.5154372453689575 -0.03278537094593048 1.4978175163269043
0.760809063911438 -0.153517484664917 0.6676835417747498
0.754634439945221 -0.1486714482307434 0.9859408140182495
-0.2685245871543884 0.09549111872911453 1.28117036819458
0.7233362793922424 -0.11558393388986588 1.0779931545257568
-0.35592520236968994 0.013951566070318222 0.8326512575149536
0.6625769138336182 -0.21073605120182037 0.7199699282646179
0.7158339619636536 -0.12163510918617249 1.0618338584899902
-0.413205087184906 -0.04037805646657944 0.7894338369369507
-0.3672999143600464 -0.14169175922870636 0.959564208984375
-0.3713791072368622 -0.13772177696228027 0.9724005460739136
-0.3566778004169464 -0.1607629805803299 0.9701810479164124
-0.3618946373462677 -0.16000103950500488 0.9817591905593872
-0.34256452322006226 -0.11070817708969116 1.0306859016418457
-0.34667453169822693 -0.12618394196033478 1.0096558332443237
-0.337251216173172 -0.10872581601142883 0.9815127849578857
-0.33464884757995605 -0.08549058437347412 1.0161292552947998
-0.3350204527378082 -0.14096514880657196 1.0192047357559204
-0.338775634765625 -0.17241111397743225 1.0078232288360596
-0.3221607208251953 -0.07393389195203781 1.0969982147216797
-0.31652936339378357 -0.16875621676445007 1.0096280574798584
-0.3320172429084778 -0.132228821516037 1.0065730810165405
-0.31566670536994934 -0.15146830677986145 1.0505897998809814
-0.317487895488739 -0.12493468075990677 1.0382120609283447
-0.3105682134628296 -0.05932141840457916 1.0667725801467896
-0.31002336740493774 -0.1151457279920578 1.039849042892456
-0.3132856488227844 -0.12463469058275223 1.0629035234451294
-0.3198604881763458 -0.10187637805938721 1.0917234420776367
-0.33643868565559387 -0.0571693480014801 1.1281423568725586
-0.32577526569366455 -0.1111169159412384 1.1241681575775146
-0.30050331354141235 -0.008031133562326431 1.1576062440872192
-0.3089997172355652 -0.012950509786605835 1.1110600233078003
-0.32726386189460754 -0.06110847741365433 1.1621500253677368
-0.27307528257369995 -0.012643637135624886 1.1021552085876465
-0.2796115279197693 -0.04723277688026428 1.2185771465301514
-0.2924368977546692 -0.10807469487190247 1.1739076375961304
-0.2744821608066559 0.006457207724452019 1.1450345516204834
-0.2396649420261383 -0.001100289635360241 1.1590700149536133
-0.2477320432662964 0.004742151126265526 1.2163375616073608
-0.2226998507976532 0.005116380751132965 1.2182908058166504
-0.21893644332885742 -0.05322220176458359 1.2912311553955078
-0.25594574213027954 -0.08125040680170059 1.224377155303955
-0.2149500548839569 0.010210681706666946 1.2638969421386719
-0.24068927764892578 -0.020535441115498543 1.2706869840621948
-0.2034488469362259 0.0075539760291576385 1.3032139539718628
-0.18913784623146057 0.0027061551809310913 1.3394429683685303
-0.18104656040668488 -0.04669284075498581 1.349642038345337
-0.2062302976846695 -0.0912202000617981 1.2484211921691895
-0.1901346743106842 0.05588795244693756 1.7509151697158813
-0.14320577681064606 0.10761676728725433 1.4108785390853882
-0.13283032178878784 0.06645915657281876 0.8740348815917969
-0.17934808135032654 0.017213528975844383 0.8795031309127808
-0.15569035708904266 -0.07535967975854874 0.885642409324646
-0.19858500361442566 -0.10419247299432755 0.875705361366272
-0.17509636282920837 0.06487268209457397 1.65455961227417
-0.19498391449451447 0.039227064698934555 1.7737393379211426
-0.16465097665786743 0.04823177307844162 1.7209374904632568
-0.14708311855793 0.078216552734375 1.6687772274017334
-0.15743499994277954 0.060955751687288284 1.6198439598083496
-0.11659060418605804 0.0008393153548240662 1.0473535060882568
-0.1540132611989975 -0.05208059772849083 1.0105013847351074
-0.15961919724941254 -0.12157991528511047 0.9990747570991516
-0.1511005312204361 0.039836667478084564 1.5484404563903809
-0.2720467150211334 -0.08131606131792068 0.06373145431280136
-0.2858957052230835 -0.14354582130908966 0.03101401776075363
-0.2868371903896332 -0.16912876069545746 0.04798685386776924
-0.15009945631027222 -0.03154078125953674 1.3997464179992676
-0.1431938260793686 0.011654887348413467 1.3455772399902344
-0.13498780131340027 -0.013992462307214737 1.3269751071929932
-0.1581890881061554 -0.044367410242557526 1.387203335762024
-0.14053788781166077 -0.08629470318555832 1.3447449207305908
-0.21867509186267853 -0.046352602541446686 0.4840407967567444
-0.21891607344150543 -0.07455005496740341 0.40121039748191833
-0.22935427725315094 -0.025183744728565216 0.33537647128105164
-0.23335567116737366 -0.04878612607717514 0.3676708936691284
-0.16017423570156097 0.05644989386200905 1.6896508932113647
-0.13659808039665222 -0.055379562079906464 1.2958321571350098
-0.1384398490190506 -0.06500028818845749 1.2522130012512207
-0.13968928158283234 -0.09418728947639465 1.282961368560791
-0.164912149310112 -0.11012305319309235 1.2835944890975952
-0.22398777306079865 -0.01400815136730671 0.26553332805633545
-0.15002311766147614 -0.028887886554002762 1.5464153289794922
-0.14250217378139496 0.04444511607289314 1.5491687059402466
-0.14773288369178772 0.015813805162906647 1.5433214902877808
-0.18689708411693573 -0.07913661748170853 0.5826692581176758
-0.1079978495836258 0.04146569222211838 1.7867872714996338
-0.12450474500656128 -0.11276151239871979 1.2210488319396973
-0.11613143980503082 -0.03562547266483307 1.1675907373428345
-0.1336585432291031 -0.12797094881534576 0.7565900683403015
-0.11579924076795578 0.093888059258461 1.7301629781723022
-0.12835754454135895 -0.06564846634864807 1.4146769046783447
-0.10484825074672699 -0.11769881844520569 0.858360767364502
-0.14169080555438995 -0.13137266039848328 0.880494236946106
-0.12445801496505737 -0.20206204056739807 0.9213768243789673
-0.1081317812204361 -0.2170044183731079 0.856500506401062
-0.2608981430530548 -0.20481619238853455 0.07033669203519821
-0.07466574013233185 0.1190786361694336 1.7287150621414185
-0.1014215350151062 0.052734725177288055 1.7726860046386719
-0.1513434648513794 -0.005879364907741547 1.454519510269165
-0.13114623725414276 -0.0326535627245903 1.504940152168274
-0.18992169201374054 6.835535168647766e-05 0.33333852887153625
-0.21828116476535797 -0.02383521944284439 0.21766328811645508
-0.2513633072376251 -0.20094190537929535 0.11143475025892258
-0.22355535626411438 -0.01586798019707203 0.0705043375492096
-0.110446497797966 -0.011280734091997147 1.3293254375457764
-0.1671992391347885 -0.10707936435937881 0.5562609434127808
-0.21594096720218658 -0.16450051963329315 0.01344933919608593
-0.2586052417755127 -0.1675644814968109 0.006087383721023798
-0.10507271438837051 0.04021101072430611 1.565747857093811
-0.10459377616643906 0.008012041449546814 1.5222843885421753
-0.03090432472527027 -0.21898970007896423 0.9135938286781311
-0.08224862813949585 0.0892249047756195 0.869217574596405
-0.21841029822826385 -0.12824508547782898 0.2754083573818207
-0.19403861463069916 -0.12480686604976654 0.1990080177783966
-0.20309562981128693 -0.025653570890426636 0.11603742092847824
-0.09468252956867218 -0.007628098130226135 1.2958451509475708
-0.10199489444494247 -0.027594035491347313 1.2537494897842407
-0.0710013210773468 -0.1301392912864685 1.3276336193084717
-0.13744761049747467 -0.03620867058634758 0.6747708320617676
-0.11515295505523682 -0.13032713532447815 0.7458209991455078
-0.07424117624759674 -0.1172514259815216 0.8182265758514404
-0.18599292635917664 -0.1311551332473755 0.16620850563049316
-0.20612618327140808 -0.19554974138736725 0.08094076067209244
-0.12295497953891754 -0.08383101969957352 1.4995474815368652
-0.09401082247495651 0.001739501953125 1.3655325174331665
-0.06406005471944809 -0.0027897432446479797 1.298901081085205
-0.13646727800369263 -0.1104484349489212 0.5786533355712891
-0.11148899048566818 -0.09033817797899246 0.5800445079803467
-0.15381091833114624 0.00477431807667017 0.5184887647628784
-0.09241820871829987 -0.07245482504367828 1.469834804534912
-0.07024261355400085 -0.027802079916000366 1.4482141733169556
-0.10089803487062454 0.01197703555226326 1.406447172164917
-0.12282119691371918 -0.031227897852659225 0.5243120789527893
-0.058986421674489975 0.0701359212398529 1.7740873098373413
-0.11234014481306076 -0.12340448796749115 1.638840675354004
-0.03308994695544243 -0.18910333514213562 0.9994213581085205
-0.07199838757514954 -0.03942194581031799 1.463292121887207
-0.050377823412418365 -0.06837737560272217 1.4482429027557373
-0.07091981172561646 -0.05289672315120697 1.441910982131958
-0.05817164480686188 -0.11962556093931198 1.56833016872406
-0.10055142641067505 -0.11700762808322906 1.5132286548614502
-0.048674166202545166 -0.007838431745767593 1.4733487367630005
-0.09804586321115494 -0.0535459890961647 0.6459721326828003
-0.012394506484270096 0.0240844264626503 1.7991845607757568
-0.03384072333574295 0.12812641263008118 1.697559118270874
-0.04549882188439369 -0.13691380620002747 1.5198875665664673
-0.06104543060064316 -0.1171177327632904 1.471326470375061
-0.032248735427856445 -0.015322800725698471 1.4479789733886719
-0.03471972420811653 -0.11608684062957764 1.4703090190887451
-0.001269228756427765 0.006408505141735077 1.4225119352340698
-0.025610851123929024 -0.013603221625089645 1.2935268878936768
-0.009302496910095215 0.0800836980342865 1.7719025611877441
-0.008218208327889442 -0.0194317065179348 1.4787697792053223
-0.012673374265432358 -0.06437212973833084 1.4644616842269897
0.018355175852775574 0.09885273873806 1.7282042503356934
0.002986576408147812 0.03648123890161514 1.7787312269210815
-0.007996279746294022 -0.05623798072338104 1.4480056762695312
0.022732961922883987 -0.08461029082536697 1.4903994798660278
-0.003039071336388588 -0.03398305922746658 1.4560551643371582
0.07329007238149643 -0.0895022302865982 0.6011559963226318
0.021665174514055252 0.011989004909992218 1.5064899921417236
0.10696040838956833 -0.10713112354278564 0.5188431739807129
0.010682616382837296 -0.1683540642261505 1.2822953462600708
0.054597631096839905 -0.03897983580827713 1.273781657218933
0.05619312822818756 -0.06593440473079681 1.1577686071395874
0.1416710466146469 -0.09888963401317596 0.08939646929502487
0.1609717160463333 -0.09059276431798935 0.0733458399772644
0.1314471811056137 0.024631842970848083 0.0965442955493927
0.026090987026691437 -0.14991949498653412 1.2678964138031006
0.013755646534264088 -0.1889706552028656 1.192119836807251
0.07080987840890884 -0.14107076823711395 0.7429972887039185
0.12536419928073883 -0.02489815652370453 0.06767064332962036
0.05430792644619942 0.029101453721523285 1.7380096912384033
0.016433069482445717 -0.12673071026802063 1.6471507549285889
0.006086289882659912 -0.11176976561546326 1.5591574907302856
0.011738331988453865 -0.11510147154331207 1.512814998626709
0.09934890270233154 -0.15929192304611206 0.8850061893463135
0.10293953120708466 0.02286304533481598 1.7645339965820312
0.028852270916104317 0.00919928029179573 1.5633941888809204
0.027798382565379143 -0.007251989096403122 1.5337048768997192
0.13096334040164948 -0.010818533599376678 0.34292781352996826
0.12353541702032089 0.003651551902294159 0.28293660283088684
0.1433243751525879 0.03595585376024246 0.0791819840669632
0.04846499487757683 0.01277192309498787 1.8250889778137207
0.06399314850568771 -0.011206813156604767 1.4298385381698608
0.10081151127815247 -0.21847108006477356 0.8733211755752563
0.08995122462511063 -0.13097935914993286 0.8726099729537964
0.13012433052062988 -0.19375568628311157 0.8729807138442993
0.09685075283050537 -0.04242211580276489 0.7620346546173096
0.18797680735588074 -0.08905939012765884 0.08480868488550186
0.06053095683455467 0.016665220260620117 1.7489070892333984
0.04574092850089073 -0.15688620507717133 1.1590461730957031
0.05470661073923111 -0.13732874393463135 1.2873549461364746
0.05803529545664787 -0.1538659781217575 1.2837636470794678
0.1288275569677353 -0.18792270123958588 0.9420946836471558
0.05213075131177902 -0.06393831968307495 1.5797843933105469
0.058133676648139954 0.011120449751615524 1.5714201927185059
0.053997717797756195 -0.014647949486970901 1.5621609687805176
0.06180104613304138 -0.030738424509763718 1.5565520524978638
0.07452240586280823 -0.04282039403915405 1.5326755046844482
0.1355396807193756 -0.06542054563760757 0.6605502367019653
0.1333746314048767 -0.13164299726486206 0.6797689199447632
0.08294589072465897 -0.05190451443195343 1.4061495065689087
0.08500339090824127 0.0013675838708877563 1.3478732109069824
0.04847358912229538 -0.0028442740440368652 1.3619942665100098
0.059612274169921875 -0.02429690584540367 1.3386378288269043
0.12513181567192078 -0.11867952346801758 0.8413600325584412
0.18739433586597443 0.018884286284446716 0.08269572257995605
0.20330676436424255 -0.007182076573371887 0.07498925924301147
0.07485265284776688 0.007069189101457596 1.702040672302246
0.09042517840862274 -0.026034962385892868 1.4019508361816406
0.19401735067367554 -0.05413786321878433 0.32673755288124084
0.09636414051055908 0.02658044919371605 1.674623727798462
0.07271039485931396 0.05313962325453758 1.677506685256958
0.08208255469799042 0.022666875272989273 1.6428232192993164
0.20422425866127014 -0.02007497102022171 0.1511712223291397
0.21224449574947357 -0.062007173895835876 0.08299349248409271
0.19545143842697144 -0.09226606786251068 0.10979047417640686
0.15638373792171478 -0.012755247764289379 0.9815355539321899
0.1525145173072815 -0.014578909613192081 0.8815733194351196
0.10194456577301025 0.00023615360260009766 1.764122724533081
0.17054533958435059 0.03917719051241875 0.8895955681800842
0.18369930982589722 0.0027498379349708557 0.9522033929824829
0.11365465819835663 -0.007048103958368301 1.340847373008728
0.13028915226459503 -0.02774209901690483 1.325217366218567
0.09461864829063416 -0.055238209664821625 1.3709781169891357
0.12751738727092743 -0.01047409325838089 1.2856817245483398
0.11622756719589233 -0.015536889433860779 1.265362024307251
0.14411163330078125 -0.0933690071105957 1.2411799430847168
0.15301397442817688 -0.04582539573311806 1.283477544784546
0.17124953866004944 -0.012318838387727737 1.2194163799285889
0.19014765322208405 -0.013034246861934662 1.1415560245513916
0.2171219289302826 -0.026110932230949402 1.1594669818878174
0.2018636018037796 -0.04771117493510246 1.205138921737671
0.18163710832595825 -0.09133800119161606 1.2239736318588257
0.22479739785194397 -0.03703659400343895 1.1059482097625732
0.24618229269981384 -0.1119331493973732 1.152661681175232
0.2560928761959076 -0.08367281407117844 1.1348018646240234
0.24653546512126923 -0.057333510369062424 1.1075804233551025
0.21427947282791138 -0.15109817683696747 1.1322035789489746
0.23249025642871857 -0.11521247774362564 1.1002815961837769
0.23336388170719147 -0.09227608889341354 1.0902295112609863
0.2800599932670593 -0.16086670756340027 0.9798376560211182
0.2152516096830368 -0.13502202928066254 1.0988575220108032
0.21413692831993103 -0.14838087558746338 1.0709781646728516
0.25350648164749146 -0.12257133424282074 1.0178663730621338
0.21970520913600922 -0.1370578408241272 1.0465036630630493
0.2177698016166687 -0.1649133861064911 1.0476394891738892
0.24189220368862152 -0.1547161489725113 1.0150294303894043
0.26505959033966064 -0.16047987341880798 1.00757896900177
0.21931903064250946 -0.19070322811603546 1.0162087678909302
0.24498656392097473 -0.17457422614097595 1.006623387336731
0.23148378729820251 -0.1810932159423828 1.0159289836883545
0.27315738797187805 -0.16778156161308289 0.9596458077430725
0.24089817702770233 -0.1949533373117447 1.0029910802841187
0.2555192708969116 -0.15528644621372223 0.9751093983650208
0.25916144251823425 -0.18898522853851318 0.9715661406517029
0.2775459885597229 -0.18113864958286285 0.9751704931259155
-0.3167097866535187 -0.04966001585125923 1.0909260511398315
-0.3019457161426544 -0.11192532628774643 1.080996036529541
-0.2911183536052704 -0.09353534877300262 1.0770472288131714
-0.3082504868507385 -0.13318198919296265 1.1163328886032104
-0.25627952814102173 -0.045885417610406876 1.0878689289093018
-0.27922841906547546 -0.12977483868598938 1.1035312414169312
-0.19993983209133148 -0.01439245417714119 1.2406355142593384
-0.19518649578094482 -0.07151409238576889 1.217597484588623
-0.1748034656047821 -0.09934753179550171 0.9733765125274658
-0.17894276976585388 -0.01705070771276951 0.9511830806732178
-0.12883692979812622 0.05088253319263458 0.9376100897789001
-0.11918684095144272 0.15504950284957886 1.2626969814300537
-0.11219461262226105 0.15241819620132446 1.2032760381698608
-0.11659429967403412 0.17667724192142487 1.16951584815979
-0.15422935783863068 -0.012178793549537659 0.9753210544586182
-0.20582470297813416 0.03190131485462189 1.7432200908660889
-0.15208469331264496 0.0018076524138450623 1.3655413389205933
-0.1721847504377365 0.0024514906108379364 1.296274185180664
-0.046159520745277405 0.17237883806228638 1.068835973739624
-0.07618127763271332 0.17833873629570007 0.9865286350250244
-0.2756724953651428 -0.09618954360485077 0.12301097810268402
-0.288556307554245 -0.1514909565448761 0.07897958904504776
-0.1790763884782791 0.028127796947956085 1.723569393157959
-0.16350987553596497 0.035483550280332565 1.6686296463012695
-0.14902985095977783 -0.13171963393688202 1.2609140872955322
-0.147885262966156 -0.14946097135543823 1.2324063777923584
-0.15176132321357727 -0.16979952156543732 1.2294411659240723
-0.11690838634967804 0.11512581259012222 1.3850958347320557
-0.10846053063869476 0.10611158609390259 1.3786685466766357
-0.1289391815662384 -0.13145232200622559 1.2763941287994385
-0.14685916900634766 -0.05766872689127922 1.2170017957687378
-0.24889706075191498 -0.11474380642175674 0.19106243550777435
-0.2525855302810669 -0.07016538828611374 0.19714342057704926
-0.06614137440919876 0.13260172307491302 1.2568949460983276
-0.15609322488307953 -0.01681145653128624 1.4672235250473022
-0.15650354325771332 -0.011074576526880264 1.445120096206665
-0.14269043505191803 -0.016209810972213745 1.4266343116760254
-0.15577389299869537 -0.009345456957817078 1.422653317451477
-0.15437757968902588 -0.030386775732040405 1.4146286249160767
-0.14776700735092163 -0.11013861000537872 0.7989724278450012
-0.15919049084186554 -0.07252262532711029 0.7936134338378906
-0.04388037323951721 0.23377272486686707 1.075366735458374
-0.04497678205370903 0.23144777119159698 1.1282539367675781
-0.12071797251701355 -0.12406551837921143 1.2747324705123901
-0.13038784265518188 -0.10843862593173981 0.8714636564254761
-0.24898463487625122 -0.03207727149128914 0.12266242504119873
-0.25424426794052124 -0.03221762180328369 0.08332003653049469
-0.1408226191997528 -0.18843917548656464 0.8589414954185486
-0.06899600476026535 0.19419865310192108 1.2371047735214233
-0.15449124574661255 -0.09250595420598984 1.6362597942352295
-0.1293269693851471 0.023189730942249298 1.5473644733428955
-0.10163643211126328 0.1122535765171051 1.5123825073242188
-0.10080426186323166 0.07350857555866241 1.5726723670959473
-0.11941414326429367 0.0718596875667572 1.5455365180969238
-0.10663285851478577 0.09122591465711594 1.45852792263031
-0.05486680194735527 0.13650968670845032 1.553891897201538
-0.11826208233833313 -0.015729766339063644 1.498630166053772
-0.08724939823150635 0.04396094009280205 0.9823513031005859
-0.13519437611103058 0.033490993082523346 1.8270882368087769
-0.1486532986164093 0.025658227503299713 1.8222992420196533
-0.14693349599838257 0.014138184487819672 1.8078240156173706
-0.022215431556105614 0.07700131833553314 1.4482128620147705
-0.08447109162807465 0.12801183760166168 1.427677035331726
-0.19239695370197296 -0.09707700461149216 0.04640769213438034
-0.036289334297180176 0.16727761924266815 1.3701410293579102
-0.11525172740221024 -0.09307476133108139 1.5478113889694214
-0.16826225817203522 -0.07842382043600082 0.40381500124931335
-0.06096567586064339 0.07312610745429993 1.5129239559173584
-0.08317779004573822 0.030706457793712616 1.497010350227356
-0.03539543226361275 0.13972684741020203 1.4732587337493896
-0.033490344882011414 0.05280762165784836 0.8642761707305908
-0.17506884038448334 -0.01508087757974863 0.3528003692626953
0.0015814220532774925 0.1971447914838791 0.9813710451126099
-0.0331609845161438 0.03838391974568367 1.0413260459899902
-0.10119181126356125 -0.1558937132358551 1.2725133895874023
-0.09616734832525253 -0.15572701394557953 1.1690151691436768
-0.16331413388252258 -0.04266161471605301 0.33206963539123535
-0.1471453309059143 -0.058699313551187515 0.2700580060482025
-0.17768016457557678 -0.008939433842897415 0.2645826041698456
-0.06730374693870544 0.05543386563658714 1.5334770679473877
-0.0844787061214447 -0.1092371791601181 0.6956238150596619
-0.10898532718420029 -0.036287520080804825 0.6661585569381714
0.012522002682089806 0.23975881934165955 1.117264747619629
0.016012756153941154 0.22953999042510986 1.0282014608383179
-0.04761414974927902 -0.1872241497039795 1.1962782144546509
-0.17341580986976624 -0.078523188829422 0.1335487812757492
0.007867840118706226 0.1777518391609192 1.0252355337142944
0.0018577594310045242 0.15732143819332123 1.0636504888534546
0.0031509213149547577 0.056187503039836884 1.5232630968093872
-0.08077653497457504 -0.08731984347105026 1.4079560041427612
0.018511619418859482 0.1781235933303833 1.3468683958053589
0.023356616497039795 0.06762786209583282 1.4381334781646729
-0.004778388887643814 0.04579589143395424 1.5245698690414429
0.06253042817115784 0.174927219748497 1.031966209411621
0.07882845401763916 0.16073477268218994 0.989203155040741
-0.0157743152230978 -0.1052708625793457 1.4038655757904053
0.014262450858950615 0.03831399232149124 1.0396026372909546
-0.021560877561569214 -0.19998520612716675 1.1240228414535522
0.08629194647073746 0.1491653472185135 1.3702455759048462
0.01415900606662035 -0.012842658907175064 1.3104740381240845
0.06096452474594116 0.12088412046432495 1.4795204401016235
0.027632104232907295 0.06955616921186447 1.4825414419174194
0.029585134238004684 -0.02720097079873085 1.2200595140457153
0.044282179325819016 0.09577630460262299 0.9284967184066772
0.002367466688156128 -0.013020321726799011 1.7629395723342896
0.12325654178857803 -0.07344241440296173 0.10068701952695847
0.11527881026268005 -0.07859691977500916 0.07742250710725784
0.11591179668903351 -0.021214842796325684 0.11173097789287567
-0.0316748283803463 -0.1362067461013794 1.639609694480896
0.06546954065561295 -0.062078312039375305 0.7267124652862549
0.08648161590099335 0.061119936406612396 1.450087308883667
0.03559117391705513 -0.048937149345874786 1.501063346862793
0.07343758642673492 -0.035711903125047684 1.4444823265075684
0.02960827760398388 -8.19079577922821e-05 1.419933557510376
0.11081674695014954 -0.025324715301394463 0.41009122133255005
0.13305769860744476 -0.10032173246145248 0.2511940002441406
0.1294233202934265 -0.010737702250480652 0.22022384405136108
0.13135752081871033 0.1642971634864807 1.041699767112732
0.123126320540905 0.19356843829154968 1.0061508417129517
0.10426093637943268 -0.14580780267715454 0.7541134357452393
0.10756489634513855 -0.052127525210380554 0.6690946817398071
0.003666408360004425 -0.0625811517238617 1.7509613037109375
0.042779840528964996 -0.07196138054132462 1.7054882049560547
0.12315370887517929 -0.12790349125862122 0.562095046043396
0.020044546574354172 -0.007034368813037872 1.7761528491973877
0.04334631189703941 -0.024366624653339386 1.7263888120651245
0.06723107397556305 -0.09501936286687851 1.1538456678390503
0.07186504453420639 -0.08213445544242859 1.1262253522872925
0.0636662021279335 -0.1561294049024582 1.1095823049545288
0.03012349270284176 -0.1141393780708313 1.6387314796447754
0.04869762435555458 -0.04518577456474304 1.5289723873138428
0.03685944899916649 -0.08387231081724167 1.5304813385009766
0.16858790814876556 0.1431160867214203 0.9998511075973511
0.07465440779924393 -0.09027457237243652 1.3108279705047607
0.08648159354925156 -0.15684229135513306 1.2702968120574951
0.07997608929872513 -0.09972167015075684 1.2583603858947754
0.17559820413589478 0.003208555281162262 0.17017756402492523
0.1829618513584137 -0.07588884234428406 0.1862505078315735
0.19844593107700348 -0.06553518772125244 0.1708427369594574
0.06393943727016449 0.0017603226006031036 1.7479321956634521
0.0848187655210495 -0.10042672604322433 1.3104568719863892
0.18383371829986572 -0.03274286165833473 0.44840067625045776
0.16312238574028015 -0.08895023167133331 0.49937543272972107
0.19284072518348694 -0.043680787086486816 0.393128365278244
0.08755157142877579 -0.05155131220817566 1.4383341073989868
0.07485301792621613 -0.04519450664520264 1.434977412223816
0.09392049908638 -0.03390229493379593 1.3923178911209106
0.12028605490922928 0.06619559228420258 0.9367887377738953
0.13108360767364502 -0.11618141829967499 0.8735683560371399
0.2036130577325821 -0.020441420376300812 0.2678472697734833
0.21612009406089783 -0.051947250962257385 0.2741215229034424
0.1000775620341301 -0.013553131371736526 1.3879005908966064
0.1595689356327057 0.09297230839729309 1.286009430885315
0.16794170439243317 0.119281105697155 1.259670376777649
0.09695953130722046 -0.22957007586956024 1.1666721105575562
0.15199461579322815 -0.06392982602119446 1.0078850984573364
0.1548147350549698 -0.12185683101415634 1.0028777122497559
0.13065692782402039 -0.002037353813648224 1.2088102102279663
0.16530141234397888 -0.1043134555220604 1.0995370149612427
0.18121309578418732 -0.06587224453687668 1.084267020225525
0.17095264792442322 -0.14096298813819885 1.1615532636642456
-0.29779568314552307 -0.06546228379011154 1.0675933361053467
-0.3059355616569519 -0.1252492070198059 1.047603726387024
-0.23438666760921478 -0.10969923436641693 1.1487512588500977
-0.24770286679267883 -0.1115729808807373 1.195840835571289
-0.21016252040863037 -0.0714809000492096 1.1571956872940063
-0.2101057767868042 -0.030096661299467087 1.1795904636383057
-0.19352953135967255 -0.15407580137252808 0.8837152719497681
-0.10827244818210602 0.18167243897914886 1.025282859802246
-0.11301125586032867 0.17041943967342377 1.1295677423477173
-0.1558338701725006 -0.23469924926757812 1.1354072093963623
-0.1390608251094818 -0.16226014494895935 0.9680993556976318
-0.2637793719768524 -0.05808702111244202 0.2856142222881317
-0.24021980166435242 -0.1092757135629654 0.30072322487831116
-0.1918342113494873 -0.003813921008259058 0.5064769983291626
-0.15229207277297974 -0.19460049271583557 0.8648250699043274
-0.17043167352676392 -0.060639239847660065 0.6494054794311523
-0.1594899445772171 -0.09992370009422302 0.7033003568649292
-0.14523369073867798 -0.03926554322242737 0.7074122428894043
-0.10242283344268799 -0.016615888103842735 1.1066064834594727
-0.11166045814752579 -0.07812611013650894 1.1343574523925781
-0.03086582012474537 0.21999357640743256 1.2040941715240479
-0.11473703384399414 -0.017761914059519768 0.8653976917266846
-0.19727803766727448 -0.12309972196817398 0.31360167264938354
-0.11692433059215546 -0.02057950757443905 1.2142707109451294
-0.09412240982055664 -0.03902067244052887 1.1405271291732788
-0.182465597987175 -0.09916305541992188 0.45388177037239075
-0.13968335092067719 0.011019878089427948 1.74265456199646
-0.1451065093278885 -0.026092659682035446 1.7345017194747925
-0.1045122742652893 -0.06364697217941284 1.7442457675933838
-0.12165569514036179 -0.10309635102748871 1.7015433311462402
-0.1360791027545929 -0.09344413131475449 1.599735975265503
-0.1710416078567505 -0.07743146270513535 0.34832653403282166
-0.08043886721134186 -0.11982619017362595 0.7470305562019348
-0.1499129682779312 -0.08760783076286316 0.2783292531967163
-0.1674042046070099 -0.1154884546995163 0.2824760377407074
-0.18456152081489563 -0.03619898110628128 0.21373751759529114
-0.048846740275621414 0.06548640877008438 0.9730041027069092
-0.09229117631912231 0.021674368530511856 1.7900627851486206
-0.10847847163677216 0.008342202752828598 1.7759134769439697
0.051791660487651825 0.14137199521064758 1.1837756633758545
-0.03824483975768089 0.1530679315328598 1.1883963346481323
0.02927238866686821 0.12615668773651123 1.244645357131958
-0.000987265259027481 -0.031244968995451927 1.260261058807373
0.041575074195861816 0.21092839539051056 1.2368155717849731
0.04577726498246193 0.15883474051952362 1.0693104267120361
0.10583958774805069 0.2206428349018097 1.153548240661621
0.014528036117553711 0.11662593483924866 1.6688764095306396
0.0785837396979332 0.14849853515625 1.0763390064239502
0.04291382431983948 -0.2189883142709732 0.9157165288925171
0.09788194298744202 -0.06762801110744476 0.27140533924102783
0.12704500555992126 -0.0714263841509819 0.21361912786960602
0.06499884277582169 -0.1289616823196411 0.709125280380249
0.03411974757909775 0.012450712732970715 1.0760282278060913
0.08911341428756714 -0.0473882220685482 0.5797427296638489
0.0923391729593277 0.10225189477205276 1.316345453262329
0.058854054659605026 -0.061787836253643036 1.4256618022918701
0.04596453532576561 0.10289838165044785 1.6323498487472534
0.03924105316400528 0.03300240635871887 1.6047296524047852
0.04564237594604492 0.04953886568546295 1.576277494430542
0.017970427870750427 0.0008597113192081451 1.824654459953308
0.06347019970417023 -0.08033911138772964 1.3585699796676636
0.15327447652816772 -0.014538776129484177 0.5148715376853943
0.11885029077529907 -0.0030056163668632507 0.5113108158111572
0.14838989078998566 -0.0013635940849781036 0.36315685510635376
0.16972610354423523 -0.0019625872373580933 0.3356460928916931
0.07130900025367737 -0.03942392021417618 1.521303415298462
0.05732658505439758 -0.04849893972277641 1.5312707424163818
0.0731549859046936 -0.04814445227384567 1.5136375427246094
0.13253141939640045 -0.0528116300702095 0.7751631140708923
0.14739590883255005 -0.09496159851551056 0.6447991728782654
0.11889449506998062 0.026648640632629395 0.9770121574401855
0.10325411707162857 -0.07456757873296738 1.1004183292388916
0.09707815945148468 -0.1287049651145935 1.0926027297973633
0.10552210360765457 -0.15374933183193207 1.040309190750122
0.07643328607082367 -0.0018067620694637299 1.6445543766021729
0.08718454837799072 -0.008970122784376144 1.5588644742965698
0.08050675690174103 -0.14693333208560944 1.2532038688659668
0.10425695031881332 0.06528381258249283 1.545472264289856
0.09339264035224915 0.03896881639957428 1.5865352153778076
0.20066873729228973 0.008811861276626587 0.10232645273208618
0.2140773981809616 -0.03191836178302765 0.09283452481031418
0.11368247121572495 0.045036014169454575 1.511411190032959
0.12054653465747833 0.0588659830391407 1.4760169982910156
0.12751233577728271 0.046876560896635056 1.4388164281845093
0.13029317557811737 0.0626443400979042 1.4243273735046387
0.09001819789409637 -0.23153963685035706 1.1866705417633057
0.17860853672027588 -0.15538804233074188 0.8895601034164429
0.10895785689353943 -0.20501121878623962 1.1983959674835205
0.10588811337947845 -0.23072755336761475 1.184882640838623
0.2072121948003769 -0.11102873086929321 0.9095771312713623
0.20963327586650848 -0.08868628740310669 0.8899540901184082
0.21726468205451965 -0.05363062769174576 0.8997370004653931
-0.21668806672096252 -0.10143044590950012 1.203870177268982
-0.17541730403900146 -0.10103452205657959 1.275284767150879
-0.18221527338027954 -0.0981084480881691 1.2575699090957642
-0.17316146194934845 -0.09119094163179398 1.265068531036377
-0.17128556966781616 -0.08769941329956055 1.281844139099121
-0.1993589997291565 0.002207372337579727 0.8885391354560852
-0.14628532528877258 -0.051378197968006134 1.3018083572387695
-0.1452103555202484 -0.06503333151340485 1.0821704864501953
-0.13983391225337982 0.10198277235031128 1.5511938333511353
-0.1453193724155426 -0.08431129902601242 1.2060929536819458
-0.14262983202934265 -0.07981424033641815 1.1534007787704468
-0.11016935110092163 0.10503458231687546 1.444304347038269
-0.09818069636821747 0.1013149693608284 1.4036424160003662
-0.13249896466732025 -0.1410006284713745 1.0509214401245117
-0.09851118177175522 -0.1674284040927887 1.009955883026123
-0.1359838843345642 -0.02916715480387211 0.7929580807685852
-0.03578786551952362 0.19525016844272614 1.2758681774139404
-0.08326418697834015 0.13104967772960663 1.6440918445587158
-0.18038126826286316 -0.04409370571374893 0.07760964334011078
-0.1927543431520462 -0.03342047333717346 0.06842570006847382
-0.08478499203920364 0.02646489441394806 0.8751760721206665
-0.0010521281510591507 0.09658913314342499 0.8598595857620239
-0.06711830198764801 -0.018343791365623474 0.8529551029205322
0.020721495151519775 0.09718948602676392 1.3399802446365356
-0.04859653487801552 -0.08040419220924377 0.7719194889068604
-0.0678560808300972 -0.12202151119709015 1.6176196336746216
-0.008545474149286747 0.01571400836110115 0.8796311616897583
-0.006088973022997379 -0.024478137493133545 0.8584825992584229
0.016935626044869423 -0.11769069731235504 0.8635296821594238
-0.08009548485279083 -0.1659449338912964 0.8635751605033875
-0.006241384893655777 -0.22649861872196198 0.8566550612449646
0.03553982824087143 -0.10967616736888885 0.8433865904808044
-0.0062528313137590885 -0.16205866634845734 0.8686332702636719
-0.011089727282524109 0.029178757220506668 1.497004508972168
0.028892409056425095 -0.035874221473932266 0.8551685214042664
0.03214753046631813 -0.049855999648571014 0.8395369052886963
0.0002753734588623047 0.0394587516784668 1.5756027698516846
0.005134183913469315 0.042167551815509796 1.5489726066589355
0.04403109848499298 -0.12387710809707642 0.8589544296264648
0.13195906579494476 0.05889742448925972 0.8683714866638184
0.100128673017025 -0.038418106734752655 0.27256640791893005
0.05593767762184143 -0.036083951592445374 0.8271364569664001
0.09130436927080154 0.13593406975269318 1.2182730436325073
0.13055461645126343 -0.07782014459371567 0.3964208960533142
0.12497290223836899 -0.05063806101679802 0.33447951078414917
0.14176835119724274 -0.0740937814116478 0.34788966178894043
0.14032544195652008 -0.11094027757644653 0.29290252923965454
0.08849991858005524 0.07765789330005646 1.5117113590240479
0.08170482516288757 -0.016379332169890404 0.8625648021697998
0.11099794507026672 -0.03642722964286804 0.8433871269226074
0.07761383801698685 -0.07167544960975647 1.2579803466796875
0.15873079001903534 -0.09150761365890503 0.4436631500720978
0.07664359360933304 0.05200940743088722 1.6217961311340332
0.0635225921869278 -0.02733089029788971 1.3106192350387573
0.17103998363018036 -0.07432536035776138 0.3509647250175476
0.11814470589160919 0.19479741156101227 1.2140101194381714
0.08198345452547073 -0.051838815212249756 1.2314966917037964
0.16413605213165283 -0.006085209548473358 0.22723881900310516
0.16047708690166473 0.19212104380130768 1.1327519416809082
0.1588556170463562 0.004542753100395203 0.2659955322742462
0.18308500945568085 -0.11169952154159546 0.26507747173309326
0.1345139741897583 0.08415542542934418 1.3338069915771484
0.08407612890005112 -0.033954523503780365 1.4778212308883667
0.09356127679347992 -0.029389042407274246 1.441550374031067
0.08215651661157608 -0.03378208354115486 1.4749741554260254
0.10769343376159668 -0.025426719337701797 1.4205456972122192
0.09927141666412354 -0.17322102189064026 1.2401435375213623
0.08640163391828537 -0.18211114406585693 1.2344602346420288
0.16274718940258026 0.10766512155532837 1.2414323091506958
0.18493999540805817 0.14139814674854279 1.177855372428894
0.18125441670417786 0.1332940310239792 1.1441175937652588
0.10795867443084717 -0.0321432501077652 1.263629674911499
0.10222227871417999 -0.06569817662239075 1.2764289379119873
0.16156069934368134 -0.17984740436077118 0.8985849618911743
0.10798586159944534 -0.07786525785923004 1.2841813564300537
0.11467534303665161 -0.09743122011423111 1.1790871620178223
0.13056910037994385 -0.027603954076766968 1.16573965549469
0.12023154646158218 -0.07667399942874908 1.150496244430542
0.18086929619312286 -0.12316920608282089 1.1950769424438477
0.2051268070936203 -0.09572048485279083 1.0699173212051392
0.184439018368721 -0.1458073854446411 1.116901159286499
-0.16018745303153992 -0.2221110761165619 1.1750993728637695
-0.16144819557666779 -0.15080896019935608 1.2225364446640015
-0.16728852689266205 -0.1378248929977417 1.2412208318710327
-0.14977416396141052 -0.2069161832332611 1.1749417781829834
-0.1287519931793213 0.10849417746067047 1.4727083444595337
-0.13548345863819122 0.09830091148614883 1.4563343524932861
-0.13369224965572357 0.11501490324735641 1.4132459163665771
-0.16317851841449738 0.008602067828178406 1.7042757272720337
-0.1671198606491089 -0.027834370732307434 1.6197686195373535
-0.22814765572547913 -0.07665260136127472 0.3458969295024872
-0.13387764990329742 -0.06678547710180283 0.8653968572616577
-0.1368604153394699 -0.09121182560920715 0.8446639180183411
-0.09261375665664673 0.19712325930595398 1.003514289855957
-0.11135654151439667 -0.1221502274274826 1.2645366191864014
-0.12092641741037369 -0.02848958596587181 0.8384941816329956
-0.11642494052648544 -0.005679897964000702 1.7566972970962524
-0.10279674828052521 -0.12135528028011322 1.1414916515350342
-0.06993741542100906 -0.1845254898071289 1.1394768953323364
-0.037151288241147995 0.1709110587835312 1.1118764877319336
0.03760237619280815 0.15856198966503143 1.1098082065582275
-0.07179012894630432 -0.02165170945227146 1.1566179990768433
-0.0556471087038517 -0.11344216763973236 0.8558935523033142
-0.059058256447315216 -0.18812552094459534 1.071469783782959
-0.051930032670497894 0.01752956211566925 1.0622726678848267
-0.060559652745723724 -0.11079855263233185 1.7164727449417114
0.03378532826900482 -0.10255752503871918 0.779831051826477
-0.02954859286546707 0.11422201991081238 1.3110617399215698
0.11141537129878998 -0.042440760880708694 0.06555614620447159
0.1492852121591568 0.20783525705337524 1.0662262439727783
0.1066339984536171 0.15262524783611298 1.13225257396698
0.09258187562227249 0.22993043065071106 1.0755442380905151
0.10098125785589218 0.088101327419281 0.8714979887008667
0.17330330610275269 0.035781361162662506 0.0948447734117508
0.12420289218425751 -0.037796683609485626 0.869745671749115
0.1631593406200409 -0.08032411336898804 0.4006127417087555
0.09057475626468658 -0.05482028052210808 1.4040226936340332
0.0906311646103859 -0.07326407730579376 1.3239846229553223
0.2019997388124466 0.0003354288637638092 0.8905614614486694
0.20111992955207825 -0.04947317764163017 0.9550079107284546
0.19800026714801788 -0.1274317502975464 1.0837912559509277
-0.25664687156677246 -0.12467244267463684 1.1633682250976562
-0.19814348220825195 -0.08574936538934708 0.9467379450798035
-0.21691974997520447 -0.07298167794942856 0.8931992053985596
-0.1371939480304718 0.09662175178527832 1.4090193510055542
-0.11822405457496643 0.1314772218465805 1.2658770084381104
-0.14771635830402374 0.020300891250371933 1.536139726638794
-0.13774359226226807 -0.057834647595882416 1.0497456789016724
-0.144594207406044 -0.08543837070465088 1.0901333093643188
-0.14743277430534363 0.024988476186990738 1.5372945070266724
-0.1485656052827835 0.011806823313236237 1.523174524307251
-0.14653237164020538 0.01663392037153244 1.5308184623718262
-0.14839431643486023 0.016345486044883728 1.5357052087783813
-0.15301606059074402 0.004798386245965958 1.5241650342941284
-0.22182440757751465 -0.1343396008014679 0.19425956904888153
-0.1639455109834671 -0.0648149624466896 1.6728161573410034
-0.04448839649558067 -0.014665521681308746 1.2119958400726318
-0.183802530169487 -0.1516420990228653 0.07079483568668365
-0.06002223491668701 -0.0204723309725523 1.254921555519104
-0.015744153410196304 -0.026077834889292717 1.1683201789855957
-0.037092406302690506 0.09382400661706924 0.9358013868331909
-0.05218382179737091 -0.01611785963177681 1.7748491764068604
-0.06837797909975052 -0.07405154407024384 0.7111345529556274
-0.0034914410207420588 0.11695165187120438 1.2738481760025024
-3.826245665550232e-05 -0.1920281946659088 1.0199223756790161
-0.046732284128665924 -0.18323318660259247 1.2405205965042114
0.04415144398808479 0.1433984339237213 1.1540273427963257
0.12060297280550003 -0.036926813423633575 0.2034732848405838
0.059323783963918686 -0.17971986532211304 1.0037012100219727
0.10920968651771545 -0.17312155663967133 0.9896386861801147
0.06051184982061386 0.050711192190647125 1.5447533130645752
0.052622005343437195 -0.1640661358833313 1.189176321029663
0.02675606496632099 -0.03551432490348816 1.1670464277267456
0.08397199213504791 -0.028110889717936516 1.092358112335205
0.0778774619102478 0.059461209923028946 0.967536985874176
0.16295212507247925 -0.06481565535068512 0.04060250520706177
0.13830065727233887 -0.05814167857170105 0.039994966238737106
0.19450591504573822 -0.04401221126317978 0.04837178811430931
0.20338058471679688 -0.08555556833744049 0.2521713972091675
0.08071434497833252 -0.03326188027858734 1.4738407135009766
0.07939067482948303 -0.0317707322537899 1.472278118133545
0.07483354210853577 -0.04552675783634186 1.3330057859420776
0.09001842141151428 -0.06703609228134155 1.3136087656021118
0.19987215101718903 0.1572193056344986 1.0747096538543701
0.19651208817958832 0.13747653365135193 1.0270726680755615
0.20580753684043884 0.14212748408317566 1.0240428447723389
0.22001633048057556 -0.0877281203866005 1.0696032047271729
0.20340430736541748 -0.14738425612449646 1.0620445013046265
0.2117091715335846 -0.17329378426074982 1.0556308031082153
-0.251650869846344 -0.08302312344312668 1.0885124206542969
-0.16911275684833527 -0.18144673109054565 1.2111458778381348
-0.19970358908176422 -0.08225536346435547 0.3734739422798157
-0.05555985867977142 0.17923182249069214 0.977594792842865
-0.10997442156076431 -0.1422496736049652 1.0894901752471924
-0.03704027086496353 -0.04101645573973656 0.8509739637374878
-0.061445530503988266 -0.029418615624308586 0.8172778487205505
-0.055668048560619354 -0.08202796429395676 0.8187705874443054
-0.008533232845366001 0.01121806725859642 1.1076258420944214
0.025662411004304886 -0.20907436311244965 0.8471110463142395
0.0976424515247345 0.015089526772499084 0.8784407377243042
0.12584802508354187 0.15076002478599548 1.0961437225341797
0.08175288885831833 0.014008920639753342 1.5618634223937988
0.09350460767745972 0.036154605448246 1.5381039381027222
0.18835881352424622 -0.11850722134113312 0.9554622173309326
-0.17303632199764252 -0.19405311346054077 1.1796029806137085
-0.1470012068748474 0.07105827331542969 1.568367838859558
-0.028601601719856262 0.1874874383211136 1.0243690013885498
-0.12651048600673676 0.09857143461704254 1.5999417304992676
-0.10252197831869125 0.05880649760365486 1.5896456241607666
-0.07008872926235199 0.04970793426036835 1.5687164068222046
0.02436617575585842 -0.19440943002700806 1.0775340795516968
0.0418047159910202 -0.13899680972099304 1.2763104438781738
0.15675362944602966 -0.08524222671985626 0.17437072098255157
0.08000616729259491 -0.12569481134414673 1.2336797714233398
0.09020182490348816 -0.11911201477050781 1.1802135705947876
0.11281666159629822 0.06895865499973297 1.437978744506836
0.10030091553926468 0.09658138453960419 1.4461671113967896
0.09432989358901978 -0.0733250230550766 1.1862555742263794
0.12888172268867493 -0.07521186769008636 0.8538625240325928
0.0694398358464241 -0.1626913845539093 1.2570526599884033
0.13799622654914856 0.09969251602888107 1.3560711145401
-0.10822658240795135 0.12556973099708557 1.3520890474319458
-0.19130493700504303 -0.005396601278334856 0.38053369522094727
0.049730900675058365 -0.10149805247783661 0.7387097477912903
-0.0036863312125205994 -0.11621116101741791 1.6957628726959229
-0.10775198042392731 0.19168142974376678 1.073601245880127
-0.164834126830101 -0.08975335955619812 1.2847602367401123
-0.15004891157150269 -0.04593799263238907 0.41630449891090393
0.01539069227874279 0.13830320537090302 1.4772422313690186
0.12017863243818283 -0.06839726120233536 0.044669076800346375
0.07366491109132767 -0.0458720400929451 1.5173611640930176
0.07438598573207855 -0.0470883771777153 1.5132622718811035
0.07872781157493591 -0.03528552129864693 1.428607702255249
0.19492128491401672 -0.06823670864105225 0.22436723113059998
0.19273336231708527 -0.03385177627205849 0.21432776749134064
0.12185549736022949 -0.09933269023895264 1.2280439138412476
-0.1754242181777954 -0.15891262888908386 0.944098949432373
-0.12090185284614563 0.11103662848472595 1.38232421875
-0.11963959783315659 0.10848081856966019 1.3822864294052124
-0.12434651702642441 0.10644133388996124 1.3827707767486572
-0.16540281474590302 -0.07278557866811752 0.2143692821264267
-0.03635898232460022 -0.0959344431757927 0.8518756628036499
0.1301439106464386 -0.06286416947841644 0.16304060816764832
0.14264054596424103 -0.12672583758831024 1.1856956481933594
0.05679265409708023 -0.06898738443851471 1.6534242630004883
0.14653222262859344 -0.09883500635623932 0.8034238815307617
0.1279696524143219 0.059601642191410065 1.404969334602356
0.1360500156879425 0.07910983264446259 1.368484377861023
0.11923518031835556 0.004965491592884064 0.07508611679077148
0.03440547361969948 -0.4732578694820404 1.0954288244247437
0.040187638252973557 -0.4407752752304077 1.0726107358932495
0.037711914628744125 -0.45345252752304077 1.0754363536834717
0.031334683299064636 -0.4497000277042389 1.0794214010238647
0.02857953868806362 -0.47221601009368896 1.0845962762832642
0.04044722765684128 -0.4610874652862549 1.0993059873580933
0.1077590361237526 -0.33276641368865967 1.0713798999786377
0.09274100512266159 -0.33463525772094727 1.0623779296875
0.09457913786172867 -0.35443395376205444 1.0722200870513916
0.0867789089679718 -0.36179977655410767 1.0743075609207153
0.16247601807117462 -0.19299259781837463 0.995424211025238
0.15581853687763214 -0.20823609828948975 1.012199878692627
0.1528128683567047 -0.20442676544189453 0.9866617918014526
0.08402252197265625 -0.3492963910102844 1.0300877094268799
0.07986325025558472 -0.361931174993515 1.04329252243042
0.08437790721654892 -0.38668376207351685 1.0985808372497559
0.08776016533374786 -0.37368014454841614 1.0833549499511719
0.1335272490978241 -0.23832286894321442 0.9699345231056213
0.1341777741909027 -0.24366295337677002 0.9959608316421509
0.1410702019929886 -0.2776176333427429 1.06129789352417
0.13624806702136993 -0.2683205008506775 1.0555565357208252
0.05670697242021561 -0.4472881853580475 1.107688307762146
0.04980697110295296 -0.4348277151584625 1.060180902481079
0.159715935587883 -0.2086036503314972 0.978132426738739
0.15177541971206665 -0.21234476566314697 0.9769946336746216
0.2710427939891815 -0.044442318379879 1.0535346269607544
0.261135071516037 -0.05620729178190231 1.0520976781845093
0.26564493775367737 -0.04506349191069603 1.0331635475158691
0.07333806902170181 -0.4074040651321411 1.0918573141098022
0.06209813058376312 -0.4292394816875458 1.098514199256897
0.1558426171541214 -0.21172741055488586 0.9713661670684814
0.15654078125953674 -0.2078980803489685 0.9615436792373657
0.018602125346660614 -0.4908221364021301 1.0480055809020996
0.013500851579010487 -0.5048524141311646 1.0558840036392212
0.2766597867012024 -0.03796067833900452 1.0460407733917236
0.27462613582611084 -0.04657687991857529 1.0586796998977661
0.2715756893157959 -0.03675052151083946 1.0409295558929443
0.27084678411483765 -0.04606559872627258 1.0306005477905273
