0.2555171251296997 0.012908026576042175 1.7077741622924805
0.25226837396621704 -0.0030790232121944427 1.7070800065994263
0.30844753980636597 -0.02003532648086548 1.6804561614990234
0.27414798736572266 -0.020386744290590286 1.645443081855774
0.3052781820297241 -0.052956193685531616 1.542490005493164
0.31834205985069275 -0.0249787550419569 1.4866228103637695
0.3048577904701233 0.0008818469941616058 1.6910139322280884
0.3970809578895569 -0.045933421701192856 1.6280980110168457
0.31722337007522583 -0.006569806486368179 1.6928889751434326
0.3550873398780823 -0.025595281273126602 1.6777592897415161
0.3365500569343567 -0.013995030894875526 1.6411017179489136
0.3580392301082611 -0.010631781071424484 1.6811492443084717
0.39632171392440796 -0.025524746626615524 1.6376715898513794
0.3974940776824951 -0.025093987584114075 1.6118000745773315
0.35177746415138245 -0.034903690218925476 1.6188311576843262
0.3638383746147156 -0.024009449407458305 1.6541180610656738
0.39506709575653076 -0.04030091315507889 1.6029820442199707
0.4273585081100464 -0.029436198994517326 1.5640366077423096
0.4300464689731598 -0.04311339557170868 1.5630414485931396
0.4425513744354248 -0.037997517734766006 1.5249154567718506
0.4522419571876526 -0.06015060096979141 1.5216647386550903
0.48451414704322815 -0.035056859254837036 1.5410844087600708
0.476513147354126 -0.04928320646286011 1.5409643650054932
0.487357497215271 -0.048844870179891586 1.4962074756622314
0.4670928418636322 -0.05212145298719406 1.5225244760513306
0.48985132575035095 -0.05859759449958801 1.4521291255950928
0.4898601174354553 -0.07100458443164825 1.4541144371032715
0.5354738235473633 -0.06452547758817673 1.4211379289627075
0.5243825912475586 -0.0740223377943039 1.3866629600524902
0.5027951002120972 -0.08670204877853394 1.3917938470840454
0.5314886569976807 -0.08350399136543274 1.3451378345489502
0.48648136854171753 -0.06857036799192429 1.4914532899856567
0.5200997591018677 -0.060108792036771774 1.4747211933135986
0.5203738212585449 -0.07772688567638397 1.4250831604003906
0.5066452026367188 -0.08176252245903015 1.4762680530548096
0.5961501002311707 -0.10030574351549149 1.3443515300750732
0.5498144626617432 -0.10441801697015762 1.3712329864501953
0.5684859156608582 -0.09395516663789749 1.3464431762695312
0.5632283687591553 -0.08811291307210922 1.3990437984466553
0.551255464553833 -0.10177227854728699 1.3478238582611084
0.5677717924118042 -0.09451331943273544 1.3154208660125732
0.5586795806884766 -0.10846774280071259 1.31644606590271
0.6009560227394104 -0.10300979018211365 1.353223443031311
0.5930989980697632 -0.11061101406812668 1.3407944440841675
0.5934268832206726 -0.10582016408443451 1.3609619140625
0.5964158773422241 -0.1148994192481041 1.2892118692398071
0.6453659534454346 -0.12020018696784973 1.251814365386963
0.6027264595031738 -0.10953079909086227 1.2636924982070923
0.6482467651367188 -0.12062391638755798 1.2293134927749634
0.6312958002090454 -0.13282498717308044 1.2275142669677734
0.674110472202301 -0.15162596106529236 1.0384846925735474
0.6501194834709167 -0.16405794024467468 1.0592979192733765
0.6676768660545349 -0.17900700867176056 1.0122990608215332
0.6797029972076416 -0.16029900312423706 1.039857268333435
0.620847225189209 -0.19193613529205322 1.0242289304733276
0.6722646355628967 -0.2135864645242691 0.9785405397415161
0.6645650863647461 -0.2243112325668335 0.9819039702415466
-0.40751951932907104 0.06095829978585243 0.8065956234931946
-0.3768296539783478 0.04542176425457001 0.7754522562026978
-0.3700217306613922 0.03002852201461792 0.743815541267395
-0.37493664026260376 0.031783413141965866 0.7834456562995911
-0.33495616912841797 0.03077731654047966 0.7191674709320068
-0.32578587532043457 0.010290373116731644 0.7167513370513916
-0.4260476529598236 0.11857672035694122 0.8588348627090454
-0.41520899534225464 0.07650996744632721 0.9123660326004028
-0.3979479968547821 0.06592784821987152 0.8581411838531494
-0.3819202780723572 0.05900602787733078 0.8561906814575195
-0.35173338651657104 0.04206160828471184 0.7854485511779785
-0.3310776352882385 0.012396156787872314 0.7626308798789978
-0.33995211124420166 -0.0033756643533706665 0.7281456589698792
-0.286243736743927 -0.011753454804420471 0.6385915875434875
-0.2909734547138214 -0.024752115830779076 0.6599801182746887
-0.2588905692100525 -0.056996218860149384 0.6302410960197449
-0.34004271030426025 0.02704278752207756 0.826413094997406
-0.320369690656662 0.022395577281713486 0.7575569748878479
-0.2693173587322235 -0.005531076341867447 0.6347551345825195
-0.3169384002685547 0.007213909178972244 0.7489147186279297
-0.3204883635044098 0.02149214968085289 0.7737128734588623
-0.3145245313644409 -0.0023717470467090607 0.7288159728050232
-0.2987751066684723 -0.027957461774349213 0.7368539571762085
-0.4026920795440674 0.09981425851583481 1.0509090423583984
-0.22729188203811646 -0.11383314430713654 0.6209821701049805
-0.19429920613765717 -0.12920381128787994 0.5423590540885925
-0.43774792551994324 0.08813953399658203 1.1602022647857666
-0.43273279070854187 0.09177934378385544 1.0774059295654297
-0.38541263341903687 0.0895988792181015 1.0277612209320068
-0.4588165581226349 0.10081493854522705 1.1794087886810303
-0.44302278757095337 0.1436164677143097 1.1147161722183228
-0.30065107345581055 -0.058648768812417984 0.8212701082229614
-0.48132121562957764 0.16058674454689026 1.3141728639602661
-0.43703168630599976 0.1319778561592102 1.258409023284912
-0.18643948435783386 -0.012040382251143456 0.668680727481842
-0.15788449347019196 -0.022985294461250305 0.5831893682479858
-0.26124635338783264 0.02218540757894516 0.8054326772689819
-0.1358642727136612 -0.049839336425065994 0.5764256119728088
-0.3064984083175659 0.030764710158109665 0.9769189357757568
-0.3074232339859009 0.0035476647317409515 0.9093170166015625
-0.26335352659225464 0.02183520421385765 0.8721405267715454
-0.25597095489501953 0.023616023361682892 0.9218437671661377
-0.24997740983963013 0.04421968758106232 0.9247192740440369
-0.30006012320518494 0.03333388268947601 1.0009207725524902
-0.43717071413993835 0.1072322353720665 1.381832480430603
-0.464908629655838 0.15152661502361298 1.4057146310806274
-0.2716721296310425 0.06148696690797806 1.0243686437606812
-0.35989582538604736 0.10450226068496704 1.1834189891815186
-0.3703005313873291 0.0710720345377922 1.1612374782562256
-0.41932159662246704 0.10547547042369843 1.4946491718292236
-0.4028627872467041 0.09866148233413696 1.3737480640411377
-0.43914923071861267 0.14186611771583557 1.47141695022583
-0.2992175221443176 0.06077096611261368 1.114201307296753
-0.2999214828014374 0.08775685727596283 1.1291682720184326
-0.2846379578113556 0.05836760997772217 1.0784976482391357
-0.2758215069770813 0.0658017098903656 1.0712746381759644
-0.35212987661361694 0.12201499193906784 1.3182047605514526
-0.3163135051727295 0.10936030745506287 1.2583131790161133
-0.31789103150367737 0.08422701060771942 1.43146812915802
-0.2052398920059204 0.062188275158405304 1.0787217617034912
-0.37304648756980896 0.12873899936676025 1.5134174823760986
-0.24802732467651367 0.06592360138893127 1.4118380546569824
-0.2804737091064453 0.10838253796100616 1.4032856225967407
-0.23000356554985046 0.06044508144259453 1.3442487716674805
-0.21471042931079865 0.0899263471364975 1.339320421218872
-0.1842455267906189 0.07318608462810516 1.253086805343628
-0.15472188591957092 0.05312848091125488 1.220045566558838
0.18891704082489014 -0.014731322415173054 1.1890445947647095
0.16665881872177124 -0.032050296664237976 1.199784517288208
0.19942636787891388 -0.03251521289348602 1.1537935733795166
0.21537482738494873 -0.013784997165203094 1.326692819595337
0.1807134449481964 -0.041906215250492096 1.2548692226409912
0.19455698132514954 -0.01827472634613514 1.262784719467163
0.2448713183403015 -0.026472367346286774 1.2143009901046753
0.2496037632226944 -0.057353027164936066 1.2057440280914307
0.2592851221561432 -0.03845398128032684 1.1187717914581299
0.2716015577316284 -0.04513741657137871 1.090997338294983
0.2533662021160126 -0.05192778632044792 1.1211204528808594
0.2708932161331177 -0.056941285729408264 1.1000782251358032
0.2990299165248871 -0.04777190089225769 1.1058704853057861
0.2544355094432831 -0.010924037545919418 1.4784737825393677
0.2465772032737732 -0.04117001220583916 1.4409549236297607
0.33771273493766785 -0.05746621638536453 1.0856719017028809
0.3131200969219208 -0.07720028609037399 1.0964115858078003
0.29526329040527344 -0.05685504525899887 1.111393690109253
0.3251307010650635 -0.06451431661844254 1.0798205137252808
0.357238233089447 -0.074783094227314 1.046751618385315
0.2772904932498932 -0.05636658892035484 1.3505594730377197
0.383090615272522 -0.06709364056587219 1.1747665405273438
0.3250245451927185 -0.08891410380601883 1.1163842678070068
0.33520063757896423 -0.06705315411090851 1.1300662755966187
0.3612879812717438 -0.050631679594516754 1.308767557144165
0.35751810669898987 -0.08640584349632263 1.1667773723602295
0.40299853682518005 -0.08418083935976028 1.0889145135879517
0.39299270510673523 -0.06920238584280014 1.136246919631958
0.38719701766967773 -0.08475884795188904 1.1073232889175415
0.3820951581001282 -0.10935033112764359 1.1339054107666016
0.3721950054168701 -0.05343138426542282 1.353789210319519
0.39190641045570374 -0.07197868824005127 1.2410732507705688
0.3672983646392822 -0.0942809209227562 1.2610751390457153
0.35822439193725586 -0.06891500949859619 1.4872411489486694
0.4162599742412567 -0.09018415212631226 1.129585862159729
0.390104740858078 -0.04630665481090546 1.4619652032852173
0.40266597270965576 -0.06902913004159927 1.4016525745391846
0.40622758865356445 -0.08450433611869812 1.4512805938720703
0.47932231426239014 -0.1579216569662094 0.9320465326309204
0.43165692687034607 -0.1031828448176384 1.3847036361694336
0.46005532145500183 -0.10953451693058014 1.3423149585723877
0.453020304441452 -0.08069320023059845 1.2953922748565674
0.45311397314071655 -0.1306924968957901 1.1981079578399658
0.46786588430404663 -0.09996265172958374 1.1980992555618286
0.47792789340019226 -0.08455095440149307 1.3050209283828735
0.4892949163913727 -0.09888383001089096 1.2421282529830933
0.5105637907981873 -0.12274838238954544 1.1790580749511719
0.5132060050964355 -0.08711328357458115 1.3300706148147583
0.5109147429466248 -0.11485663056373596 1.3025009632110596
0.5013340711593628 -0.272553414106369 0.7854157090187073
0.5244832038879395 -0.2953287959098816 0.6480244398117065
0.569811999797821 -0.2492472231388092 0.6364478468894958
0.5358907580375671 -0.24826472997665405 0.6693416833877563
0.5407133102416992 -0.18827645480632782 0.9870879650115967
0.5440301895141602 -0.1878719925880432 0.9454901814460754
0.5551767349243164 -0.12604054808616638 1.1715738773345947
0.6148282885551453 -0.19241681694984436 0.6736361384391785
0.5993140935897827 -0.1892956644296646 0.742958128452301
0.6216659545898438 -0.19562678039073944 0.9383909702301025
0.6419408917427063 -0.2226821631193161 0.8417586088180542
0.5927076935768127 -0.21572144329547882 0.8512986898422241
0.6169123649597168 -0.23772889375686646 0.8624979853630066
-0.36279886960983276 0.013700298964977264 0.6904386878013611
-0.35975393652915955 -0.003130778670310974 0.703537106513977
-0.47858792543411255 0.14180907607078552 1.0461632013320923
-0.47450879216194153 0.15366113185882568 1.055711269378662
-0.4479132294654846 0.13054433465003967 1.0103657245635986
-0.39259952306747437 0.08273407816886902 0.919331967830658
-0.3907768130302429 0.08079329133033752 0.9696668386459351
-0.3901340365409851 0.04733743518590927 0.8780641555786133
-0.35086625814437866 0.056379202753305435 0.8859127163887024
-0.4086523652076721 0.0647444799542427 1.0206204652786255
-0.4714561402797699 0.12130005657672882 1.1806256771087646
-0.4597454071044922 0.11818210780620575 1.141960859298706
-0.21803371608257294 -0.0025043413043022156 0.710172176361084
-0.25047415494918823 0.002507932484149933 0.6511532068252563
-0.19373883306980133 -0.016966551542282104 0.5903971195220947
-0.44561880826950073 0.13618844747543335 1.1885563135147095
-0.4892161786556244 0.13084208965301514 1.2287726402282715
-0.28875732421875 -0.0328243151307106 0.7797683477401733
-0.2776438891887665 -0.04448524862527847 0.7648426294326782
-0.20696201920509338 -0.0801205039024353 0.607022762298584
-0.18573692440986633 -0.10777103155851364 0.5633169412612915
-0.3078145980834961 0.04492462798953056 0.897911787033081
-0.513608992099762 0.1535804122686386 1.3323259353637695
-0.3257998824119568 0.051811978220939636 0.9393149614334106
-0.2827572226524353 0.0471794418990612 0.8707979321479797
-0.354007363319397 0.028912536799907684 0.9685511589050293
-0.3456721007823944 0.02092495560646057 0.9461091160774231
-0.29790547490119934 0.05561513453722 0.9606056809425354
-0.3765801787376404 0.05649569258093834 1.0578136444091797
-0.2530510127544403 0.020507298409938812 0.8283722400665283
-0.2244572639465332 -0.0032293424010276794 0.7644357681274414
-0.40669840574264526 0.10976466536521912 1.1263474225997925
-0.34916621446609497 0.08056072890758514 1.075035810470581
-0.3474928140640259 0.051726751029491425 1.0390820503234863
-0.47386300563812256 0.13988634943962097 1.396939992904663
-0.4373708665370941 0.08832178264856339 1.2082710266113281
-0.34954696893692017 0.06090844050049782 1.1241625547409058
-0.4662191867828369 0.12694749236106873 1.458606243133545
-0.3945377469062805 0.13638073205947876 1.360988736152649
-0.399684339761734 0.09066976606845856 1.248877763748169
-0.2839241027832031 0.06940729916095734 1.0676922798156738
-0.3106185793876648 0.05274669826030731 1.0806922912597656
-0.3809077739715576 0.1197134405374527 1.2493830919265747
-0.34175753593444824 0.1067177802324295 1.1916148662567139
-0.35646963119506836 0.12756553292274475 1.431939721107483
-0.33149340748786926 0.08038923889398575 1.2587639093399048
-0.2790921628475189 0.060248974710702896 1.1814658641815186
-0.2643269896507263 0.08258413523435593 1.1776297092437744
-0.24526339769363403 0.07029841840267181 1.113580346107483
-0.2501153349876404 0.05422447994351387 1.215532660484314
-0.22368848323822021 0.07236576080322266 1.12345290184021
-0.32272106409072876 0.11810927093029022 1.3463563919067383
-0.28538861870765686 0.07864637672901154 1.3150122165679932
-0.18532350659370422 0.05815981328487396 1.1200275421142578
-0.17033271491527557 0.05956604331731796 1.145830750465393
-0.2086828649044037 0.08319228142499924 1.412163257598877
-0.1984221637248993 0.045982953161001205 1.258697271347046
0.2237207442522049 -0.04923984780907631 1.136972427368164
0.16956055164337158 -0.004227716475725174 1.4087814092636108
0.2851702868938446 -0.032631561160087585 1.1736645698547363
0.27300748229026794 -0.05501951649785042 1.1667747497558594
0.2806910276412964 -0.03770974278450012 1.1068512201309204
0.3115793466567993 -0.0424138642847538 1.2797397375106812
0.3116680085659027 -0.07394871115684509 1.2016857862472534
0.3684695065021515 -0.06760705262422562 1.0516923666000366
0.3454805910587311 -0.03760004788637161 1.4247970581054688
0.3731357753276825 -0.10385388135910034 1.1628085374832153
0.4304891526699066 -0.07411621510982513 1.3664190769195557
0.4951160252094269 -0.1666608601808548 0.8434804081916809
0.5129386186599731 -0.16114965081214905 0.8242133855819702
0.5172320604324341 -0.1787915676832199 0.7124291062355042
0.5240148901939392 -0.1842428743839264 0.6384005546569824
0.5114961266517639 -0.20005887746810913 0.6533445715904236
0.4955127239227295 -0.12212223559617996 1.1157573461532593
0.5374318361282349 -0.16978704929351807 0.7177591323852539
0.5379257202148438 -0.17662988603115082 0.6437711715698242
0.48088887333869934 -0.21027810871601105 0.8991507291793823
0.47496694326400757 -0.21997882425785065 0.9501265287399292
0.45958971977233887 -0.2380504012107849 0.920511782169342
0.48900309205055237 -0.2274751365184784 0.8511134386062622
0.5645774006843567 -0.17668282985687256 0.7426955699920654
0.5665767192840576 -0.19162246584892273 0.6608268618583679
0.545472264289856 -0.17464497685432434 0.9113171696662903
0.5003862977027893 -0.2171470820903778 0.8938648104667664
0.5236558318138123 -0.23884204030036926 0.8396620154380798
0.49088627099990845 -0.23564185202121735 0.9013999700546265
0.5022161602973938 -0.2670730948448181 0.8308184146881104
0.5073113441467285 -0.19777911901474 0.967252790927887
0.5458893179893494 -0.2144736647605896 0.9159674048423767
0.5531296730041504 -0.25725725293159485 0.6784578561782837
0.532986581325531 -0.2850351631641388 0.6217819452285767
0.5859438180923462 -0.21843568980693817 0.6266373991966248
0.5542855858802795 -0.1698848307132721 0.9856349229812622
0.5641470551490784 -0.20072197914123535 0.7750440835952759
0.5316359400749207 -0.2697528600692749 0.7477006316184998
0.557858407497406 -0.26407867670059204 0.7387566566467285
0.5890363454818726 -0.25911402702331543 0.6570857763290405
0.6026771068572998 -0.19027495384216309 0.9184831976890564
0.6215472221374512 -0.1913265436887741 0.884638249874115
0.6231948137283325 -0.23067060112953186 0.7138858437538147
0.6172741651535034 -0.2418043166399002 0.7346099615097046
0.5525175929069519 -0.1463814228773117 1.085118293762207
0.6426957845687866 -0.1514044851064682 1.036043643951416
0.6036327481269836 -0.16794690489768982 1.0312232971191406
0.6067127585411072 -0.1311195194721222 1.222317099571228
0.6023777723312378 -0.13305050134658813 1.177778720855713
0.5989735126495361 -0.12947489321231842 1.1732509136199951
0.5988389253616333 -0.1485796868801117 1.1602884531021118
0.6318351626396179 -0.1476072371006012 1.094059944152832
0.6205669045448303 -0.15282198786735535 1.1133419275283813
-0.41507232189178467 0.09016154706478119 0.851668119430542
-0.4147089719772339 0.06874614208936691 0.8680094480514526
-0.40981847047805786 0.044330894947052 0.8393361568450928
-0.20678268373012543 -0.06055178493261337 0.5776221752166748
-0.19774344563484192 -0.10808929055929184 0.5465761423110962
-0.2746603786945343 -0.04251150041818619 0.7608458399772644
-0.27575749158859253 -0.05322962626814842 0.7058374881744385
-0.28667229413986206 -0.07661928236484528 0.7482962608337402
-0.2556142508983612 -0.08702638745307922 0.6379792094230652
-0.22393327951431274 -0.07327334582805634 0.6489720344543457
-0.21199771761894226 -0.10222437232732773 0.6208493709564209
-0.33036527037620544 0.0016326308250427246 0.8978229761123657
-0.3077632486820221 -0.0313500240445137 0.8543406128883362
-0.3173518180847168 -0.014176569879055023 0.8506923913955688
-0.24276384711265564 -0.08826164901256561 0.6870937943458557
-0.23604580760002136 -0.06581854820251465 0.686920702457428
-0.2779044210910797 -0.06191921606659889 0.7812097072601318
-0.2643902003765106 -0.0488639734685421 0.7343913316726685
-0.3681236803531647 0.08657796680927277 1.03520929813385
-0.26155492663383484 0.03640952333807945 0.8901456594467163
-0.23632001876831055 0.026296645402908325 0.9353649616241455
-0.23353269696235657 0.04627910256385803 0.9308212995529175
-0.3343817889690399 0.04877864941954613 1.0745348930358887
-0.26988375186920166 0.04778784140944481 1.0226051807403564
-0.24352283775806427 0.05212623253464699 0.9650019407272339
-0.24114669859409332 0.032575007528066635 0.9584312438964844
-0.32460418343544006 0.08430797606706619 1.3130898475646973
-0.24815458059310913 0.0658888965845108 1.05670166015625
-0.24626211822032928 0.042971715331077576 1.103379726409912
-0.22378341853618622 0.06689760833978653 1.0637497901916504
-0.19058988988399506 0.04299255460500717 1.1124646663665771
-0.1986885964870453 0.06051059812307358 1.0814807415008545
-0.16362126171588898 0.04826813191175461 1.174526572227478
0.4210345149040222 -0.09460505098104477 1.0434744358062744
0.40775415301322937 -0.06117365509271622 1.5265600681304932
0.4878601133823395 -0.13403604924678802 1.004374384880066
0.4434010982513428 -0.10082171112298965 0.9869492053985596
0.45628756284713745 -0.14117807149887085 0.9817629456520081
0.46687567234039307 -0.12855994701385498 0.9752148389816284
0.4491736888885498 -0.10217535495758057 1.17820405960083
0.4594358205795288 -0.17560936510562897 1.0048748254776
0.4729536175727844 -0.19049470126628876 0.9495822191238403
0.4546251595020294 -0.21120138466358185 0.9728366732597351
0.46077874302864075 -0.21143454313278198 0.9440428614616394
0.4786483347415924 -0.20104266703128815 0.8911501169204712
0.5135473608970642 -0.22173729538917542 0.6923636198043823
0.525120198726654 -0.2289491593837738 0.64129638671875
0.554232120513916 -0.22044144570827484 0.6290379166603088
0.5103126764297485 -0.16183018684387207 0.9848748445510864
0.5213057994842529 -0.1647578775882721 0.9484901428222656
0.49717557430267334 -0.2163105458021164 0.922694742679596
0.48781299591064453 -0.22537697851657867 0.8838958144187927
0.47315675020217896 -0.25088322162628174 0.8526178002357483
0.47811073064804077 -0.13027748465538025 1.289522647857666
0.5652639865875244 -0.18685875833034515 0.9166202545166016
0.5895506739616394 -0.20467451214790344 0.8697596788406372
0.5571209192276001 -0.18041686713695526 1.0413141250610352
0.6064558029174805 -0.26870864629745483 0.6970397233963013
0.615485668182373 -0.2326386719942093 0.6620261073112488
0.5834551453590393 -0.21698811650276184 0.8992379903793335
0.5882794857025146 -0.2313443422317505 0.848354160785675
0.6687299013137817 -0.18066918849945068 1.0248955488204956
0.6203649044036865 -0.21515867114067078 0.9867534637451172
0.6396703124046326 -0.19727033376693726 0.9810243844985962
0.6487921476364136 -0.230417400598526 0.8517130017280579
0.6537909507751465 -0.21372003853321075 0.8618896007537842
-0.4615866541862488 0.13120368123054504 1.0148504972457886
-0.2158733606338501 -0.05243057757616043 0.5210251808166504
-0.33651623129844666 -0.0034549832344055176 0.8327310085296631
-0.3160359263420105 -0.02642098441720009 0.8076537847518921
-0.3562127351760864 0.028992418199777603 0.8740382194519043
-0.4803257882595062 0.13263532519340515 1.3216341733932495
-0.3382008671760559 0.06238623708486557 0.9101364612579346
-0.3253767490386963 0.04191478714346886 0.8841646909713745
-0.16575589776039124 -0.06797832250595093 0.5631644129753113
-0.1530747413635254 -0.04308692365884781 0.5589070320129395
-0.29335397481918335 -0.015582852065563202 0.8562850952148438
-0.2767196297645569 -0.03798750415444374 0.8039653301239014
-0.29072457551956177 -0.03325139358639717 0.8461458683013916
-0.46168404817581177 0.11014293134212494 1.2765727043151855
-0.40981221199035645 0.11608565598726273 1.1768934726715088
-0.21268248558044434 0.07798611372709274 1.1805205345153809
0.14595812559127808 -0.01542422454804182 1.225785493850708
0.13139335811138153 -0.02699841931462288 1.2332683801651
0.2284228503704071 -0.05499698966741562 1.173864722251892
0.2342434674501419 -0.04117804020643234 1.1035003662109375
0.3020610213279724 -0.04292179271578789 1.2142069339752197
0.3580032289028168 -0.07116459310054779 1.0979746580123901
0.34854641556739807 -0.08455082029104233 1.0836037397384644
0.4046509265899658 -0.10536415874958038 1.2270710468292236
0.4246022403240204 -0.1130254715681076 1.3057774305343628
0.440059632062912 -0.13581478595733643 1.1230674982070923
0.46847760677337646 -0.24355682730674744 0.8576277494430542
0.5049940347671509 -0.2393101155757904 0.8078376054763794
0.49175989627838135 -0.26513582468032837 0.7658056616783142
0.5141776204109192 -0.24892619252204895 0.7137585282325745
0.5124359130859375 -0.17621010541915894 1.0474480390548706
0.5391367077827454 -0.2935018539428711 0.6433592438697815
-0.40315404534339905 0.05400201678276062 0.8639559745788574
-0.20674148201942444 -0.029862260445952415 0.7145693302154541
-0.17982856929302216 -0.044554680585861206 0.663856565952301
-0.4912550151348114 0.13688915967941284 1.4265506267547607
-0.24453124403953552 0.06117474287748337 1.0452886819839478
-0.2315138876438141 0.058010246604681015 1.016230821609497
-0.21985091269016266 0.05176132544875145 1.0465573072433472
-0.18323424458503723 0.059404000639915466 1.0903716087341309
-0.14173224568367004 0.03937314450740814 1.2431354522705078
-0.1492530256509781 0.022069863975048065 1.2435826063156128
0.3505576252937317 -0.08023586869239807 1.358014702796936
0.3763314485549927 -0.08707024902105331 1.4053831100463867
0.5097399950027466 -0.14990124106407166 1.014615535736084
0.5065075159072876 -0.14783179759979248 0.9403669834136963
0.4664967358112335 -0.15477527678012848 1.119497299194336
0.4865173101425171 -0.20934703946113586 0.8354754447937012
0.5295360684394836 -0.16589809954166412 1.0880950689315796
0.5215490460395813 -0.14866170287132263 1.1750022172927856
0.5988820791244507 -0.19161456823349 1.0119472742080688
0.5970203280448914 -0.20569294691085815 0.9495809078216553
0.6016708016395569 -0.2513178884983063 0.7841845750808716
0.554455041885376 -0.2667042911052704 0.70232093334198
0.6166684031486511 -0.2304692566394806 0.7742432951927185
-0.21501252055168152 -0.07062584906816483 0.5471037030220032
-0.1749526858329773 -0.05004556477069855 0.5481884479522705
-0.2768847346305847 -0.04363124817609787 0.7556425333023071
-0.21512949466705322 -0.07139947265386581 0.6094028353691101
-0.17638051509857178 -0.06893859058618546 0.607575535774231
-0.2806399166584015 0.018594976514577866 0.9120662808418274
-0.23096200823783875 0.05414064601063728 1.1903797388076782
-0.21693867444992065 0.05393945053219795 1.137775182723999
-0.21469174325466156 0.06264140456914902 1.1105091571807861
-0.19965949654579163 0.041447266936302185 1.1859021186828613
-0.17065563797950745 0.028129301965236664 1.1208865642547607
-0.16606062650680542 0.04358525574207306 1.109447956085205
0.23838074505329132 -0.02507905475795269 1.1093977689743042
0.44489365816116333 -0.14916576445102692 1.0516502857208252
0.47529327869415283 -0.18274648487567902 1.0452983379364014
0.4852692484855652 -0.19802521169185638 1.002925992012024
0.5724371075630188 -0.2459978610277176 0.8348426818847656
-0.2768288850784302 -0.028518442064523697 0.6141557693481445
-0.2661755681037903 -0.053618647158145905 0.5832166075706482
-0.26024019718170166 -0.0433473140001297 0.5773657560348511
-0.30507174134254456 0.03359571471810341 0.7974655628204346
-0.2594911754131317 -0.027260586619377136 0.7749785780906677
-0.2754940986633301 -0.028428560122847557 0.8260848522186279
-0.16814523935317993 0.03399386256933212 1.2050747871398926
-0.14062097668647766 0.03144831210374832 1.3126542568206787
-0.12940464913845062 0.035068415105342865 1.3013513088226318
0.1324981302022934 -0.035694971680641174 1.2454558610916138
0.19483010470867157 -0.008742313832044601 1.609500765800476
0.35060739517211914 -0.026699375361204147 1.5477491617202759
0.37212029099464417 -0.0473330020904541 1.5636307001113892
0.42051243782043457 -0.06427794694900513 1.4938273429870605
0.5641733407974243 -0.12200905382633209 1.2458508014678955
0.5892118215560913 -0.11939378827810287 1.2796130180358887
0.5875628590583801 -0.10533053427934647 1.221793293952942
0.5894567966461182 -0.13209912180900574 1.2051208019256592
0.61754310131073 -0.11872085183858871 1.2215251922607422
-0.4529913663864136 0.11195999383926392 0.9455552101135254
-0.4331516921520233 0.12133768200874329 0.9304598569869995
-0.5118111968040466 0.1628303825855255 1.1910632848739624
-0.4909689426422119 0.16456890106201172 1.177386999130249
-0.21369268000125885 -0.017603961750864983 0.5660707354545593
-0.1950545758008957 -0.03418244421482086 0.5270763039588928
-0.24815474450588226 -0.06824062764644623 0.6470103859901428
-0.2841513156890869 0.018356788903474808 0.752252995967865
-0.3509061634540558 0.07505406439304352 0.9598826169967651
-0.4887150824069977 0.14307589828968048 1.4765009880065918
0.23729583621025085 -0.03155822679400444 1.1736273765563965
0.2648678421974182 -0.022790875285863876 1.3918287754058838
0.373712956905365 -0.0764717385172844 1.1132806539535522
0.3648614287376404 -0.05452457442879677 1.2388951778411865
0.40933090448379517 -0.10165958106517792 1.0449966192245483
0.42504483461380005 -0.11720655858516693 0.9944931864738464
0.41383564472198486 -0.13202044367790222 1.0739240646362305
0.5049129724502563 -0.18595606088638306 0.7921223640441895
0.5092035531997681 -0.20072416961193085 0.78261399269104
0.5116527080535889 -0.2441748082637787 0.8458549976348877
0.5849620699882507 -0.17615695297718048 1.010709524154663
0.6086625456809998 -0.19654129445552826 0.7958260774612427
-0.23444363474845886 -0.05896078050136566 0.5522863864898682
-0.18888281285762787 -0.05946032330393791 0.5179504752159119
-0.2177409827709198 0.07114063203334808 1.0190331935882568
-0.19170014560222626 0.07071138918399811 1.109696865081787
-0.17048701643943787 0.03977736085653305 1.1628766059875488
0.582998514175415 -0.18992453813552856 0.8309100270271301
0.6019873023033142 -0.24156659841537476 0.6023027896881104
0.6071196794509888 -0.2454158514738083 0.6163759827613831
-0.30370622873306274 -0.030698906630277634 0.7907956838607788
-0.23018504679203033 -0.028613397851586342 0.7256824970245361
-0.21253877878189087 -0.05211014673113823 0.6845539808273315
0.4525219798088074 -0.08306999504566193 1.417669415473938
0.6161742806434631 -0.22226572036743164 0.608862042427063
0.627524733543396 -0.2206522673368454 0.9142958521842957
-0.23239919543266296 0.08711754530668259 1.2549257278442383
0.6143731474876404 -0.18883612751960754 1.0020874738693237
-0.23931410908699036 -0.0033495239913463593 0.799605131149292
0.515414834022522 -0.2736796736717224 0.660053551197052
0.600997805595398 -0.18444909155368805 0.9915030002593994
-0.29362133145332336 -0.056956443935632706 0.7575469017028809
-0.35455965995788574 -0.11475419998168945 0.9558042287826538
-0.36116182804107666 -0.11115209758281708 0.9657679796218872
-0.3434358537197113 -0.13365685939788818 0.9644975066184998
-0.353282630443573 -0.13093715906143188 0.9733397364616394
-0.33037012815475464 -0.08858348429203033 1.0233606100082397
-0.3366689682006836 -0.10179875046014786 1.0022366046905518
-0.32674428820610046 -0.09231949597597122 0.9730797410011292
-0.32375025749206543 -0.06484292447566986 1.0054770708084106
-0.32741016149520874 -0.11793030798435211 1.005835771560669
-0.3305821418762207 -0.14444245398044586 0.994576096534729
-0.31329622864723206 -0.05953884497284889 1.0822505950927734
-0.31156283617019653 -0.14423781633377075 0.9973856210708618
-0.3242596983909607 -0.11117368191480637 0.9979372620582581
-0.3142591118812561 -0.12841521203517914 1.0326805114746094
-0.3133792579174042 -0.10541287064552307 1.0276844501495361
-0.3017028272151947 -0.048000484704971313 1.0535801649093628
-0.3071637451648712 -0.09591273218393326 1.0262820720672607
-0.3068103790283203 -0.1038062646985054 1.0507806539535522
-0.3099975287914276 -0.0825904905796051 1.0789999961853027
-0.32442325353622437 -0.04594050347805023 1.1132699251174927
-0.3189859092235565 -0.0949678122997284 1.1070289611816406
-0.2898094952106476 0.0011574099771678448 1.1403348445892334
-0.2969096899032593 -0.010006828233599663 1.0983338356018066
-0.3146836459636688 -0.047543443739414215 1.147363543510437
-0.2660202383995056 -0.007314953487366438 1.087904453277588
-0.2716420292854309 -0.03346974402666092 1.1972756385803223
-0.2891378700733185 -0.09150587022304535 1.154694676399231
-0.2652740478515625 0.010096781887114048 1.1311159133911133
-0.236729696393013 0.0016693845391273499 1.1415667533874512
-0.23891939222812653 0.007274160161614418 1.1974809169769287
-0.21652325987815857 0.0071068815886974335 1.1965551376342773
-0.21375301480293274 -0.04598106071352959 1.2659997940063477
-0.2537692189216614 -0.07409980893135071 1.1997350454330444
-0.2071041315793991 0.010799530893564224 1.24009370803833
-0.23505569994449615 -0.015528157353401184 1.2460846900939941
-0.19579224288463593 0.006184857338666916 1.2778761386871338
-0.18181884288787842 0.0030706748366355896 1.3129156827926636
-0.1774265468120575 -0.043531306087970734 1.3178815841674805
-0.20927241444587708 -0.08397647738456726 1.2241532802581787
-0.18023988604545593 0.039551831781864166 1.695888876914978
-0.12125834822654724 0.0927654355764389 1.381616234779358
-0.12832942605018616 0.06582965701818466 0.8599505424499512
-0.17398348450660706 0.01605846732854843 0.8677149415016174
-0.1503676474094391 -0.07648009806871414 0.8715062141418457
-0.19361311197280884 -0.10442103445529938 0.8630245923995972
-0.1621210128068924 0.05501353368163109 1.6082050800323486
-0.1890658736228943 0.02899802103638649 1.7165671586990356
-0.1561906635761261 0.03442211449146271 1.6691306829452515
-0.13570737838745117 0.06529518961906433 1.6244840621948242
-0.1458853930234909 0.04672958329319954 1.5727791786193848
-0.11542290449142456 -0.003339674323797226 1.027764081954956
-0.1534966081380844 -0.049680355936288834 0.991298496723175
-0.16020932793617249 -0.11726965010166168 0.9779564142227173
-0.14526483416557312 0.02928270399570465 1.5069780349731445
-0.2791241705417633 -0.06652652472257614 0.05612979829311371
-0.2942928671836853 -0.12807917594909668 0.0244462750852108
-0.2990577518939972 -0.15170405805110931 0.042945440858602524
-0.15064455568790436 -0.03406739979982376 1.3653217554092407
-0.13975976407527924 0.006542205810546875 1.3151402473449707
-0.13484713435173035 -0.01911836862564087 1.2951290607452393
-0.15924888849258423 -0.04464280605316162 1.3532052040100098
-0.14285150170326233 -0.08714556694030762 1.3080071210861206
-0.21892149746418 -0.03123375028371811 0.47249144315719604
-0.21885716915130615 -0.059285786002874374 0.3879931569099426
-0.23146650195121765 -0.00663064606487751 0.327488511800766
-0.23761476576328278 -0.03399932011961937 0.354632169008255
-0.1492873728275299 0.044234443455934525 1.6392154693603516
-0.1374886929988861 -0.05837808549404144 1.263121247291565
-0.14124241471290588 -0.06660714745521545 1.2220208644866943
-0.1444144994020462 -0.09094913303852081 1.2513091564178467
-0.16783039271831512 -0.10379808396100998 1.251228928565979
-0.22675548493862152 0.003485312219709158 0.2528311610221863
-0.14856605231761932 -0.0332694873213768 1.5001798868179321
-0.13139492273330688 0.03474142774939537 1.5077145099639893
-0.14074885845184326 0.005429014563560486 1.4992711544036865
-0.18854326009750366 -0.06832169741392136 0.5708305239677429
-0.10447466373443604 0.023934446275234222 1.7289925813674927
-0.12868113815784454 -0.11084003001451492 1.1902134418487549
-0.1167929470539093 -0.03902895376086235 1.142515778541565
-0.13209418952465057 -0.12610816955566406 0.7397168278694153
-0.10429642349481583 0.07338616997003555 1.6840046644210815
-0.12980909645557404 -0.06382741034030914 1.3756828308105469
-0.10238820314407349 -0.11940237879753113 0.8455839157104492
-0.13766466081142426 -0.13074463605880737 0.8668422102928162
-0.12246482819318771 -0.1964530497789383 0.9062511920928955
-0.10536152124404907 -0.2124766707420349 0.8450063467025757
-0.2722408175468445 -0.1893729716539383 0.06173928081989288
-0.06834959983825684 0.08967690169811249 1.6838881969451904
-0.0982363373041153 0.033757030963897705 1.7141165733337402
-0.1470361053943634 -0.01015569269657135 1.4155937433242798
-0.13027559220790863 -0.03519672155380249 1.4589338302612305
-0.19725582003593445 0.014286885038018227 0.32189732789993286
-0.2244303673505783 -0.009913678281009197 0.2049747109413147
-0.26197898387908936 -0.1852613091468811 0.10450374335050583
-0.2288672924041748 -0.0026345625519752502 0.06153034418821335
-0.10968123376369476 -0.015770111232995987 1.3005685806274414
-0.16934560239315033 -0.09453774988651276 0.5436589121818542
-0.22741074860095978 -0.150509774684906 0.0029700342565774918
-0.2675744593143463 -0.15128815174102783 -5.724852962885052e-05
-0.0981610044836998 0.02483387663960457 1.5225529670715332
-0.10558781027793884 -0.002965133637189865 1.4799624681472778
-0.03295249491930008 -0.21447883546352386 0.8992370963096619
-0.07783882319927216 0.08857468515634537 0.8582381010055542
-0.22388604283332825 -0.1122492253780365 0.2649250626564026
-0.20113186538219452 -0.10875485837459564 0.18897517025470734
-0.20747320353984833 -0.010903354734182358 0.10447357594966888
-0.09496976435184479 -0.015331070870161057 1.2666430473327637
-0.10429603606462479 -0.0338919535279274 1.2266664505004883
-0.07829056680202484 -0.13334350287914276 1.2890863418579102
-0.1362149566411972 -0.027492808178067207 0.6635816097259521
-0.1154313012957573 -0.1282024085521698 0.7325849533081055
-0.07253056019544601 -0.11901895701885223 0.8076979517936707
-0.1919710487127304 -0.11666303128004074 0.1551220864057541
-0.21513713896274567 -0.17966127395629883 0.06845225393772125
-0.12545859813690186 -0.08600664138793945 1.4508124589920044
-0.09358221292495728 -0.007466647773981094 1.3346667289733887
-0.06515523046255112 -0.012554734945297241 1.273385763168335
-0.13892805576324463 -0.09614843130111694 0.5663149356842041
-0.11768681555986404 -0.07683917135000229 0.5659937858581543
-0.15517699718475342 0.01931610144674778 0.5093069076538086
-0.09927134215831757 -0.07340148091316223 1.4221848249435425
-0.07191941142082214 -0.03735877573490143 1.408500075340271
-0.10005131363868713 0.006855662912130356 1.374291181564331
-0.12898659706115723 -0.018291478976607323 0.5148479342460632
-0.05642889067530632 0.04396389424800873 1.7201625108718872
-0.1220274567604065 -0.12745216488838196 1.577582597732544
-0.038867849856615067 -0.18803265690803528 0.9749274253845215
-0.07750697433948517 -0.047330379486083984 1.4211833477020264
-0.058172427117824554 -0.07612980902194977 1.4057378768920898
-0.07784804701805115 -0.05991208180785179 1.3995424509048462
-0.07124021649360657 -0.12711188197135925 1.5125566720962524
-0.10655343532562256 -0.1163070946931839 1.4619064331054688
-0.051571838557720184 -0.018489673733711243 1.4321950674057007
-0.09964978694915771 -0.04195643961429596 0.6342405676841736
-0.017598941922187805 -0.0018788278102874756 1.7373634576797485
-0.024414312094449997 0.09860654920339584 1.6563799381256104
-0.06117739900946617 -0.14323651790618896 1.4632140398025513
-0.0733230710029602 -0.11785243451595306 1.4200438261032104
-0.03570724278688431 -0.028515564277768135 1.4084157943725586
-0.04767073318362236 -0.12366880476474762 1.4216461181640625
-0.007571227848529816 -0.011268656700849533 1.3872225284576416
-0.02603807859122753 -0.02712799236178398 1.2657774686813354
-0.012296948581933975 0.05000598728656769 1.7177855968475342
-0.01798931322991848 -0.029849795624613762 1.4351708889007568
-0.02393622323870659 -0.0708744078874588 1.4202711582183838
0.017364729195833206 0.06268090009689331 1.6828885078430176
-0.005880706012248993 0.007170267403125763 1.721997857093811
-0.01990288496017456 -0.06293748319149017 1.410231590270996
0.009267464280128479 -0.09325165301561356 1.4434956312179565
-0.01318640261888504 -0.04417937621474266 1.4150359630584717
0.0742616057395935 -0.09127833694219589 0.5865905284881592
0.014245960861444473 -0.008000165224075317 1.4674078226089478
0.1103823110461235 -0.11222334951162338 0.5032238960266113
-0.008674235083162785 -0.17171761393547058 1.2489807605743408
0.04343226179480553 -0.058364760130643845 1.2439377307891846
0.04493831843137741 -0.07885053753852844 1.1360368728637695
0.1423722356557846 -0.15484286844730377 0.06840655952692032
0.15818490087985992 -0.14952482283115387 0.04634183645248413
0.12877216935157776 -0.016038674861192703 0.07049021124839783
0.005520515143871307 -0.15632721781730652 1.235922932624817
-0.0034800879657268524 -0.1928914189338684 1.1613218784332275
0.06914784759283066 -0.14063724875450134 0.7255578637123108
0.1252356469631195 -0.07206165045499802 0.04487817734479904
0.040742479264736176 -0.0022561214864253998 1.6820685863494873
-0.006640136241912842 -0.14100727438926697 1.5848416090011597
-0.007810235023498535 -0.12344005703926086 1.5031428337097168
-0.007955662906169891 -0.12321412563323975 1.4607897996902466
0.0952654778957367 -0.16222774982452393 0.8724217414855957
0.08792681246995926 -0.01330433040857315 1.7102537155151367
0.019599566236138344 -0.009390346705913544 1.5165650844573975
0.017181893810629845 -0.030305292457342148 1.4875727891921997
0.1324828714132309 -0.02668951451778412 0.32083722949028015
0.12492792308330536 -0.019700294360518456 0.258220374584198
0.14150404930114746 -0.008576355874538422 0.05140722915530205
0.03269312158226967 -0.01637095957994461 1.7636313438415527
0.04946951940655708 -0.03242050111293793 1.3858134746551514
0.09635160863399506 -0.21939635276794434 0.8593026399612427
0.0856986939907074 -0.13274553418159485 0.8588341474533081
0.12706279754638672 -0.19621844589710236 0.8604271411895752
0.09378711879253387 -0.03975091874599457 0.7468791007995605
0.183843195438385 -0.14978034794330597 0.059109803289175034
0.05157658830285072 -0.013072114437818527 1.6927939653396606
0.031611960381269455 -0.1656191200017929 1.130409598350525
0.032873477786779404 -0.14574289321899414 1.2518987655639648
0.03241022676229477 -0.16240543127059937 1.2493335008621216
0.12419670820236206 -0.19042176008224487 0.9272884130477905
0.036677874624729156 -0.08204638212919235 1.525296688079834
0.04815102368593216 -0.009888134896755219 1.5288794040679932
0.043793708086013794 -0.03485344350337982 1.5134937763214111
0.04867160692811012 -0.05024956911802292 1.5089727640151978
0.05446202680468559 -0.06277606636285782 1.485762119293213
0.1338319033384323 -0.06602183729410172 0.6448037624359131
0.13168710470199585 -0.1312045156955719 0.6639506816864014
0.05838639289140701 -0.06991825997829437 1.3692638874053955
0.06480986624956131 -0.027058739215135574 1.3095877170562744
0.0350075364112854 -0.027614589780569077 1.3287124633789062
0.04293423518538475 -0.04684855043888092 1.30387544631958
0.1219288557767868 -0.11942081898450851 0.8265331983566284
0.18635597825050354 -0.02959645539522171 0.054264336824417114
0.19860178232192993 -0.054819200187921524 0.05103490874171257
0.058824025094509125 -0.02048271894454956 1.6477967500686646
0.07301266491413116 -0.04443512111902237 1.3613381385803223
0.19523191452026367 -0.07424852252006531 0.30637499690055847
0.08457788825035095 -0.004706535488367081 1.6253691911697388
0.06334486603736877 0.022106416523456573 1.6309351921081543
0.07088153064250946 -0.00645504891872406 1.5945444107055664
0.20175963640213013 -0.05775337666273117 0.1285516321659088
0.20847880840301514 -0.11621734499931335 0.058373499661684036
0.1970808207988739 -0.14383575320243835 0.0874021127820015
0.15148571133613586 -0.0171339251101017 0.9665552377700806
0.14831620454788208 -0.01728852652013302 0.867719292640686
0.0848240926861763 -0.02920186147093773 1.7050096988677979
0.1657259166240692 0.035940416157245636 0.8740330934524536
0.17852750420570374 -0.0006883316673338413 0.9366514682769775
0.08706119656562805 -0.0385204441845417 1.3041315078735352
0.09488645195960999 -0.059972167015075684 1.2912081480026245
0.06830611824989319 -0.07228761166334152 1.3395360708236694
0.09613527357578278 -0.050313759595155716 1.2502635717391968
0.08593828976154327 -0.052144501358270645 1.2304699420928955
0.09309021383523941 -0.12641827762126923 1.221175193786621
0.1077776625752449 -0.08427134901285172 1.2522889375686646
0.1273592710494995 -0.06630691885948181 1.185610055923462
0.1388946771621704 -0.07659275084733963 1.1107780933380127
0.16268345713615417 -0.09091997146606445 1.123989462852478
0.15122869610786438 -0.10194779932498932 1.1761155128479004
0.12203317880630493 -0.13312868773937225 1.196936011314392
0.16437774896621704 -0.11714623868465424 1.0736414194107056
0.17901533842086792 -0.1747814416885376 1.1288210153579712
0.18704023957252502 -0.15651942789554596 1.108264446258545
0.17910800874233246 -0.13217008113861084 1.0815171003341675
0.1335817575454712 -0.20850250124931335 1.1157138347625732
0.15798574686050415 -0.18222251534461975 1.0819480419158936
0.15922817587852478 -0.165033757686615 1.0667673349380493
0.18782275915145874 -0.24935930967330933 0.9723396301269531
0.13644182682037354 -0.1962069272994995 1.083185076713562
0.13675805926322937 -0.21584013104438782 1.0551702976226807
0.17560404539108276 -0.19994807243347168 0.9998317360877991
0.14082501828670502 -0.20609283447265625 1.0295487642288208
0.133192241191864 -0.23153331875801086 1.034332036972046
0.15599337220191956 -0.2304389774799347 1.005383014678955
0.17171549797058105 -0.23627343773841858 1.001448631286621
0.12798020243644714 -0.25144246220588684 1.0103111267089844
0.15007418394088745 -0.24894458055496216 1.0012189149856567
0.13872915506362915 -0.24798054993152618 1.0101218223571777
0.1807534545660019 -0.2542852759361267 0.9533994793891907
0.14376334846019745 -0.2627810835838318 0.998212456703186
0.1657545268535614 -0.23724842071533203 0.9668448567390442
0.16551527380943298 -0.26879584789276123 0.9668413400650024
0.18021917343139648 -0.26392465829849243 0.9693436026573181
-0.30183929204940796 -0.03993864357471466 1.0772815942764282
-0.2956954538822174 -0.09301025420427322 1.0640994310379028
-0.28169968724250793 -0.07758570462465286 1.0617619752883911
-0.30053091049194336 -0.1097308024764061 1.099318504333496
-0.2501455545425415 -0.04042934253811836 1.0731979608535767
-0.27630698680877686 -0.11258386075496674 1.0826817750930786
-0.19657287001609802 -0.01347435638308525 1.2181386947631836
-0.1979285478591919 -0.06475487351417542 1.194173812866211
-0.172123521566391 -0.09598938375711441 0.9569761753082275
-0.1762290894985199 -0.01454024389386177 0.937787652015686
-0.12620720267295837 0.05101589113473892 0.9236960411071777
-0.08212019503116608 0.13308462500572205 1.2529923915863037
-0.07605508714914322 0.1316787302494049 1.1956068277359009
-0.07142907381057739 0.15542934834957123 1.1721242666244507
-0.15096428990364075 -0.010909441858530045 0.9581364393234253
-0.19134676456451416 0.02438385784626007 1.686113953590393
-0.14859925210475922 -0.003502931445837021 1.334179401397705
-0.1682344228029251 -0.0016667582094669342 1.269972801208496
-0.009541815146803856 0.14657755196094513 1.0799646377563477
-0.030496496707201004 0.15086564421653748 1.0029511451721191
-0.28138819336891174 -0.0805804580450058 0.11616422235965729
-0.29996541142463684 -0.13454852998256683 0.06945370882749557
-0.1697414219379425 0.011174008250236511 1.6702935695648193
-0.1550818532705307 0.025026585906744003 1.6174869537353516
-0.15598943829536438 -0.1257876753807068 1.226480484008789
-0.15606974065303802 -0.14050570130348206 1.2015975713729858
-0.1609613448381424 -0.15980277955532074 1.1960177421569824
-0.09213726222515106 0.09451540559530258 1.3592146635055542
-0.08395245671272278 0.08730415254831314 1.3557990789413452
-0.13723820447921753 -0.1296570599079132 1.242240309715271
-0.14477726817131042 -0.0595029778778553 1.1893060207366943
-0.2526198923587799 -0.09881242364645004 0.1801101416349411
-0.26083239912986755 -0.05394184961915016 0.1897462159395218
-0.036292970180511475 0.11114451289176941 1.247419834136963
-0.1539674550294876 -0.022676516324281693 1.4269603490829468
-0.15201778709888458 -0.016857311129570007 1.406914234161377
-0.13920855522155762 -0.019151680171489716 1.3898708820343018
-0.153811976313591 -0.01499214768409729 1.3872801065444946
-0.1544608771800995 -0.03146832808852196 1.3764443397521973
-0.14593307673931122 -0.11039358377456665 0.7865809798240662
-0.1585833877325058 -0.0716228038072586 0.781468391418457
0.0023724716156721115 0.2002660632133484 1.0925612449645996
-0.0008036475628614426 0.197320818901062 1.140336275100708
-0.12825752794742584 -0.12309332191944122 1.2368112802505493
-0.12542888522148132 -0.11011379957199097 0.8591475486755371
-0.2540753185749054 -0.017594486474990845 0.11137519031763077
-0.2592104375362396 -0.018834125250577927 0.07332135736942291
-0.13726665079593658 -0.18459075689315796 0.846121609210968
-0.0328633189201355 0.1695616990327835 1.232576847076416
-0.15642130374908447 -0.0963551476597786 1.5757427215576172
-0.12291815876960754 0.011224448680877686 1.5037821531295776
-0.08561096340417862 0.09101095795631409 1.4816784858703613
-0.08821365982294083 0.05689103901386261 1.5338222980499268
-0.10894303023815155 0.05763985961675644 1.5085639953613281
-0.09336549043655396 0.07543782889842987 1.4296811819076538
-0.04184000566601753 0.10935189574956894 1.5261738300323486
-0.11665476858615875 -0.021975215524435043 1.4557461738586426
-0.0843440368771553 0.04373522475361824 0.9684361219406128
-0.13282644748687744 0.016200274229049683 1.7662070989608765
-0.14065194129943848 0.011087991297245026 1.7596302032470703
