-0.2103796899318695 -0.06867597252130508 1.282623291015625
-0.2495771050453186 -0.08844849467277527 1.2060084342956543
-0.20397479832172394 0.0025598816573619843 1.2587981224060059
-0.23140843212604523 -0.02958400547504425 1.2603087425231934
-0.1946619600057602 -0.00314151868224144 1.2997267246246338
-0.18297472596168518 -0.012653674930334091 1.3386094570159912
-0.1741475611925125 -0.06337961554527283 1.346863865852356
-0.19545091688632965 -0.10440991818904877 1.2379732131958008
-0.18800079822540283 0.04014183580875397 1.7599127292633057
-0.14915597438812256 0.0985836386680603 1.4175249338150024
-0.13640746474266052 0.06520894914865494 0.8644214868545532
-0.1816326081752777 0.016124684363603592 0.8651763796806335
-0.15611396729946136 -0.07515191286802292 0.8750138282775879
-0.19861945509910583 -0.10590013861656189 0.863971471786499
-0.17334675788879395 0.04818429425358772 1.6617093086242676
-0.191080704331398 0.018989726901054382 1.7827389240264893
-0.16159963607788086 0.03153189271688461 1.7282357215881348
-0.1433541178703308 0.06391200423240662 1.6750757694244385
-0.15550275146961212 0.04716654494404793 1.6276147365570068
-0.1186596006155014 0.0009187404066324234 1.0475521087646484
-0.15662600100040436 -0.053212691098451614 1.0084080696105957
-0.1598791480064392 -0.12294739484786987 0.9980652332305908
-0.14647817611694336 0.024302631616592407 1.5550613403320312
-0.22673071920871735 -0.12504889070987701 0.04603472352027893
-0.23681436479091644 -0.19338975846767426 0.022208301350474358
-0.23475556075572968 -0.21827946603298187 0.04180695489048958
-0.14146864414215088 -0.04983709380030632 1.399930715560913
-0.1352173537015915 -0.002793535590171814 1.3493666648864746
-0.12548942863941193 -0.027084751054644585 1.3297157287597656
-0.15016788244247437 -0.06218620017170906 1.3855737447738647
-0.13032251596450806 -0.10179702937602997 1.3428480625152588
-0.1886426955461502 -0.08046896010637283 0.4722558856010437
-0.1853012591600418 -0.11196417361497879 0.3917541801929474
-0.19358450174331665 -0.0673469677567482 0.3225845396518707
-0.19697777926921844 -0.08851562440395355 0.3568804860115051
-0.15712592005729675 0.04035460576415062 1.6974496841430664
-0.1266404539346695 -0.06751266121864319 1.2969694137573242
-0.12880897521972656 -0.07334522902965546 1.253018856048584
-0.12874770164489746 -0.10757777839899063 1.2808654308319092
-0.15362548828125 -0.1248258724808693 1.2790935039520264
-0.18587085604667664 -0.05778595805168152 0.25613948702812195
-0.14089809358119965 -0.047387003898620605 1.553266167640686
-0.1389470249414444 0.02875557169318199 1.5552000999450684
-0.14164084196090698 -0.0010538101196289062 1.5505367517471313
-0.15970420837402344 -0.10809025913476944 0.5722989439964294
-0.10189057886600494 0.02757222205400467 1.7952473163604736
-0.11448872089385986 -0.12122727185487747 1.2206242084503174
-0.11220219731330872 -0.03886587545275688 1.1718621253967285
-0.12108063697814941 -0.13732808828353882 0.753034234046936
-0.11383933573961258 0.08064431697130203 1.7366365194320679
-0.11724301427602768 -0.08486754447221756 1.4144079685211182
-0.10215452313423157 -0.11781845986843109 0.8523725271224976
-0.1421220749616623 -0.13162770867347717 0.8749104738235474
-0.12452255189418793 -0.20436757802963257 0.9183664321899414
-0.10742312669754028 -0.21914201974868774 0.8543311357498169
-0.20852923393249512 -0.24885821342468262 0.07227645814418793
-0.07165256887674332 0.10858947038650513 1.735316276550293
-0.09607110917568207 0.03884685039520264 1.7813620567321777
-0.14471766352653503 -0.02496543899178505 1.4588443040847778
-0.12141020596027374 -0.051705069839954376 1.512105107307434
-0.15276294946670532 -0.04079524800181389 0.3229711651802063
-0.1780567169189453 -0.06428861618041992 0.2108621448278427
-0.2015058547258377 -0.23977123200893402 0.11106865853071213
-0.1813002973794937 -0.04914962127804756 0.052291229367256165
-0.10128375887870789 -0.023732854053378105 1.3317458629608154
-0.13879217207431793 -0.13696259260177612 0.5475121736526489
-0.16384495794773102 -0.21345944702625275 0.011589695699512959
-0.205947145819664 -0.22057436406612396 0.0021593349520117044
-0.098882295191288 0.027399759739637375 1.5721746683120728
-0.09617502987384796 -0.007966794073581696 1.5282450914382935
-0.02856534533202648 -0.22019439935684204 0.9128724336624146
-0.08634180575609207 0.08832605183124542 0.8632462620735168
-0.17889325320720673 -0.17010776698589325 0.2668626010417938
-0.15218128263950348 -0.16470476984977722 0.18865405023097992
-0.16177035868167877 -0.05823718011379242 0.10295263677835464
-0.08662040531635284 -0.01687958836555481 1.2999142408370972
-0.09509436041116714 -0.03433704376220703 1.257023811340332
-0.05945625528693199 -0.1422702670097351 1.325348973274231
-0.12008625268936157 -0.05673506110906601 0.6622992157936096
-0.10150258243083954 -0.14064568281173706 0.7429807186126709
-0.06845392286777496 -0.118403859436512 0.8157235980033875
-0.1436254382133484 -0.16814632713794708 0.1565389633178711
-0.1555349975824356 -0.2360602468252182 0.08370997756719589
-0.11152316629886627 -0.10299573093652725 1.5070712566375732
-0.08393995463848114 -0.010936517268419266 1.3686001300811768
-0.056240472942590714 -0.011367745697498322 1.301939845085144
-0.10848382860422134 -0.13963958621025085 0.5713948011398315
-0.08302166312932968 -0.11886344105005264 0.5735835433006287
-0.12519603967666626 -0.028340108692646027 0.5062527656555176
-0.08100133389234543 -0.09210450947284698 1.4756826162338257
-0.06066342815756798 -0.043624866753816605 1.4513177871704102
-0.09284603595733643 -0.0014522410929203033 1.4115235805511475
-0.09295974671840668 -0.06265858560800552 0.5150852799415588
-0.05381220206618309 0.05961987376213074 1.7817472219467163
-0.10059160739183426 -0.14024618268013 1.6494462490081787
-0.027707193046808243 -0.19001898169517517 1.0002217292785645
-0.060814034193754196 -0.056012921035289764 1.4676110744476318
-0.039435259997844696 -0.08517641574144363 1.4517617225646973
-0.05965634062886238 -0.06951854377985 1.4440537691116333
-0.04460363835096359 -0.1339903026819229 1.5774638652801514
-0.08802299201488495 -0.13672307133674622 1.5212054252624512
-0.038162074983119965 -0.023854635655879974 1.4783610105514526
-0.07618565857410431 -0.07717393338680267 0.6389855146408081
-0.0023646280169487 0.014922313392162323 1.8073488473892212
-0.030921626836061478 0.12063082307577133 1.7036330699920654
-0.030805811285972595 -0.15306133031845093 1.5294606685638428
-0.04691023752093315 -0.1360960304737091 1.4780240058898926
-0.022515738382935524 -0.029374929144978523 1.4523833990097046
-0.01977274939417839 -0.13270509243011475 1.4763033390045166
0.008871372789144516 -0.005361352115869522 1.4266537427902222
-0.01781538315117359 -0.018847286701202393 1.2967865467071533
-0.0017625503242015839 0.07116182893514633 1.7782083749771118
0.004050940275192261 -0.03488603234291077 1.4849371910095215
-0.0004052054136991501 -0.08220276981592178 1.4687719345092773
0.025541653856635094 0.09345732629299164 1.7328749895095825
0.013325300067663193 0.027325525879859924 1.7862058877944946
0.0026159165427088737 -0.07522446662187576 1.4487733840942383
0.03655469790101051 -0.09948910772800446 1.4967222213745117
0.008142106235027313 -0.050999902188777924 1.45927095413208
0.06137308105826378 -0.08019820600748062 0.592327356338501
0.033326778560876846 0.00286107137799263 1.511167287826538
0.09283223748207092 -0.09200523793697357 0.5104049444198608
0.022633524611592293 -0.17854568362236023 1.2763803005218506
0.06539793312549591 -0.04067287594079971 1.275392770767212
0.06565646827220917 -0.061049409210681915 1.156589388847351
0.12312348932027817 -0.0520126149058342 0.09795089066028595
0.14744336903095245 -0.04508095234632492 0.08408165723085403
0.11624220013618469 0.06866737455129623 0.09998118877410889
0.03853118419647217 -0.15677911043167114 1.2632453441619873
0.026527073234319687 -0.19112750887870789 1.1873282194137573
0.06383679807186127 -0.13760186731815338 0.7335081100463867
0.1090269610285759 0.018279746174812317 0.06762100756168365
0.06646476686000824 0.02334035187959671 1.7438087463378906
0.033739153295755386 -0.13829350471496582 1.6566414833068848
0.020969830453395844 -0.1255398839712143 1.5676532983779907
0.027180057018995285 -0.13109911978244781 1.520003318786621
0.09604103863239288 -0.15816164016723633 0.8734463453292847
0.11535309255123138 0.019224241375923157 1.7692303657531738
0.04126773402094841 0.0002698563039302826 1.568721055984497
0.04029396176338196 -0.01600426807999611 1.53922700881958
0.11582076549530029 0.015138939023017883 0.34329238533973694
0.1090424582362175 0.035463571548461914 0.28603991866111755
0.12859323620796204 0.07923128455877304 0.081844761967659
0.061652205884456635 0.0058259256184101105 1.8322913646697998
0.07884083688259125 -0.02275797724723816 1.433995246887207
0.09966500103473663 -0.2168186902999878 0.8640537261962891
0.08477983623743057 -0.13019365072250366 0.860851526260376
0.12745411694049835 -0.1921616792678833 0.8596994876861572
0.09059305489063263 -0.04108177125453949 0.7534870505332947
0.17259447276592255 -0.04384191334247589 0.09514638781547546
0.07093434035778046 0.009878944605588913 1.7543145418167114
0.0569494366645813 -0.1555476039648056 1.1558362245559692
0.0664578527212143 -0.14805416762828827 1.2826578617095947
0.07033424079418182 -0.16596296429634094 1.2769436836242676
0.13223044574260712 -0.18549203872680664 0.930600643157959
0.06650908291339874 -0.07342398166656494 1.58695650100708
0.06953809410333633 0.0037841796875 1.5753674507141113
0.067476287484169 -0.022766154259443283 1.5681493282318115
0.075431227684021 -0.03824482858181 1.5623255968093872
0.09034151583909988 -0.051065001636743546 1.5379881858825684
0.12668611109256744 -0.060330264270305634 0.6513289213180542
0.12454430758953094 -0.12613455951213837 0.6684328317642212
0.09954933822154999 -0.07309173047542572 1.40467369556427
0.10152160376310349 -0.012777578085660934 1.351215124130249
0.06250421702861786 -0.015605665743350983 1.363715648651123
0.07325591146945953 -0.03628278896212578 1.3398826122283936
0.11923231184482574 -0.11795705556869507 0.8294746279716492
0.17286738753318787 0.05792497843503952 0.08416078239679337
0.1905035525560379 0.029667437076568604 0.07532626390457153
0.08808963000774384 -0.00028244778513908386 1.7079603672027588
0.1072516143321991 -0.03671273589134216 1.4056382179260254
0.17823785543441772 -0.026595452800393105 0.3243144154548645
0.10849107801914215 0.02177540585398674 1.6794066429138184
0.08244536817073822 0.04777350649237633 1.6810500621795654
0.09351746737957001 0.018055204302072525 1.6478044986724854
0.19032932817935944 0.013651356101036072 0.14976158738136292
0.19870233535766602 -0.022050879895687103 0.09081342071294785
0.17573975026607513 -0.0501013845205307 0.11685364693403244
0.16063019633293152 -0.01086703035980463 0.9684553146362305
0.14950823783874512 -0.013938573189079762 0.8686096668243408
0.11661888659000397 -0.0054314471781253815 1.7701739072799683
0.16821551322937012 0.04063679650425911 0.8768691420555115
0.1856967806816101 0.004206427372992039 0.9373932480812073
0.13344435393810272 -0.020950887352228165 1.3416881561279297
0.1502736210823059 -0.0429067499935627 1.3219267129898071
0.11034286022186279 -0.07546748220920563 1.3676282167434692
0.14719846844673157 -0.01929323375225067 1.28513503074646
0.13311192393302917 -0.02315368503332138 1.2654722929000854
0.16920144855976105 -0.10624810308218002 1.2283929586410522
0.17475298047065735 -0.056239962577819824 1.277439832687378
0.18775486946105957 -0.01132715493440628 1.215848684310913
0.20501811802387238 -0.0025471821427345276 1.1373330354690552
0.2332465648651123 -0.012072794139385223 1.1545556783676147
0.22266872227191925 -0.04114784300327301 1.1967785358428955
0.21081288158893585 -0.09329839050769806 1.2118990421295166
0.24306514859199524 -0.011937648057937622 1.09963059425354
0.27638688683509827 -0.09231331944465637 1.135831356048584
0.2823924422264099 -0.05883396416902542 1.1213465929031372
0.2701214849948883 -0.03231276199221611 1.097703218460083
0.2544911503791809 -0.13691402971744537 1.111555814743042
0.265289306640625 -0.0927966833114624 1.082869052886963
0.26281869411468506 -0.0676000639796257 1.076769471168518
0.32017189264297485 -0.11545251309871674 0.9548531770706177
0.2526036202907562 -0.11618542671203613 1.079339861869812
0.25169283151626587 -0.12545713782310486 1.0512127876281738
0.2867467701435089 -0.08651764690876007 1.0005295276641846
0.2549712359905243 -0.11123519390821457 1.0279781818389893
0.25904396176338196 -0.13861027359962463 1.0260134935379028
0.2813921570777893 -0.12104065716266632 0.9923499822616577
0.30571481585502625 -0.1238708347082138 0.9829411506652832
0.265452116727829 -0.16382446885108948 0.9893971681594849
0.2895338237285614 -0.13935373723506927 0.9800775051116943
0.27792805433273315 -0.15025745332241058 0.9900047779083252
0.315090149641037 -0.12095915526151657 0.9353622198104858
0.28766003251075745 -0.1628371924161911 0.9755115509033203
0.29506316781044006 -0.11474776268005371 0.9528558254241943
0.30472809076309204 -0.1474226713180542 0.9447035193443298
0.32275301218032837 -0.13787060976028442 0.9491895437240601
-0.30764830112457275 -0.03601999208331108 1.0641330480575562
-0.29374268651008606 -0.10348853468894958 1.051053762435913
-0.28260231018066406 -0.0838155746459961 1.0490708351135254
-0.3061217665672302 -0.12942829728126526 1.0846198797225952
-0.24074411392211914 -0.03345129266381264 1.0671119689941406
-0.273023784160614 -0.12441962212324142 1.0769996643066406
-0.18529225885868073 -0.021940790116786957 1.236802101135254
-0.18303290009498596 -0.08199258148670197 1.2092957496643066
-0.17794498801231384 -0.1009209081530571 0.9665110111236572
-0.18352219462394714 -0.018716972321271896 0.9373220205307007
-0.13305731117725372 0.04969019442796707 0.9292518496513367
-0.13861766457557678 0.15366114675998688 1.2604267597198486
-0.13359272480010986 0.1533137410879135 1.1986737251281738
-0.14000891149044037 0.1799663007259369 1.1614385843276978
-0.15938791632652283 -0.01344561018049717 0.9671430587768555
-0.20410768687725067 0.013244278728961945 1.7523865699768066
-0.14384916424751282 -0.013319019228219986 1.367782711982727
-0.1623675674200058 -0.008521761745214462 1.2961719036102295
-0.06674879789352417 0.1856587827205658 1.0575873851776123
-0.10175997018814087 0.1926737278699875 0.973029375076294
-0.23230226337909698 -0.13284145295619965 0.1079552099108696
-0.2384406179189682 -0.1958315223455429 0.07182822376489639
-0.1745820939540863 0.01273314654827118 1.731642723083496
-0.15967610478401184 0.01766372099518776 1.6768295764923096
-0.13640137016773224 -0.1446700394153595 1.2565006017684937
-0.13414055109024048 -0.16261786222457886 1.2266861200332642
-0.13808761537075043 -0.18246173858642578 1.2226217985153198
-0.1263299584388733 0.10968614369630814 1.3896757364273071
-0.11803251504898071 0.10120197385549545 1.3815370798110962
-0.11614719778299332 -0.14308364689350128 1.2736891508102417
-0.14047226309776306 -0.06480918824672699 1.2183135747909546
-0.20808391273021698 -0.15318338572978973 0.17882928252220154
-0.2097943127155304 -0.11010897904634476 0.18558526039123535
-0.08184975385665894 0.13498982787132263 1.2540894746780396
-0.14748738706111908 -0.035823334008455276 1.4712578058242798
-0.14766131341457367 -0.029523465782403946 1.4485933780670166
-0.13480886816978455 -0.034330617636442184 1.4291566610336304
-0.14708776772022247 -0.027876760810613632 1.4250168800354004
-0.1461080014705658 -0.04914988577365875 1.4159564971923828
-0.14002680778503418 -0.11542102694511414 0.7911813855171204
-0.1514553278684616 -0.07942389696836472 0.7822707891464233
-0.06911123543977737 0.24745923280715942 1.062759518623352
-0.06935654580593109 0.2442835122346878 1.116960048675537
-0.10880623012781143 -0.13535836338996887 1.273360013961792
-0.1292474865913391 -0.10809871554374695 0.8640258312225342
-0.2066204696893692 -0.06543784588575363 0.10693430155515671
-0.21181629598140717 -0.06762559711933136 0.06420229375362396
-0.14016948640346527 -0.19054466485977173 0.8558561205863953
-0.08855126798152924 0.1978522390127182 1.2327890396118164
-0.14422300457954407 -0.11088545620441437 1.6462059020996094
-0.1225389689207077 0.00842081755399704 1.5543413162231445
-0.10210024565458298 0.10209453105926514 1.5190105438232422
-0.09866367280483246 0.060698047280311584 1.578221321105957
-0.11691410839557648 0.058177508413791656 1.5512990951538086
-0.10734997689723969 0.08092673867940903 1.4644596576690674
-0.05499552562832832 0.13039737939834595 1.5588204860687256
-0.10909511893987656 -0.033554837107658386 1.5042095184326172
-0.09227065742015839 0.04381348937749863 0.9783567786216736
-0.13016824424266815 0.0168796107172966 1.8350536823272705
-0.14575552940368652 0.00838065892457962 1.8310315608978271
-0.14080223441123962 -0.0030142590403556824 1.8168613910675049
-0.02083318866789341 0.07323966920375824 1.4510796070098877
-0.09174095094203949 0.12383801490068436 1.4322569370269775
-0.1473594605922699 -0.13742154836654663 0.03382272273302078
-0.04865610972046852 0.16818863153457642 1.3695265054702759
-0.10363075137138367 -0.11107486486434937 1.5567681789398193
-0.13446113467216492 -0.11615512520074844 0.3963371515274048
-0.05772560462355614 0.06377159059047699 1.5181200504302979
-0.07608792930841446 0.01644391566514969 1.5023285150527954
-0.039302416145801544 0.13506461679935455 1.4758920669555664
-0.03640962764620781 0.05346157029271126 0.8602631092071533
-0.13913828134536743 -0.05493335425853729 0.34286636114120483
-0.022679653018712997 0.21923290193080902 0.9648962020874023
-0.034368325024843216 0.03953792154788971 1.040492296218872
-0.08862936496734619 -0.16617441177368164 1.2691010236740112
-0.0868162214756012 -0.15996374189853668 1.1668907403945923
-0.1271090805530548 -0.08302716165781021 0.32403212785720825
-0.10837797820568085 -0.102248914539814 0.26401233673095703
-0.138325497508049 -0.052179474383592606 0.2563279867172241
-0.06041838228702545 0.04434554651379585 1.5389012098312378
-0.06649263203144073 -0.12499283254146576 0.6937896609306335
-0.08935622125864029 -0.056099966168403625 0.6570745706558228
-0.009817728772759438 0.25782591104507446 1.1049597263336182
-0.007331487722694874 0.25004130601882935 1.0125155448913574
-0.03555082902312279 -0.1908644139766693 1.193082571029663
-0.13059628009796143 -0.11191553622484207 0.12575577199459076
-0.01301517989486456 0.19724729657173157 1.0118612051010132
-0.016558660194277763 0.1757485419511795 1.051146149635315
0.010205008089542389 0.05038437992334366 1.5274685621261597
-0.06799519062042236 -0.10380770266056061 1.4067713022232056
0.008310999721288681 0.18466050922870636 1.34341561794281
0.026267170906066895 0.06686972081661224 1.4397809505462646
0.0029315128922462463 0.03615333512425423 1.5292936563491821
0.04671477526426315 0.19896544516086578 1.0173161029815674
0.061150841414928436 0.18560299277305603 0.9732432961463928
-0.004060765728354454 -0.12120261043310165 1.401595115661621
0.014698684215545654 0.04021935164928436 1.037872314453125
-0.011256522499024868 -0.20099198818206787 1.122518539428711
0.08267153799533844 0.15907596051692963 1.3642828464508057
0.023029141128063202 -0.01779167167842388 1.3130444288253784
0.06484127044677734 0.12359240651130676 1.4813170433044434
0.03285503759980202 0.06761020421981812 1.4847716093063354
0.03821622580289841 -0.02588099241256714 1.222527027130127
0.04208305478096008 0.09783053398132324 0.9241377115249634
0.015100359916687012 -0.023562513291835785 1.77036452293396
0.10308104008436203 -0.028318330645561218 0.10665592551231384
0.1001482680439949 -0.03232640027999878 0.08368504047393799
0.0962439775466919 0.02316257357597351 0.11559560894966125
-0.01685115322470665 -0.1520468145608902 1.6493470668792725
0.057650551199913025 -0.05874129384756088 0.7186493873596191
0.09481794387102127 0.06527776271104813 1.450110673904419
0.04983803629875183 -0.06267072260379791 1.507171630859375
0.08873569965362549 -0.0527130588889122 1.4449923038482666
0.04244992509484291 -0.014251992106437683 1.4227339029312134
0.0966399759054184 -0.004033144563436508 0.4085126519203186
0.11532698571681976 -0.06339959800243378 0.24885118007659912
0.11742305010557175 0.0294266939163208 0.22603674232959747
0.11893413215875626 0.19236122071743011 1.0258526802062988
0.10735338181257248 0.22335371375083923 0.9893298149108887
0.09719909727573395 -0.14309117197990417 0.7435238361358643
0.09833573549985886 -0.04705052077770233 0.6601345539093018
0.01859799213707447 -0.0749882161617279 1.759945034980774
0.05694376304745674 -0.08116404712200165 1.7128984928131104
0.11023027449846268 -0.11616118252277374 0.5512924194335938
0.030747639015316963 -0.01677253097295761 1.7835088968276978
0.05606512352824211 -0.03336116671562195 1.7340612411499023
0.07632359862327576 -0.09081627428531647 1.152174711227417
0.08120370656251907 -0.0779072493314743 1.1232109069824219
0.07380087673664093 -0.15300852060317993 1.1065367460250854
0.04775388911366463 -0.12553618848323822 1.648054599761963
0.06356485188007355 -0.05569900572299957 1.5342661142349243
0.05080585926771164 -0.09463173151016235 1.5381780862808228
0.15645763278007507 0.1745101511478424 0.9810250997543335
0.08889738470315933 -0.10277222096920013 1.3063116073608398
0.10065077245235443 -0.17000457644462585 1.2608767747879028
0.09294894337654114 -0.10361851751804352 1.2569729089736938
0.1651456505060196 0.040610164403915405 0.17349691689014435
0.1616087108850479 -0.038439370691776276 0.18269826471805573
0.17870528995990753 -0.03106389194726944 0.1670442670583725
0.07736186683177948 -0.004179161041975021 1.7539392709732056
0.09876292198896408 -0.11556140333414078 1.3041437864303589
0.16946841776371002 -0.01556684821844101 0.44426387548446655
0.14980566501617432 -0.07389044761657715 0.4907437562942505
0.17803046107292175 -0.021396473050117493 0.38958218693733215
0.10330945253372192 -0.06910350173711777 1.4383668899536133
0.09127694368362427 -0.060467176139354706 1.4352360963821411
0.11070269346237183 -0.04432564228773117 1.3940140008926392
0.12138797342777252 0.06817776709794998 0.9269849061965942
0.12677769362926483 -0.11540564894676208 0.859151303768158
0.19298264384269714 0.010538861155509949 0.26770898699760437
0.20148637890815735 -0.02137565240263939 0.2717301845550537
0.11952510476112366 -0.027114946395158768 1.3907610177993774
0.16044893860816956 0.11277978122234344 1.277348518371582
0.1658838540315628 0.14089830219745636 1.2485971450805664
0.11041902750730515 -0.23736585676670074 1.1539900302886963
0.15765929222106934 -0.06145041435956955 0.9964503049850464
0.16116560995578766 -0.11983759701251984 0.9899489879608154
0.14601418375968933 -0.004585742950439453 1.2080092430114746
0.19545581936836243 -0.09154792129993439 1.086990237236023
0.20397880673408508 -0.050136689096689224 1.0763230323791504
0.20834410190582275 -0.1361948698759079 1.142220377922058
-0.2860213816165924 -0.05079849064350128 1.041348934173584
-0.2973997890949249 -0.11207696050405502 1.015097975730896
-0.22465214133262634 -0.1121429055929184 1.1298916339874268
-0.2431315779685974 -0.11870712041854858 1.1758325099945068
-0.19625228643417358 -0.07294858992099762 1.1441082954406738
-0.19401061534881592 -0.029557734727859497 1.1706651449203491
-0.19446943700313568 -0.15623697638511658 0.8751623034477234
-0.13419032096862793 0.19076894223690033 1.0130053758621216
-0.13536515831947327 0.17480330169200897 1.1199843883514404
-0.13713012635707855 -0.2429964542388916 1.1228840351104736
-0.1396177113056183 -0.16353493928909302 0.9650313854217529
-0.22603891789913177 -0.10067348182201385 0.2725587785243988
-0.2023903727531433 -0.15059927105903625 0.29036572575569153
-0.16241686046123505 -0.0383315235376358 0.4944838881492615
-0.15197032690048218 -0.19711394608020782 0.8609009981155396
-0.14857500791549683 -0.08546959608793259 0.6365950703620911
-0.14127041399478912 -0.11803950369358063 0.6948274374008179
-0.13056275248527527 -0.055497050285339355 0.694793701171875
-0.10222943127155304 -0.016030145809054375 1.1090744733810425
-0.10651034116744995 -0.07915365695953369 1.1365526914596558
-0.052961669862270355 0.22998115420341492 1.1957842111587524
-0.11438105255365372 -0.017811253666877747 0.8544285297393799
-0.15885429084300995 -0.16419120132923126 0.30528512597084045
-0.11170700192451477 -0.023654941469430923 1.2183294296264648
-0.09119652211666107 -0.040002234280109406 1.142909288406372
-0.14993703365325928 -0.13445384800434113 0.44451338052749634
-0.13360022008419037 -0.005437508225440979 1.7498570680618286
-0.13795843720436096 -0.042303141206502914 1.7438220977783203
-0.09467104077339172 -0.08059213310480118 1.7539162635803223
-0.10951276123523712 -0.12208561599254608 1.7109785079956055
-0.12378838658332825 -0.11115328967571259 1.60929274559021
-0.1337665617465973 -0.11657074838876724 0.3405134081840515
-0.06749461591243744 -0.13020756840705872 0.7468637228012085
-0.1107955276966095 -0.12956172227859497 0.2727113366127014
-0.12774035334587097 -0.15672503411769867 0.2763136327266693
-0.14391261339187622 -0.07738924771547318 0.20838060975074768
-0.05291212722659111 0.06543441861867905 0.9710303544998169
-0.08606046438217163 0.007292598485946655 1.7988299131393433
-0.0993904173374176 -0.007966365665197372 1.7851574420928955
0.03931274265050888 0.15642739832401276 1.1735613346099854
-0.05740993842482567 0.16041307151317596 1.182011365890503
0.018978290259838104 0.13570579886436462 1.2371556758880615
0.007848294451832771 -0.034877628087997437 1.26303231716156
0.024965761229395866 0.22519493103027344 1.2285369634628296
0.028126802295446396 0.17933878302574158 1.0563504695892334
0.09077871590852737 0.24204164743423462 1.1409343481063843
0.02082894556224346 0.11137738823890686 1.6729435920715332
0.0643729418516159 0.17237991094589233 1.0621979236602783
0.04625561460852623 -0.21854981780052185 0.9117218852043152
0.08088960498571396 -0.03356464207172394 0.27143940329551697
0.10513241589069366 -0.0315578319132328 0.2162604182958603
0.056514840573072433 -0.12350226938724518 0.699522078037262
0.037277448922395706 0.01607988215982914 1.0731706619262695
0.07784052193164825 -0.03837444260716438 0.5731014013290405
0.09021683037281036 0.11447302252054214 1.3120343685150146
0.07183259725570679 -0.08372058719396591 1.423479437828064
0.05327340587973595 0.09851128607988358 1.636338233947754
0.049925994127988815 0.025870896875858307 1.6093430519104004
0.0551389716565609 0.04376239329576492 1.5791816711425781
0.029403582215309143 -0.008926697075366974 1.8323416709899902
0.07635124027729034 -0.09918016195297241 1.3536018133163452
0.14046598970890045 -0.0026538632810115814 0.5103457570075989
0.10626751184463501 0.008781317621469498 0.5084083080291748
0.1334255188703537 0.02286342903971672 0.364080011844635
0.1546678990125656 0.024355869740247726 0.33729058504104614
0.0854160338640213 -0.047120772302150726 1.527662992477417
0.07045523077249527 -0.057169318199157715 1.5372250080108643
0.0888458862900734 -0.05795546621084213 1.5184931755065918
0.12724250555038452 -0.05124306306242943 0.7649588584899902
0.13725678622722626 -0.08853067457675934 0.6335548758506775
0.12258663773536682 0.028839988633990288 0.9675493240356445
0.11216093599796295 -0.07034410536289215 1.0947272777557373
0.10723741352558136 -0.12503613531589508 1.0877811908721924
0.11462512612342834 -0.14998918771743774 1.0334463119506836
0.09050045907497406 -0.007560513913631439 1.6497573852539062
0.1004071831703186 -0.014783153310418129 1.5627775192260742
0.09333023428916931 -0.15725648403167725 1.245699405670166
0.11547717452049255 0.06277626007795334 1.5488067865371704
0.10688299685716629 0.035162508487701416 1.5902554988861084
0.1864623874425888 0.04477829486131668 0.10118696093559265
0.1982632577419281 0.004404298961162567 0.0959162563085556
0.12500900030136108 0.044771958142519 1.5144048929214478
0.13164815306663513 0.06038708612322807 1.479154109954834
0.13692694902420044 0.05195588991045952 1.4391344785690308
0.13952121138572693 0.0703170895576477 1.423859715461731
0.10136065632104874 -0.2409801185131073 1.173376202583313
0.175475612282753 -0.1536584496498108 0.8728753328323364
0.12298466265201569 -0.2144365757703781 1.1872532367706299
0.12021138519048691 -0.2387872189283371 1.1701643466949463
0.20571516454219818 -0.10998053103685379 0.8908124566078186
0.20680643618106842 -0.08816815912723541 0.8720272779464722
0.21484294533729553 -0.0530322827398777 0.8807449340820312
-0.207756906747818 -0.11060518771409988 1.189723253250122
-0.16436216235160828 -0.11551268398761749 1.2705310583114624
-0.16936224699020386 -0.1105446070432663 1.2512154579162598
-0.16076301038265228 -0.10593125224113464 1.2601746320724487
-0.1596757173538208 -0.1012282744050026 1.277108907699585
-0.20229887962341309 0.0010593663901090622 0.8719893097877502
-0.13557560741901398 -0.06426943093538284 1.3024957180023193
-0.14349409937858582 -0.06568104028701782 1.0838184356689453
-0.1384982019662857 0.08840863406658173 1.5583544969558716
-0.13743633031845093 -0.09132333099842072 1.2063798904418945
-0.13619935512542725 -0.08332613110542297 1.1558419466018677
-0.11253496259450912 0.09508310258388519 1.4512859582901
-0.10472417622804642 0.09622953087091446 1.4087201356887817
-0.128670334815979 -0.14231525361537933 1.0530576705932617
-0.09480699896812439 -0.16904617846012115 1.0109531879425049
-0.12906458973884583 -0.0359467975795269 0.7790660858154297
-0.054043278098106384 0.20140820741653442 1.2711701393127441
-0.0822087824344635 0.12168200314044952 1.6497416496276855
-0.1375180035829544 -0.07676635682582855 0.06522026658058167
-0.14924128353595734 -0.06772715598344803 0.05454050004482269
-0.08716683089733124 0.026464279741048813 0.8689205646514893
-0.005123671144247055 0.0978013426065445 0.8562461137771606
-0.06529583781957626 -0.017914125695824623 0.8467164039611816
0.01600080542266369 0.10183585435152054 1.3373703956604004
-0.03855942189693451 -0.08588829636573792 0.7703292369842529
-0.053039565682411194 -0.13704071938991547 1.6281728744506836
-0.01181095838546753 0.017314163967967033 0.8763388395309448
-0.006897139362990856 -0.023272516205906868 0.8549346327781677
0.013549753464758396 -0.11680389940738678 0.8588284850120544
-0.08004453778266907 -0.1677227020263672 0.8611056208610535
-0.0041801817715168 -0.22690553963184357 0.8541823625564575
0.029179895296692848 -0.10839417576789856 0.8357391357421875
-0.005380833987146616 -0.162615567445755 0.8662484884262085
-0.0005179233849048615 0.018659088760614395 1.5019268989562988
0.025379780679941177 -0.03492102026939392 0.8497864603996277
0.02620149776339531 -0.04919237643480301 0.8323553204536438
0.009312700480222702 0.031151585280895233 1.5804548263549805
0.014697127044200897 0.03230471909046173 1.5529301166534424
0.03826439753174782 -0.12247666716575623 0.8513480424880981
0.12831610441207886 0.06080341711640358 0.8578804731369019
0.0839928537607193 -0.004333604127168655 0.2742236256599426
0.05063273385167122 -0.035804834216833115 0.8184845447540283
0.08216628432273865 0.15277136862277985 1.209585428237915
0.11711850762367249 -0.05433613061904907 0.3925110995769501
0.1089717373251915 -0.0216369666159153 0.3326106071472168
0.12647312879562378 -0.046392299234867096 0.34391969442367554
0.12335211783647537 -0.07817291468381882 0.2888478636741638
0.09693579375743866 0.07405015826225281 1.5168213844299316
0.07700115442276001 -0.015639998018741608 0.8534221649169922
0.10616171360015869 -0.03637847304344177 0.8333851099014282
0.08950327336788177 -0.07464360445737839 1.2567832469940186
0.14389987289905548 -0.07119522243738174 0.43762555718421936
0.08759348839521408 0.04631881043314934 1.6252014636993408
0.0760074183344841 -0.03345298394560814 1.312995195388794
0.15461865067481995 -0.047002315521240234 0.3475695848464966
0.10757635533809662 0.21362696588039398 1.2019696235656738
0.09263026714324951 -0.05018477514386177 1.2319252490997314
0.15590105950832367 0.028665687888860703 0.2299150973558426
0.1491745263338089 0.21891488134860992 1.1193805932998657
0.14690957963466644 0.03769468143582344 0.26972535252571106
0.16494494676589966 -0.07820960879325867 0.2595624625682831
0.13772137463092804 0.09967241436243057 1.3264806270599365
0.10145910084247589 -0.05138690769672394 1.4808911085128784
0.11157436668872833 -0.04556702822446823 1.4426087141036987
0.10038470476865768 -0.052845299243927 1.4758491516113281
0.12765687704086304 -0.03355885297060013 1.4218751192092896
0.11292104423046112 -0.1838872730731964 1.23128080368042
0.09995689243078232 -0.19345423579216003 1.2247172594070435
0.16136343777179718 0.13011005520820618 1.2317527532577515
0.17746932804584503 0.16763314604759216 1.164888620376587
0.17475447058677673 0.15947695076465607 1.1311312913894653
0.126383975148201 -0.041003234684467316 1.261384129524231
0.12038704752922058 -0.07877787202596664 1.2703185081481934
0.1603998988866806 -0.17762967944145203 0.882999837398529
0.12672635912895203 -0.0937504917383194 1.2754802703857422
0.14057092368602753 -0.10574308782815933 1.1672719717025757
0.14813783764839172 -0.02733183652162552 1.1618578433990479
0.1428849697113037 -0.08028726279735565 1.142059326171875
0.2157062143087387 -0.12184493243694305 1.1779017448425293
0.23159216344356537 -0.07259786874055862 1.057208776473999
0.22200427949428558 -0.1328582912683487 1.0962259769439697
-0.1435171514749527 -0.2332114577293396 1.1635191440582275
-0.14837223291397095 -0.16272607445716858 1.2159253358840942
-0.15412431955337524 -0.15099626779556274 1.2339261770248413
-0.1332416981458664 -0.21629466116428375 1.1644999980926514
-0.13108539581298828 0.09697417914867401 1.4800312519073486
-0.13791689276695251 0.08882150799036026 1.4627509117126465
-0.13995614647865295 0.1063249334692955 1.4194111824035645
-0.15666134655475616 -0.008241701871156693 1.7124210596084595
-0.15934887528419495 -0.04735269770026207 1.627261996269226
-0.19096681475639343 -0.11714955419301987 0.335818886756897
-0.13231869041919708 -0.06748182326555252 0.8556861877441406
-0.13312344253063202 -0.09254387021064758 0.8367088437080383
-0.11824002861976624 0.20955079793930054 0.9893573522567749
-0.10023610293865204 -0.1323024332523346 1.2631194591522217
-0.1182142123579979 -0.03020363673567772 0.8265656232833862
-0.1091088131070137 -0.020932752639055252 1.7661640644073486
-0.09547985345125198 -0.12361879646778107 1.1413321495056152
-0.0612262599170208 -0.18651382625102997 1.1382290124893188
-0.05717182159423828 0.1819421499967575 1.1028989553451538
0.020456722006201744 0.17643459141254425 1.0991907119750977
-0.0683860033750534 -0.02161080203950405 1.1601015329360962
-0.05370652675628662 -0.11293977499008179 0.8515720963478088
-0.05231213569641113 -0.18872615694999695 1.0716601610183716
-0.05218926817178726 0.01788359135389328 1.0618599653244019
-0.04759079962968826 -0.1262311041355133 1.7261602878570557
0.025865046307444572 -0.10065332800149918 0.7712440490722656
-0.039920516312122345 0.11628381907939911 1.309550166130066
0.09485677629709244 0.0018598362803459167 0.06596709787845612
0.13468416035175323 0.23732531070709229 1.049435019493103
0.09496992826461792 0.17404137551784515 1.1214429140090942
0.07192540913820267 0.2556285560131073 1.0605151653289795
0.0975043997168541 0.09009049832820892 0.8647677898406982
0.16031524538993835 0.07518722862005234 0.0965525209903717
0.11957092583179474 -0.03765169531106949 0.857435941696167
0.1489093005657196 -0.05718296393752098 0.39468657970428467
0.10631672292947769 -0.0767568051815033 1.4006423950195312
0.10652488470077515 -0.08980027586221695 1.3176274299621582
0.1990741491317749 0.0012301886454224586 0.8739154934883118
0.20305617153644562 -0.048382703214883804 0.9374901056289673
0.23045699298381805 -0.10876723378896713 1.066269874572754
-0.2512752115726471 -0.12790684401988983 1.1402032375335693
-0.2019089311361313 -0.08759333193302155 0.9349918961524963
-0.21882855892181396 -0.07445338368415833 0.8787697553634644
-0.14277392625808716 0.08703349530696869 1.4157551527023315
-0.13601785898208618 0.1292092651128769 1.2646905183792114
-0.14198638498783112 0.00295812264084816 1.543086290359497
-0.13702401518821716 -0.05961588770151138 1.050788402557373
-0.14162343740463257 -0.08676548302173615 1.0924186706542969
-0.14167529344558716 0.007874023169279099 1.5441627502441406
-0.14187049865722656 -0.0056288279592990875 1.5291657447814941
-0.1400948017835617 -0.0010876916348934174 1.5369600057601929
-0.14139121770858765 5.223974585533142e-05 1.542314052581787
-0.14603593945503235 -0.013205286115407944 1.5305507183074951
-0.1790485680103302 -0.17319440841674805 0.18297630548477173
-0.15404655039310455 -0.08493512123823166 1.681853175163269
-0.03856678307056427 -0.017354656010866165 1.2156727313995361
-0.13655348122119904 -0.19163653254508972 0.06745167076587677
-0.0521230585873127 -0.02707279659807682 1.257459282875061
-0.010004922747612 -0.0242778193205595 1.1710268259048462
-0.041077397763729095 0.0943489521741867 0.9332097768783569
-0.04287470877170563 -0.02838755026459694 1.7837690114974976
-0.05244438722729683 -0.0885104387998581 0.7078719139099121
-0.013135327957570553 0.1226164847612381 1.2697752714157104
0.006245957687497139 -0.19218990206718445 1.0203583240509033
-0.034250013530254364 -0.19047066569328308 1.2363916635513306
0.029866643249988556 0.15912200510501862 1.1439942121505737
0.10431224852800369 0.0037256963551044464 0.20928536355495453
0.06735780835151672 -0.17785446345806122 0.9997819662094116
0.11591565608978271 -0.17107069492340088 0.9799249172210693
0.07012751698493958 0.046652041375637054 1.5483040809631348
0.06488707661628723 -0.16459158062934875 1.184584140777588
0.034789007157087326 -0.03229418769478798 1.1679737567901611
0.09054070711135864 -0.02348659746348858 1.0875294208526611
0.07939468324184418 0.06128040701150894 0.9612360596656799
0.15239602327346802 -0.021199628710746765 0.048024967312812805
0.1270371675491333 -0.012945704162120819 0.04553041234612465
0.1847400963306427 -0.003121092915534973 0.05340832844376564
0.18664301931858063 -0.05408458411693573 0.2465893030166626
0.0978068858385086 -0.051367808133363724 1.4761066436767578
0.09712105244398117 -0.04911869019269943 1.473639965057373
0.09068939089775085 -0.06099824607372284 1.332090973854065
0.10614880174398422 -0.08210199326276779 1.3085925579071045
0.19064410030841827 0.18629804253578186 1.0588417053222656
0.18661606311798096 0.1690264344215393 1.0091444253921509
0.196736142039299 0.17545780539512634 1.0063395500183105
0.24669089913368225 -0.06341446191072464 1.055908203125
0.24121324717998505 -0.12513934075832367 1.0411550998687744
0.25321662425994873 -0.14827054738998413 1.0325343608856201
-0.23730215430259705 -0.07380709052085876 1.0671603679656982
-0.15537285804748535 -0.19378845393657684 1.2010562419891357
-0.16360361874103546 -0.12163440883159637 0.3632993996143341
-0.0788511112332344 0.19664010405540466 0.9628233909606934
-0.10398420691490173 -0.14345192909240723 1.090414047241211
-0.035436809062957764 -0.040408648550510406 0.846591055393219
-0.05729415640234947 -0.030754735693335533 0.8117630481719971
-0.049648791551589966 -0.08328765630722046 0.815940797328949
-0.005410043057054281 0.014909543097019196 1.1071668863296509
0.026822004467248917 -0.208917498588562 0.8432737588882446
0.09482136368751526 0.016717173159122467 0.8699201345443726
0.11436516046524048 0.17480257153511047 1.0829719305038452
0.09434402734041214 0.009846817702054977 1.5656481981277466
0.10519751906394958 0.03389634191989899 1.5407241582870483
0.19057510793209076 -0.11683837324380875 0.9381623864173889
-0.1582077443599701 -0.20459173619747162 1.168282151222229
-0.14429526031017303 0.056539662182331085 1.5750975608825684
-0.05211902782320976 0.20496629178524017 1.0107733011245728
-0.12494299560785294 0.08618588745594025 1.6063082218170166
-0.09790851175785065 0.04579601064324379 1.5964657068252563
-0.06302067637443542 0.03751515597105026 1.5743786096572876
0.03391743451356888 -0.19349823892116547 1.0756926536560059
0.0548240952193737 -0.14729277789592743 1.2721867561340332
0.1329645961523056 -0.046395476907491684 0.17507492005825043
0.09305905550718307 -0.12718358635902405 1.2298669815063477
0.10092640668153763 -0.11531803011894226 1.1768856048583984
0.12128424644470215 0.07447753846645355 1.440462589263916
0.10643287003040314 0.10225392878055573 1.4457021951675415
0.10425377637147903 -0.06770381331443787 1.1854135990142822
0.12311941385269165 -0.07497980445623398 0.8424564599990845
0.0817551240324974 -0.17374251782894135 1.2473983764648438
0.1405709981918335 0.11455198377370834 1.3506548404693604
-0.11950042843818665 0.12036127597093582 1.3535075187683105
-0.15620064735412598 -0.04497936740517616 0.36861690878868103
0.042323894798755646 -0.09820784628391266 0.7295925617218018
0.011977415531873703 -0.1276971697807312 1.7048475742340088
-0.13336482644081116 0.1991325467824936 1.0633938312530518
-0.1530466079711914 -0.10454860329627991 1.2808489799499512
-0.11721641570329666 -0.083250492811203 0.40813541412353516
0.014872360043227673 0.13792499899864197 1.479000449180603
0.10732990503311157 -0.02320227026939392 0.04982971400022507
0.08746185153722763 -0.05444357171654701 1.524165391921997
0.08932587504386902 -0.05683714523911476 1.5195602178573608
0.09514747560024261 -0.050547581166028976 1.4297561645507812
0.1784684807062149 -0.03568366542458534 0.22025662660598755
0.1796829253435135 -0.0008368343114852905 0.2133326232433319
0.1463257372379303 -0.11219485849142075 1.2156180143356323
-0.17820428311824799 -0.1607252061367035 0.9370338916778564
-0.13136915862560272 0.10380713641643524 1.385749340057373
-0.12897466123104095 0.10189840942621231 1.3860676288604736
-0.1348763406276703 0.09915611147880554 1.3863526582717896
-0.12374397367238998 -0.11388269066810608 0.2076655477285385
-0.03507114201784134 -0.09542734920978546 0.8486212491989136
0.1081370934844017 -0.02062327414751053 0.16694459319114685
0.17660357058048248 -0.13299067318439484 1.1695213317871094
0.07195790112018585 -0.07729904353618622 1.661559820175171
0.14117366075515747 -0.09841892123222351 0.7915787696838379
0.136283278465271 0.06960096210241318 1.4029338359832764
0.14269572496414185 0.0924394428730011 1.3643393516540527
0.10180901736021042 0.04880642145872116 0.07705732434988022
0.12734323740005493 -0.4883235991001129 1.036428451538086
0.12870733439922333 -0.4509173035621643 1.0194627046585083
0.12680643796920776 -0.4657578468322754 1.021376371383667
0.12064141035079956 -0.4661092162132263 1.02601158618927
0.1206967756152153 -0.4878593981266022 1.0287173986434937
0.13135819137096405 -0.47561463713645935 1.0435315370559692
0.17780031263828278 -0.33379435539245605 1.0306391716003418
0.160636305809021 -0.3363671898841858 1.020110011100769
0.16688863933086395 -0.35603275895118713 1.0284589529037476
0.1621820479631424 -0.364707350730896 1.0293456315994263
0.20907603204250336 -0.1737210899591446 0.9707412719726562
0.20327946543693542 -0.19288508594036102 0.9860745072364807
0.19772085547447205 -0.18495962023735046 0.9598320722579956
0.1567286252975464 -0.3496773838996887 0.9874502420425415
0.15499372780323029 -0.36300674080848694 0.9977912306785583
0.16157996654510498 -0.3931528329849243 1.0516434907913208
0.16347500681877136 -0.37752765417099 1.0362309217453003
0.18374061584472656 -0.22257988154888153 0.9397443532943726
0.18923620879650116 -0.22881828248500824 0.9664212465286255
0.20217812061309814 -0.2711021900177002 1.0259876251220703
0.19454845786094666 -0.2604265809059143 1.0216013193130493
0.14613617956638336 -0.4608455002307892 1.052284836769104
0.13568244874477386 -0.44430986046791077 1.0071276426315308
0.20691776275634766 -0.18744716048240662 0.9529401659965515
0.19989658892154694 -0.1913304328918457 0.9517139792442322
0.2928028702735901 -0.00598367303609848 1.043932557106018
0.2823066711425781 -0.018930688500404358 1.0409349203109741
0.2844516932964325 -0.005415976047515869 1.0239347219467163
0.15667878091335297 -0.41518256068229675 1.041479468345642
0.14914342761039734 -0.439291387796402 1.0476382970809937
0.20312462747097015 -0.1907585859298706 0.9454091787338257
0.20381690561771393 -0.18539734184741974 0.934802234172821
0.11350813508033752 -0.5025017261505127 0.9898529052734375
0.1077541708946228 -0.5190534591674805 0.9950005412101746
0.2939610183238983 0.0010377317667007446 1.0379178524017334
0.2929396331310272 -0.010291002690792084 1.0487538576126099
0.28901687264442444 0.002728797495365143 1.0334117412567139
0.2906099259853363 -0.006833724677562714 1.021959662437439
0.11367427557706833 -0.5503346920013428 1.0426998138427734
0.11498438566923141 -0.570741593837738 1.0511058568954468
0.10292823612689972 -0.571227490901947 1.034249186515808
0.17723622918128967 -0.2915194034576416 0.9656378030776978
0.1749625951051712 -0.3120429515838623 0.9620628952980042
0.1625855565071106 -0.3287144899368286 0.9631953239440918
0.16354259848594666 -0.3312808871269226 0.9512362480163574
0.2957736849784851 -0.012369655072689056 1.0554500818252563
0.2929762005805969 0.005913771688938141 1.0315018892288208
0.16757835447788239 -0.4150491952896118 1.0562571287155151
0.17168694734573364 -0.4165942072868347 1.0536507368087769
0.16061685979366302 -0.4288714528083801 1.054964303970337
0.16398201882839203 -0.4470926523208618 1.0596776008605957
0.18924203515052795 -0.2517329454421997 0.9544214010238647
0.18281005322933197 -0.2674601376056671 0.9504407048225403
0.18184863030910492 -0.27194109559059143 0.9529425501823425
0.29661282896995544 0.0022770091891288757 1.035914659500122
0.29980847239494324 -0.016771525144577026 1.05217707157135
0.2902494966983795 -0.008175387978553772 1.0234426259994507
0.20676395297050476 -0.1578160673379898 0.9079709053039551
0.2037794440984726 -0.166487917304039 0.9000037908554077
0.2026739865541458 -0.18049713969230652 0.922832727432251
0.20583806931972504 -0.17082518339157104 0.9132815599441528
0.20162242650985718 -0.16485708951950073 0.9124165177345276
0.15669488906860352 -0.35086095333099365 0.9490072131156921
0.16166749596595764 -0.33262842893600464 0.947360634803772
0.15711137652397156 -0.3390783667564392 0.9362461566925049
0.15759055316448212 -0.348882257938385 0.9324636459350586
0.2968050539493561 -0.01640455424785614 1.0294015407562256
0.11522061377763748 -0.5809144973754883 1.0583996772766113
0.11570195108652115 -0.5770652890205383 1.038487434387207
0.11601467430591583 -0.5851191282272339 1.0533989667892456
0.11291200667619705 -0.5915803909301758 1.0543615818023682
0.11118832230567932 -0.5704748630523682 1.0287872552871704
0.23026546835899353 -0.18149644136428833 0.9613484740257263
0.21465709805488586 -0.18956869840621948 0.9469761252403259
0.12428515404462814 -0.4842705726623535 0.9783849716186523
0.12088034301996231 -0.5092236995697021 0.9851692914962769
0.11659929901361465 -0.5328590273857117 0.9982216954231262
0.2183476835489273 -0.2593992352485657 1.0263276100158691
0.20749247074127197 -0.27626264095306396 1.0243474245071411
0.21266697347164154 -0.28902870416641235 1.0200374126434326
0.18141168355941772 -0.40917569398880005 1.0586819648742676
0.17181631922721863 -0.4175689220428467 1.0507402420043945
0.15640641748905182 -0.4670482873916626 1.05649733543396
0.1801404356956482 -0.38047873973846436 1.0460971593856812
0.14089435338974 -0.4639984965324402 0.9983155131340027
0.13025352358818054 -0.4971295893192291 0.9961938858032227
0.22111237049102783 -0.2611219584941864 1.0190010070800781
0.184133380651474 -0.39175325632095337 1.028733730316162
0.18475712835788727 -0.3766966760158539 1.0180331468582153
0.17753423750400543 -0.40912410616874695 1.0296355485916138
0.12771669030189514 -0.544086754322052 1.0294114351272583
0.1315148025751114 -0.5350441932678223 1.0194203853607178
0.16276659071445465 -0.37864431738853455 0.9744563698768616
0.17681795358657837 -0.38349449634552 0.9922392964363098
0.16504880785942078 -0.3957531750202179 0.9920909404754639
0.17054259777069092 -0.3972489833831787 1.0025694370269775
0.19980277121067047 -0.3296986222267151 1.0220201015472412
0.19044190645217896 -0.3611156940460205 1.019761562347412
0.15833626687526703 -0.46688029170036316 1.0311830043792725
0.1526457667350769 -0.48376360535621643 1.0296732187271118
