-0.14177194237709045 -0.0635666698217392 1.2185888290405273
-0.21564981341362 -0.14475029706954956 0.18118919432163239
-0.21755847334861755 -0.10144534707069397 0.18770553171634674
-0.0793561041355133 0.1345023214817047 1.2549506425857544
-0.14898480474948883 -0.03215932101011276 1.4712083339691162
-0.14927862584590912 -0.025983594357967377 1.4486236572265625
-0.13627272844314575 -0.03094331920146942 1.4293639659881592
-0.14862652122974396 -0.024349547922611237 1.4252008199691772
-0.14755387604236603 -0.04568846523761749 1.4164313077926636
-0.1415216624736786 -0.11424657702445984 0.7927327156066895
-0.15291345119476318 -0.07790905237197876 0.784608006477356
-0.06540873646736145 0.2449307143688202 1.0650219917297363
-0.06570235639810562 0.2420068383216858 1.1190385818481445
-0.11091334372758865 -0.13331647217273712 1.274404525756836
-0.12961813807487488 -0.1081409752368927 0.8656139373779297
-0.21435709297657013 -0.05793245881795883 0.11000459641218185
-0.21956627070903778 -0.05971075966954231 0.0678883045911789
-0.14039433002471924 -0.19023403525352478 0.8566305041313171
-0.08545409142971039 0.19712775945663452 1.233884334564209
-0.1458083987236023 -0.10739609599113464 1.6453982591629028
-0.1237187385559082 0.011365067213773727 1.5538071393966675
-0.10212016105651855 0.10425759851932526 1.5182828903198242
-0.0991465374827385 0.06329583376646042 1.5778264999389648
-0.11738518625497818 0.060885779559612274 1.5508387088775635
-0.10724418610334396 0.08294900506734848 1.4638197422027588
-0.0549723245203495 0.13187429308891296 1.5583057403564453
-0.11067540943622589 -0.030157502740621567 1.503883957862854
-0.09137248992919922 0.04383153095841408 0.9794169664382935
-0.13064122200012207 0.020246587693691254 1.834553837776184
-0.14599573612213135 0.011840827763080597 1.8304522037506104
-0.1414031982421875 0.00037869811058044434 1.816204309463501
-0.021066313609480858 0.0741126537322998 1.4508790969848633
-0.09057902544736862 0.12476284056901932 1.4318770170211792
-0.15565308928489685 -0.1285642385482788 0.0362076535820961
-0.04662241041660309 0.16809505224227905 1.370017647743225
-0.10539960861206055 -0.10765815526247025 1.556062936782837
-0.14080917835235596 -0.10831805318593979 0.3978363275527954
-0.058258477598428726 0.06571613252162933 1.5177130699157715
-0.07734858989715576 0.01933594048023224 1.5019463300704956
-0.038632020354270935 0.13608747720718384 1.4757208824157715
-0.03583752363920212 0.05342462286353111 0.8613353967666626
-0.1457904875278473 -0.04652218148112297 0.34486979246139526
-0.019296986982226372 0.21518674492835999 0.9676891565322876
-0.03420310094952583 0.03933408111333847 1.0409293174743652
-0.09083937853574753 -0.16438385844230652 1.2704534530639648
-0.08849970996379852 -0.1593376249074936 1.1678274869918823
-0.13381969928741455 -0.0744776651263237 0.325691819190979
-0.11553303897380829 -0.09303870052099228 0.26523467898368835
-0.14556053280830383 -0.042960599064826965 0.25802746415138245
-0.06165506690740585 0.04668605700135231 1.5385503768920898
-0.06984815001487732 -0.12166507542133331 0.6941807866096497
-0.09295229613780975 -0.05189032852649689 0.6589948534965515
-0.006439908407628536 0.2546941637992859 1.107105016708374
-0.00393536314368248 0.2462497353553772 1.015123963356018
-0.03762854263186455 -0.1902541071176529 1.1942977905273438
-0.13841919600963593 -0.10425888001918793 0.12733323872089386
-0.010000803507864475 0.19359686970710754 1.0142827033996582
-0.013822140172123909 0.1724228858947754 1.053442358970642
0.009045850485563278 0.05180305987596512 1.5272281169891357
-0.07004716992378235 -0.10063233971595764 1.4076932668685913
0.010004413314163685 0.18370851874351501 1.3442376852035522
0.025703929364681244 0.06711854785680771 1.439805269241333
0.0016514211893081665 0.0382416807115078 1.5290006399154663
0.04898887872695923 0.19470471143722534 1.0198060274124146
0.063649982213974 0.1810770034790039 0.9760647416114807
-0.005840940400958061 -0.11816969513893127 1.4027540683746338
0.014628320932388306 0.03990980237722397 1.038511037826538
-0.013031484559178352 -0.2008948028087616 1.1232579946517944
0.08333487808704376 0.1575058251619339 1.3654638528823853
0.021413693204522133 -0.016739027574658394 1.3130006790161133
0.06423085182905197 0.12348859012126923 1.481302261352539
0.03196518123149872 0.0681617259979248 1.484740972518921
0.03667864203453064 -0.025977125391364098 1.2224622964859009
0.042457420378923416 0.09752669185400009 0.9252153635025024
0.013438500463962555 -0.021188244223594666 1.7699415683746338
0.1066773384809494 -0.03815077990293503 0.1056787446141243
0.10277744382619858 -0.04242628812789917 0.08264826238155365
0.09975183010101318 0.01355540007352829 0.11468750238418579
-0.01897483319044113 -0.14902226626873016 1.648505449295044
0.05899354815483093 -0.059607215225696564 0.7204978466033936
0.09341120719909668 0.06487962603569031 1.4504225254058838
0.0476338192820549 -0.059931885451078415 1.5068202018737793
0.08621814846992493 -0.04936007782816887 1.4455121755599976
0.040313683450222015 -0.011236358433961868 1.4227885007858276
0.09906413406133652 -0.008816840127110481 0.4089192748069763
0.11842258274555206 -0.07137922942638397 0.24944493174552917
0.1194208487868309 0.020910799503326416 0.2248854786157608
0.12075778096914291 0.18744267523288727 1.0285831689834595
0.10965649038553238 0.21818912029266357 0.9921180009841919
0.09847114980220795 -0.1438131332397461 0.7460078001022339
0.09989267587661743 -0.04835978150367737 0.662045955657959
0.0166317168623209 -0.0723593533039093 1.7593295574188232
0.05498865619301796 -0.07905099540948868 1.7124570608139038
0.1123882606625557 -0.11896593868732452 0.5537692308425903
0.029314417392015457 -0.014576520770788193 1.7830984592437744
0.054186973720788956 -0.03134845942258835 1.7335960865020752
0.07467564195394516 -0.09164231270551682 1.1529115438461304
0.07953613996505737 -0.07868713140487671 1.1241787672042847
0.07202228903770447 -0.15359622240066528 1.107528805732727
0.04525523632764816 -0.12315846979618073 1.647288203239441
0.0612867996096611 -0.05345616117119789 1.5339467525482178
0.04861399158835411 -0.09224490821361542 1.537560224533081
0.1580737680196762 0.16895799338817596 0.9841365218162537
0.0868167132139206 -0.1002236157655716 1.307740569114685
0.0986565500497818 -0.16750746965408325 1.2631995677947998
0.09089920669794083 -0.10280121862888336 1.2578654289245605
0.16704444587230682 0.03242901712656021 0.17269666492938995
0.16538336873054504 -0.04652990400791168 0.1833418756723404
0.1822209507226944 -0.03875042125582695 0.16767661273479462
0.07555815577507019 -0.0025131218135356903 1.7536686658859253
0.09678211063146591 -0.11251204460859299 1.3058741092681885
0.17187713086605072 -0.019586173817515373 0.445096880197525
0.1520417481660843 -0.07738238573074341 0.49261677265167236
0.18055576086044312 -0.02646448463201523 0.390354186296463
0.1007242351770401 -0.06559918820858002 1.4390544891357422
0.08864063024520874 -0.05724627524614334 1.435884952545166
0.10791287571191788 -0.04204225540161133 1.394267201423645
0.1212654635310173 0.06791689991950989 0.929067075252533
0.12765274941921234 -0.11551615595817566 0.8620783686637878
0.19490709900856018 0.003737322986125946 0.26768773794174194
0.20400483906269073 -0.0281575545668602 0.2722182273864746
0.11634974181652069 -0.024151619523763657 1.3908889293670654
0.16038325428962708 0.1095753163099289 1.279044508934021
0.16626739501953125 0.13734732568264008 1.2505801916122437
0.10861237347126007 -0.23602911829948425 1.1569559574127197
0.1566508710384369 -0.06185454502701759 0.998862624168396
0.1600683629512787 -0.12013767659664154 0.992707371711731
0.14370553195476532 -0.003474228084087372 1.2085187435150146
0.19092480838298798 -0.09325134009122849 1.0896925926208496
0.20077933371067047 -0.05240999907255173 1.0781774520874023
0.20248685777187347 -0.13650955259799957 1.1461008787155151
-0.2882344126701355 -0.054268620908260345 1.0467872619628906
-0.2988778054714203 -0.11535323411226273 1.0216172933578491
-0.22626681625843048 -0.11225421726703644 1.1339240074157715
-0.2438470721244812 -0.11791902780532837 1.1800686120986938
-0.19865313172340393 -0.07301405072212219 1.146938681602478
-0.19693616032600403 -0.029938722029328346 1.1728050708770752
-0.19441910088062286 -0.15593817830085754 0.8768796324729919
-0.13048246502876282 0.18884114921092987 1.0153199434280396
-0.13197192549705505 0.1738743782043457 1.1218782663345337
-0.1403062641620636 -0.24182242155075073 1.1258668899536133
-0.13948406279087067 -0.16342124342918396 0.9659479856491089
-0.23309002816677094 -0.09151379764080048 0.2749551236629486
-0.20940516889095306 -0.14179988205432892 0.292189359664917
-0.16791759431362152 -0.031213190406560898 0.49694550037384033
-0.15214964747428894 -0.19674360752105713 0.8618003726005554
-0.1525806337594986 -0.0804440900683403 0.6391608715057373
-0.14456552267074585 -0.11433150619268417 0.6965532302856445
-0.13330721855163574 -0.05198921263217926 0.6973482370376587
-0.10228836536407471 -0.016166584566235542 1.1089692115783691
-0.10748808830976486 -0.07908071577548981 1.1366556882858276
-0.04955403506755829 0.22825565934181213 1.1974780559539795
-0.11451947689056396 -0.017721127718687057 0.856753945350647
-0.16599340736865997 -0.15554344654083252 0.30669519305229187
-0.11273175477981567 -0.022974027320742607 1.2180476188659668
-0.09180332720279694 -0.03992871940135956 1.1428347826004028
-0.1560189574956894 -0.12715499103069305 0.4461991786956787
-0.13437163829803467 -0.002150755375623703 1.749404788017273
-0.13889580965042114 -0.03913448005914688 1.7431870698928833
-0.09599122405052185 -0.07730497419834137 1.7532265186309814
-0.11122200638055801 -0.11857390403747559 1.7102915048599243
-0.12562024593353271 -0.10776519775390625 1.6085059642791748
-0.14057385921478271 -0.10823763906955719 0.3420329689979553
-0.06995376199483871 -0.12805110216140747 0.7470006942749023
-0.11799022555351257 -0.12059365957975388 0.27383774518966675
-0.1349949687719345 -0.14786431193351746 0.2774125337600708
-0.15135931968688965 -0.06855136901140213 0.20949600636959076
-0.05219709128141403 0.06545299291610718 0.9717629551887512
-0.08676411956548691 0.010263331234455109 1.7981935739517212
-0.10056474059820175 -0.004758208990097046 1.7844247817993164
0.041351884603500366 0.15371336042881012 1.1753495931625366
-0.054425932466983795 0.15898621082305908 1.1834720373153687
0.020749719813466072 0.13387718796730042 1.2386730909347534
0.006315391510725021 -0.03411899507045746 1.2630152702331543
0.02759416587650776 0.22284914553165436 1.2301301956176758
0.030707955360412598 0.17566469311714172 1.058725118637085
0.09310375899076462 0.23840610682964325 1.143068790435791
0.019882654771208763 0.11280469596385956 1.6726853847503662
0.06639043986797333 0.16829100251197815 1.0646504163742065
0.04572804272174835 -0.21864396333694458 0.9127910733222961
0.08381714671850204 -0.04104860872030258 0.27153339982032776
0.10897576063871384 -0.04013209044933319 0.21586427092552185
0.058003537356853485 -0.12475143373012543 0.7017661333084106
0.036693982779979706 0.015501890331506729 1.0739750862121582
0.07977216690778732 -0.04053895175457001 0.5745898485183716
0.09060998260974884 0.11245632916688919 1.3131240606307983
0.0699426457285881 -0.0793360099196434 1.424590826034546
0.05211735889315605 0.09986487776041031 1.6361173391342163
0.04827089607715607 0.027633927762508392 1.609194040298462
0.05370297655463219 0.045269161462783813 1.5791494846343994
0.02801090106368065 -0.0066193267703056335 1.8319110870361328
0.07461728155612946 -0.09532681107521057 1.3551595211029053
0.142642080783844 -0.005498234182596207 0.5113171339035034
0.10837043821811676 0.005906011909246445 0.5090541839599609
0.1359575390815735 0.017389852553606033 0.363913893699646
0.1571626216173172 0.018490899354219437 0.33702993392944336
0.08319958299398422 -0.045296087861061096 1.527217149734497
0.06836013495922089 -0.05515589565038681 1.5368489027023315
0.08638231456279755 -0.05592846870422363 1.5182597637176514
0.1283082664012909 -0.051710788160562515 0.7670443654060364
0.13899406790733337 -0.09012486040592194 0.6359155774116516
0.12190178036689758 0.028563594445586205 0.9695906639099121
0.11059299111366272 -0.07115700840950012 1.0960509777069092
0.10547690093517303 -0.12572653591632843 1.0890337228775024
0.11302465200424194 -0.1506209671497345 1.035041332244873
0.0884985700249672 -0.006013438105583191 1.649573802947998
0.09842710942029953 -0.013326156884431839 1.5627166032791138
0.09154841303825378 -0.15524260699748993 1.2477362155914307
0.1137022078037262 0.06371739506721497 1.5487697124481201
0.10481491684913635 0.03644692152738571 1.5902224779129028
0.18892492353916168 0.036798544228076935 0.100998654961586
0.201015442609787 -0.0037256181240081787 0.09520111978054047
0.12316511571407318 0.04529285803437233 1.5144670009613037
0.12982125580310822 0.06057685241103172 1.4790228605270386
0.13527700304985046 0.051336269825696945 1.439453125
0.13795490562915802 0.06930385529994965 1.4243074655532837
0.09980921447277069 -0.23932260274887085 1.1765037775039673
0.17611698806285858 -0.15388378500938416 0.8763330578804016
0.1211167499423027 -0.2127053141593933 1.1899663209915161
0.11831163614988327 -0.23727697134017944 1.1734422445297241
0.20613287389278412 -0.11008287966251373 0.8946337699890137
0.2074759304523468 -0.08819902688264847 0.8756755590438843
0.21538880467414856 -0.05306321009993553 0.8845201730728149
-0.2092399001121521 -0.10930664837360382 1.192848801612854
-0.16632816195487976 -0.11310414969921112 1.2720670700073242
-0.17158633470535278 -0.10841978341341019 1.2529698610305786
-0.16289831697940826 -0.103457510471344 1.261696696281433
-0.16177579760551453 -0.09882506728172302 1.2785735130310059
-0.20184773206710815 0.0013090288266539574 0.8753539323806763
-0.13752831518650055 -0.061890289187431335 1.303012728691101
-0.143849179148674 -0.06567278504371643 1.0839064121246338
-0.1387716382741928 0.09112411737442017 1.5576778650283813
-0.1389090120792389 -0.09009866416454315 1.2068257331848145
-0.1373288333415985 -0.0828172117471695 1.155940294265747
-0.11217477172613144 0.09702230989933014 1.4505343437194824
-0.10365594178438187 0.09729743748903275 1.408293604850769
-0.1293925940990448 -0.14214648306369781 1.0531941652297974
-0.09549861401319504 -0.16880938410758972 1.0112059116363525
-0.1303669512271881 -0.034450825303792953 0.7819015383720398
-0.05117490142583847 0.20040716230869293 1.2723041772842407
-0.08240532875061035 0.12378713488578796 1.6492313146591187
-0.14535726606845856 -0.06926347315311432 0.06772512942552567
-0.15712210536003113 -0.06009390950202942 0.05734683573246002
-0.08681554347276688 0.026567352935671806 0.8704949021339417
-0.004375072196125984 0.09766305238008499 0.857205867767334
-0.06569702923297882 -0.017848672345280647 0.8481975793838501
0.016799146309494972 0.10106553882360458 1.3381046056747437
-0.04039595648646355 -0.08459317684173584 0.7708467245101929
-0.05523595213890076 -0.13407352566719055 1.6272951364517212
-0.011218050494790077 0.01708122342824936 0.8772392272949219
-0.006749867461621761 -0.023393936455249786 0.8558781743049622
0.014206846244633198 -0.11690879613161087 0.8599912524223328
-0.08013570308685303 -0.16747386753559113 0.8617509007453918
-0.004524229094386101 -0.22687770426273346 0.8548904061317444
0.030352717265486717 -0.10861369967460632 0.8375268578529358
-0.005424555856734514 -0.16254866123199463 0.8669626712799072
-0.0022360309958457947 0.020995471626520157 1.5016661882400513
0.026101835072040558 -0.035050518810749054 0.8510372042655945
0.027278173714876175 -0.049326494336128235 0.8339980244636536
0.007870618253946304 0.033163055777549744 1.5802026987075806
0.013151682913303375 0.03441472351551056 1.5527676343917847
0.039323631674051285 -0.12271524965763092 0.8531008958816528
0.129060298204422 0.06051098555326462 0.8599854111671448
0.08680025488138199 -0.011784639209508896 0.2739656865596771
0.05171533674001694 -0.035918671637773514 0.8202840685844421
0.08370664715766907 0.14984162151813507 1.2112479209899902
0.11950983107089996 -0.05970197170972824 0.39351320266723633
0.11169923096895218 -0.02793019823729992 0.33305734395980835
0.12911202013492584 -0.052476800978183746 0.34475845098495483
0.12629763782024384 -0.08539408445358276 0.28983843326568604
0.0955488309264183 0.07508082687854767 1.5163698196411133
0.07789935171604156 -0.015763863921165466 0.8553495407104492
0.10717688500881195 -0.03642171993851662 0.8354828357696533
0.08753399550914764 -0.07399599254131317 1.257457971572876
0.1464025229215622 -0.07580336183309555 0.43908217549324036
0.08594666421413422 0.04777618125081062 1.6251931190490723
0.07394532114267349 -0.03213208168745041 1.3131252527236938
0.15739689767360687 -0.053045015782117844 0.34838634729385376
0.10934687405824661 0.21036063134670258 1.2040531635284424
0.09076006710529327 -0.050344984978437424 1.2323033809661865
0.15732933580875397 0.021020468324422836 0.22923877835273743
0.15088841319084167 0.2144394963979721 1.1216981410980225
0.14899452030658722 0.03052610531449318 0.26898622512817383
0.16806381940841675 -0.08567503094673157 0.26066768169403076
0.1372535228729248 0.09718349575996399 1.3279075622558594
0.0986420139670372 -0.047842539846897125 1.481149673461914
0.10868388414382935 -0.0422261506319046 1.443033218383789
0.09742138534784317 -0.049078650772571564 1.4763545989990234
0.1243438720703125 -0.03171083331108093 1.4221793413162231
0.11102284491062164 -0.1819269359111786 1.2335941791534424
0.09814029932022095 -0.1913193166255951 1.2272295951843262
0.16170519590377808 0.12640340626239777 1.2335749864578247
0.1786373406648636 0.16326399147510529 1.1671273708343506
0.175775408744812 0.1549558937549591 1.1334158182144165
0.12360861152410507 -0.038943011313676834 1.262258529663086
0.11780894547700882 -0.07591686397790909 1.2719881534576416
0.16069296002388 -0.1778988242149353 0.8862134218215942
0.12395220249891281 -0.09038998186588287 1.277552604675293
0.1365644633769989 -0.10376816242933273 1.169832706451416
0.14564019441604614 -0.026616200804710388 1.1630125045776367
0.13939909636974335 -0.07918967306613922 1.1440719366073608
0.2103574126958847 -0.1216500997543335 1.181372880935669
0.22766514122486115 -0.07610972225666046 1.0598883628845215
0.21619293093681335 -0.1346805989742279 1.1002800464630127
-0.14636236429214478 -0.2315654754638672 1.166368007659912
-0.15076370537281036 -0.16073355078697205 1.217822551727295
-0.15645337104797363 -0.14879974722862244 1.2358696460723877
-0.1360849142074585 -0.21485325694084167 1.1670501232147217
-0.13080203533172607 0.09920346736907959 1.4791492223739624
-0.137643963098526 0.09073322266340256 1.4620487689971924
-0.13901567459106445 0.10801555961370468 1.4187700748443604
-0.15755584836006165 -0.005036354064941406 1.7117825746536255
-0.16056546568870544 -0.04373297095298767 1.6267297267913818
-0.19773176312446594 -0.10861720144748688 0.3377753794193268
-0.13268356025218964 -0.06731432676315308 0.8578262329101562
-0.13390056788921356 -0.09220442175865173 0.8384060859680176
-0.11457295715808868 0.20708566904067993 0.9920144081115723
-0.10226023197174072 -0.1305256485939026 1.2640328407287598
-0.11882465332746506 -0.029742920771241188 0.8290636539459229
-0.11011763662099838 -0.017855331301689148 1.7654736042022705
-0.09680355340242386 -0.12331066280603409 1.1418626308441162
-0.06281623989343643 -0.18630251288414001 1.138980507850647
-0.054171063005924225 0.1798056662082672 1.1046570539474487
0.02300180494785309 0.1732054203748703 1.1011574268341064
-0.06907465308904648 -0.021599287167191505 1.1598527431488037
-0.05412563681602478 -0.11295513808727264 0.8525629043579102
-0.05352911725640297 -0.18865808844566345 1.0720713138580322
-0.052151571959257126 0.017733514308929443 1.0622152090072632
-0.04943548142910004 -0.1232222244143486 1.7254672050476074
0.0272523146122694 -0.101166270673275 0.7732394933700562
-0.03818491846323013 0.11591446399688721 1.3102234601974487
0.09771955758333206 -0.007798969745635986 0.06552713364362717
0.13691501319408417 0.2322946935892105 1.052181363105774
0.09670477360486984 0.17025431990623474 1.123427152633667
0.07499398291110992 0.2511860430240631 1.0629782676696777
0.09824535995721817 0.08976565301418304 0.8662903308868408
0.16260194778442383 0.0666329488158226 0.09581014513969421
0.12047863006591797 -0.03766635060310364 0.8599743843078613
0.1513935774564743 -0.06238672882318497 0.395944207906723
0.10387890785932541 -0.0723906084895134 1.4018490314483643
0.10426314175128937 -0.08635019510984421 1.3193143606185913
0.1997099667787552 0.0011313753202557564 0.8772242069244385
0.20286411046981812 -0.0484468974173069 0.9409757852554321
0.22550144791603088 -0.11155873537063599 1.0697569847106934
-0.25207632780075073 -0.12787914276123047 1.1450227499008179
-0.20129689574241638 -0.08742295205593109 0.9375273585319519
-0.21861544251441956 -0.07418897747993469 0.8817310333251953
-0.14199766516685486 0.08877427875995636 1.415050745010376
-0.13319402933120728 0.12957780063152313 1.2653400897979736
-0.1429356336593628 0.006222542375326157 1.5425288677215576
-0.13711385428905487 -0.05946263298392296 1.0510179996490479
-0.1422075778245926 -0.08661971986293793 1.0924533605575562
-0.14266915619373322 0.011142387986183167 1.5436376333236694
-0.143093541264534 -0.002275746315717697 1.5287513732910156
-0.14115197956562042 0.0022630952298641205 1.536494493484497
-0.1425640881061554 0.0032295584678649902 1.5418428182601929
-0.14718584716320038 -0.009713657200336456 1.5300782918930054
-0.18687862157821655 -0.16469229757785797 0.18512913584709167
-0.155504047870636 -0.0812583938241005 1.6811347007751465
-0.03971610963344574 -0.016856413334608078 1.2153897285461426
-0.14523574709892273 -0.182977095246315 0.0681602880358696
-0.05352536961436272 -0.02582872472703457 1.2574191093444824
-0.011074231937527657 -0.0245861504226923 1.1709072589874268
-0.04033432900905609 0.09427876770496368 0.9340863227844238
-0.044029608368873596 -0.025708239525556564 1.7831943035125732
-0.055367615073919296 -0.08551731705665588 0.7086716890335083
-0.011469641700387001 0.12157271802425385 1.2707490921020508
0.005085885524749756 -0.19217732548713684 1.020729660987854
-0.03634878247976303 -0.18920022249221802 1.2377910614013672
0.03202471137046814 0.15625154972076416 1.1458853483200073
0.10723014920949936 -0.005062088370323181 0.2081318199634552
0.06599085032939911 -0.17823252081871033 1.000815987586975
0.11475811898708344 -0.1714220494031906 0.9820531010627747
0.06851807236671448 0.04778233915567398 1.548248529434204
0.0628180205821991 -0.16452647745609283 1.1859886646270752
0.03339030593633652 -0.032890938222408295 1.1680985689163208
0.08935937285423279 -0.024305220693349838 1.0886781215667725
0.07907307893037796 0.061029933393001556 0.9626489877700806
0.1541544497013092 -0.030928485095500946 0.04648897796869278
0.12890011072158813 -0.022876352071762085 0.04430865868926048
0.18645578622817993 -0.012261554598808289 0.05218689516186714
0.18961255252361298 -0.061071962118148804 0.24771592020988464
0.09500689804553986 -0.04773386940360069 1.4764580726623535
0.09414668381214142 -0.04554612934589386 1.4740287065505981
0.0882953405380249 -0.05787001922726631 1.3328728675842285
0.10385262221097946 -0.07893196493387222 1.3100495338439941
0.19204828143119812 0.18130147457122803 1.0614744424819946
0.18802957236766815 0.16359061002731323 1.0120830535888672
0.1979784518480301 0.1697341948747635 1.0092620849609375
0.24287617206573486 -0.06714664399623871 1.058571696281433
0.23545311391353607 -0.12857916951179504 1.0452238321304321
0.24678876996040344 -0.15225614607334137 1.0370888710021973
-0.23979637026786804 -0.07612213492393494 1.0716042518615723
-0.1577511578798294 -0.19183239340782166 1.2035471200942993
-0.1702699214220047 -0.11342094838619232 0.3651348948478699
-0.07561099529266357 0.1933814287185669 0.9655053019523621
-0.10506415367126465 -0.14335252344608307 1.0907176733016968
-0.03578750789165497 -0.0404132716357708 0.8476771712303162
-0.05813651531934738 -0.03034328855574131 0.8131633400917053
-0.05075906589627266 -0.08290596306324005 0.8167096376419067
-0.0059586092829704285 0.014299703761935234 1.1075230836868286
0.026698626577854156 -0.2089904248714447 0.8442763686180115
0.0953950583934784 0.016470924019813538 0.8717336654663086
0.1161380261182785 0.1705564558506012 1.085250735282898
0.09237085282802582 0.01109272614121437 1.5656216144561768
0.103331059217453 0.03481101989746094 1.5407910346984863
0.1903127133846283 -0.11703101545572281 0.9417060613632202
-0.16080732643604279 -0.2029750645160675 1.1709786653518677
-0.14476804435253143 0.05942477285861969 1.5745201110839844
-0.048778582364320755 0.20172712206840515 1.013200044631958
-0.12522488832473755 0.08879780769348145 1.6057928800582886
-0.0986911952495575 0.04840640351176262 1.5959229469299316
-0.0641825944185257 0.040060803294181824 1.5740076303482056
0.032290928065776825 -0.19372153282165527 1.0764187574386597
0.052777111530303955 -0.14577588438987732 1.2735958099365234
0.13720713555812836 -0.05498357489705086 0.17505638301372528
0.0909290462732315 -0.1268007606267929 1.231102705001831
0.09905526787042618 -0.1160210520029068 1.1779752969741821
0.11982652544975281 0.07391007244586945 1.4403908252716064
0.10542112588882446 0.1015324592590332 1.4460256099700928
0.10248574614524841 -0.06860551238059998 1.186048984527588
0.12421531230211258 -0.07502410560846329 0.8448801040649414
0.0800928920507431 -0.1715533584356308 1.2497345209121704
0.14023154973983765 0.11224199086427689 1.3518391847610474
-0.11755730211734772 0.12133529037237167 1.3537014722824097
-0.16266749799251556 -0.03668738156557083 0.37096771597862244
0.0436587892472744 -0.09902253746986389 0.7316602468490601
0.009803233668208122 -0.12532174587249756 1.7041378021240234
-0.1296367347240448 0.1974780261516571 1.0654513835906982
-0.15518245100975037 -0.10196911543607712 1.2821638584136963
-0.12333673983812332 -0.07548995316028595 0.4098275899887085
0.014993413351476192 0.1383107453584671 1.4789857864379883
0.1095070093870163 -0.03323514759540558 0.04862508177757263
0.08523032069206238 -0.052544061094522476 1.523775577545166
0.08698394149541855 -0.054809946566820145 1.5191739797592163
0.09247720241546631 -0.04737059026956558 1.4301868677139282
0.18135875463485718 -0.04291533678770065 0.22108471393585205
0.1818927824497223 -0.008155010640621185 0.21356257796287537
0.14264380931854248 -0.10941558331251144 1.2183201313018799
-0.17775532603263855 -0.16055536270141602 0.9386051893234253
-0.1297081708908081 0.10513553023338318 1.3856143951416016
-0.1274348348379135 0.1031327173113823 1.3858404159545898
-0.1331586390733719 0.10047271847724915 1.3861750364303589
-0.1313685029745102 -0.10491868108510971 0.20896410942077637
-0.035395849496126175 -0.09546283632516861 0.849468469619751
0.11216704547405243 -0.02983252704143524 0.16613489389419556
0.17141969501972198 -0.1315634548664093 1.1727827787399292
0.06971676647663116 -0.07534293085336685 1.660980463027954
0.14224381744861603 -0.09866386651992798 0.7940593957901001
0.13481229543685913 0.06808973103761673 1.4036474227905273
0.14168578386306763 0.09034164994955063 1.365317463874817
0.10490629822015762 0.03935950994491577 0.07623091340065002
0.11169683933258057 -0.4861873388290405 1.0474811792373657
0.11386143416166306 -0.44948405027389526 1.0295873880386353
0.11187651753425598 -0.46405214071273804 1.031630516052246
0.1056717038154602 -0.4637949764728546 1.0360749959945679
0.10517200827598572 -0.48568496108055115 1.0392811298370361
0.11615975201129913 -0.4734431207180023 1.0541218519210815
0.16630110144615173 -0.3337613642215729 1.0385133028030396
0.14943018555641174 -0.3362080454826355 1.0280570983886719
0.1549321711063385 -0.35587573051452637 1.0367672443389893
0.14966948330402374 -0.3643340468406677 1.0378389358520508
0.20187215507030487 -0.17691287398338318 0.9755055904388428
0.19583278894424438 -0.19556061923503876 0.991071879863739
0.19058901071548462 -0.18819667398929596 0.9649309515953064
0.14473292231559753 -0.34984779357910156 0.9955413937568665
0.14257262647151947 -0.36300867795944214 1.0063347816467285
0.14865821599960327 -0.39223846793174744 1.0606037378311157
0.15089288353919983 -0.37699323892593384 1.0450725555419922
0.1756552755832672 -0.22538462281227112 0.9454247951507568
0.1804426908493042 -0.2313801646232605 0.9721314907073975
0.1922352910041809 -0.272300124168396 1.0327328443527222
0.18505793809890747 -0.2617875933647156 1.0281102657318115
0.13113227486610413 -0.4588121771812439 1.0627341270446777
0.12129080295562744 -0.443082720041275 1.0170481204986572
0.19951359927654266 -0.19107645750045776 0.9578219652175903
0.19231081008911133 -0.19492152333259583 0.9567185640335083
0.29005739092826843 -0.011911172419786453 1.0458287000656128
0.27951672673225403 -0.024743452668190002 1.0431134700775146
0.28216585516929626 -0.011613070964813232 1.0257878303527832
0.14285269379615784 -0.41405248641967773 1.0510002374649048
0.13457632064819336 -0.4378674626350403 1.0573426485061646
0.195627361536026 -0.19439879059791565 0.9503978490829468
0.1964336782693863 -0.18916991353034973 0.9399195909500122
0.0975014790892601 -0.5009943842887878 1.0008940696716309
0.09175395965576172 -0.5171915292739868 1.0064078569412231
0.29183050990104675 -0.005124248564243317 1.0395259857177734
0.29068857431411743 -0.015958156436681747 1.0507128238677979
0.2868817448616028 -0.003487527370452881 1.0349626541137695
0.2881912291049957 -0.013083655387163162 1.0236860513687134
0.09658005833625793 -0.547603189945221 1.0549191236495972
0.09706558287143707 -0.5676350593566895 1.0637307167053223
0.08550147712230682 -0.5680148601531982 1.0468201637268066
0.16662143170833588 -0.29304665327072144 0.9728723168373108
0.1639959216117859 -0.31331878900527954 0.9695107340812683
0.15129870176315308 -0.3300077021121979 0.9707624912261963
0.1524646133184433 -0.33260273933410645 0.9590652585029602
0.29312461614608765 -0.018465537577867508 1.0574653148651123
0.2909441590309143 -0.0006997063755989075 1.0329573154449463
0.1538834422826767 -0.41390424966812134 1.0657861232757568
0.15791644155979156 -0.41553059220314026 1.0632603168487549
0.1465211808681488 -0.4274100959300995 1.064799427986145
0.14905264973640442 -0.44550904631614685 1.0700013637542725
0.17986828088760376 -0.25406062602996826 0.9608001708984375
0.17303772270679474 -0.26990807056427 0.9569498300552368
0.1719527393579483 -0.273959755897522 0.9598199129104614
0.2945203483104706 -0.004243351519107819 1.037412405014038
0.2969585359096527 -0.022732768207788467 1.0541857481002808
0.28788936138153076 -0.014525771141052246 1.0254323482513428
0.20010754466056824 -0.1625554859638214 0.9125779867172241
0.19691471755504608 -0.17111259698867798 0.9047096967697144
0.1957230120897293 -0.18445266783237457 0.9277342557907104
0.19880521297454834 -0.17527464032173157 0.9181380271911621
0.19490651786327362 -0.16937685012817383 0.9170081615447998
0.14518612623214722 -0.3520148992538452 0.9572256207466125
0.14999371767044067 -0.3340515196323395 0.955201268196106
0.14556197822093964 -0.34058743715286255 0.9441924095153809
0.14589567482471466 -0.35019451379776 0.9407933354377747
0.29397672414779663 -0.022601544857025146 1.0314209461212158
0.09715154021978378 -0.5776662826538086 1.07112455368042
0.09770531207323074 -0.5739350318908691 1.0512974262237549
0.09771411865949631 -0.5821549296379089 1.0664119720458984
0.09422057867050171 -0.5883100628852844 1.0674207210540771
0.09321385622024536 -0.5675321817398071 1.0412101745605469
0.22284141182899475 -0.18558551371097565 0.9664254784584045
0.20714320242404938 -0.19340310990810394 0.9522532224655151
0.10882772505283356 -0.4834372401237488 0.9893104434013367
0.10438235849142075 -0.5077738165855408 0.9966610670089722
0.099675253033638 -0.5310992002487183 1.0099283456802368
0.2086346596479416 -0.2612498998641968 1.033075213432312
0.19738031923770905 -0.2776579260826111 1.0314269065856934
0.20219556987285614 -0.2907419800758362 1.0272427797317505
0.16746312379837036 -0.4084396958351135 1.0683692693710327
0.15813802182674408 -0.41679492592811584 1.0603840351104736
0.14132966101169586 -0.46535682678222656 1.0669729709625244
0.16741003096103668 -0.37998345494270325 1.0551129579544067
0.12578971683979034 -0.46323177218437195 1.0087510347366333
0.11430042237043381 -0.49573612213134766 1.00713050365448
0.21145135164260864 -0.26312512159347534 1.0257450342178345
0.17086103558540344 -0.39184674620628357 1.0380116701126099
0.17198869585990906 -0.3768256902694702 1.0270880460739136
0.16372287273406982 -0.40904879570007324 1.0391770601272583
0.11040816456079483 -0.5419458150863647 1.0414695739746094
0.11443718522787094 -0.5330667495727539 1.0313303470611572
0.15010294318199158 -0.379244863986969 0.9834967255592346
0.16358835995197296 -0.38408470153808594 1.0012452602386475
0.1516890525817871 -0.39588212966918945 1.0013959407806396
0.1570921391248703 -0.3975594639778137 1.0118613243103027
0.18831796944141388 -0.3304600417613983 1.0298283100128174
0.17778195440769196 -0.36146122217178345 1.0285654067993164
0.14308927953243256 -0.46563291549682617 1.0418156385421753
0.1370859444141388 -0.4823944568634033 1.0406920909881592
0.1285359114408493 -0.4911220967769623 1.0464962720870972
0.1415109932422638 -0.45427995920181274 1.0172033309936523
0.13838177919387817 -0.46209341287612915 1.0138731002807617
0.17080850899219513 -0.34227055311203003 0.9900133609771729
0.16871652007102966 -0.3569236397743225 0.9885414242744446
0.16967104375362396 -0.3329521119594574 0.9758372902870178
0.16638556122779846 -0.34941017627716064 0.9812151193618774
0.16420985758304596 -0.36776649951934814 0.9918481111526489
0.18228474259376526 -0.32783108949661255 0.997857391834259
0.19245369732379913 -0.3119361102581024 1.0047043561935425
0.18077950179576874 -0.29982513189315796 0.9794920682907104
0.18468056619167328 -0.3135245740413666 0.9951238632202148
0.13917329907417297 -0.4705653190612793 1.0216450691223145
0.1348954141139984 -0.490265429019928 1.025909185409546
0.13042262196540833 -0.48105132579803467 1.0201164484024048
0.1427653282880783 -0.48410409688949585 1.0218915939331055
0.22628523409366608 -0.2023451328277588 0.9797048568725586
0.11307677626609802 -0.43400052189826965 1.045606255531311
0.10342654585838318 -0.4444230794906616 1.0361063480377197
0.13678517937660217 -0.3751809597015381 1.0331670045852661
0.13845695555210114 -0.3717442750930786 1.0282198190689087
0.13021256029605865 -0.38681548833847046 1.0412468910217285
0.13410235941410065 -0.3765736222267151 1.0247907638549805
0.12715162336826324 -0.3905565142631531 1.032051920890808
0.14584773778915405 -0.3416917026042938 1.0138747692108154
0.14346995949745178 -0.35653653740882874 1.0113424062728882
0.15613116323947906 -0.32258766889572144 1.0119558572769165
0.14209391176700592 -0.38612204790115356 1.0437300205230713
0.11280129104852676 -0.4637690782546997 1.0050294399261475
0.10586448758840561 -0.4757426679134369 1.035251498222351
0.13759419322013855 -0.37333089113235474 1.005617618560791
0.10238337516784668 -0.5031522512435913 1.0381900072097778
0.09251727908849716 -0.5215205550193787 1.037268877029419
0.0972566232085228 -0.5070174932479858 1.031901240348816
0.0954301729798317 -0.5386438965797424 1.0473908185958862
0.21061940491199493 -0.17262321710586548 0.9942489266395569
0.2187824249267578 -0.2226857841014862 1.0605156421661377
0.20836910605430603 -0.23069751262664795 1.0499682426452637
0.21506747603416443 -0.23600545525550842 1.054570198059082
0.17603030800819397 -0.25571200251579285 0.9735375642776489
0.27644938230514526 -0.015433810651302338 1.0145405530929565
0.2839171588420868 -0.03828199952840805 1.0554835796356201
0.27823764085769653 -0.048850975930690765 1.0498701333999634
0.275177925825119 -0.0442630797624588 1.0436537265777588
0.17387765645980835 -0.34225994348526 1.0415879487991333
0.1315792202949524 -0.47608280181884766 1.0785210132598877
0.09215212613344193 -0.5438978672027588 1.0256059169769287
0.25365951657295227 -0.07839982211589813 1.0082824230194092
0.24517710506916046 -0.10625794529914856 0.9931467771530151
0.18668296933174133 -0.32031190395355225 1.0481634140014648
0.17896012961864471 -0.3251323997974396 1.040903091430664
0.16359500586986542 -0.36623769998550415 1.0426450967788696
0.09200732409954071 -0.5517025589942932 1.0304194688796997
0.09662635624408722 -0.581210732460022 1.075168251991272
0.09164802730083466 -0.5845116376876831 1.078368902206421
0.09238266944885254 -0.5826780796051025 1.0599299669265747
0.22589658200740814 -0.14766725897789001 0.9923804998397827
0.2249501645565033 -0.17408142983913422 0.9912130832672119
0.17132093012332916 -0.3689653277397156 1.0423369407653809
0.20478054881095886 -0.17724725604057312 0.9696514010429382
0.09459102153778076 -0.5232718586921692 1.007063627243042
0.24173656105995178 -0.18873418867588043 1.0751969814300537
0.24346184730529785 -0.19016261398792267 1.0757416486740112
0.23636586964130402 -0.19706735014915466 1.0597833395004272
0.24041354656219482 -0.20686131715774536 1.0674017667770386
0.23798894882202148 -0.2189081311225891 1.074298620223999
0.2244735211133957 -0.18851634860038757 1.043419361114502
0.2329094260931015 -0.19779285788536072 1.0447146892547607
0.09779451042413712 -0.5876950025558472 1.0809822082519531
0.14718613028526306 -0.39154407382011414 0.9872416257858276
0.14437413215637207 -0.3993169069290161 0.9957736730575562
0.13731464743614197 -0.4024624228477478 0.9950461387634277
0.1438986361026764 -0.369345486164093 0.9780080318450928
0.23968499898910522 -0.20607955753803253 1.0689077377319336
0.2401057779788971 -0.21486270427703857 1.0691725015640259
0.20601767301559448 -0.19905999302864075 0.9424789547920227
0.2472752183675766 -0.19744737446308136 1.0671296119689941
0.2415979653596878 -0.20556269586086273 1.0595811605453491
0.17157594859600067 -0.4020727276802063 1.061855435371399
0.19513042271137238 -0.19620302319526672 0.9144843220710754
0.19132649898529053 -0.19497428834438324 0.9123181700706482
0.18800988793373108 -0.20554903149604797 0.897140622138977
0.1848086267709732 -0.21619069576263428 0.9022743701934814
0.2290578931570053 -0.17943701148033142 0.9875445365905762
0.23507331311702728 -0.22399969398975372 1.0521571636199951
0.15788249671459198 -0.41836947202682495 1.0477604866027832
0.15364187955856323 -0.4360130727291107 1.048857569694519
0.20247593522071838 -0.20822398364543915 0.9379010200500488
0.196626678109169 -0.21963879466056824 0.9360673427581787
0.19372041523456573 -0.21190619468688965 0.9242954254150391
0.15424123406410217 -0.4374229907989502 1.0384604930877686
0.1621750444173813 -0.42143338918685913 1.0332247018814087
0.14803530275821686 -0.4277496337890625 1.0226246118545532
0.15914395451545715 -0.4072103500366211 1.0224838256835938
0.11702737957239151 -0.5080217123031616 1.0132697820663452
0.1171756163239479 -0.5149293541908264 1.0241687297821045
0.2121986299753189 -0.2137543261051178 0.9567262530326843
0.22977077960968018 -0.21719053387641907 1.0024709701538086
0.21373392641544342 -0.23991833627223969 0.9990561008453369
0.22034257650375366 -0.2329205572605133 0.9878807663917542
0.21461714804172516 -0.25582703948020935 0.9953750371932983
0.2045571655035019 -0.26471424102783203 0.9852233529090881
0.15614818036556244 -0.445710688829422 1.0232990980148315
0.1558794379234314 -0.43756720423698425 1.01869535446167
0.1512719839811325 -0.47115856409072876 1.0349640846252441
0.18117393553256989 -0.3756338655948639 1.018389105796814
0.16850247979164124 -0.40119749307632446 1.0243803262710571
0.1719871163368225 -0.3821580111980438 1.0188199281692505
0.1754273772239685 -0.39231157302856445 1.013484001159668
0.17486537992954254 -0.39839082956314087 1.0215771198272705
0.17667797207832336 -0.3859660029411316 1.0196635723114014
0.16959846019744873 -0.4035826325416565 1.0157451629638672
0.14450488984584808 -0.48221084475517273 1.0292181968688965
0.1482088267803192 -0.47289371490478516 1.0207194089889526
0.10544567555189133 -0.452800989151001 1.0522503852844238
0.10778119415044785 -0.4664650559425354 1.0458292961120605
0.10767322033643723 -0.4511697292327881 1.0321810245513916
0.09754446148872375 -0.4722139239311218 1.0403424501419067
0.2038356363773346 -0.2149294912815094 1.043053150177002
0.19375698268413544 -0.19999942183494568 0.9770690202713013
0.18667881190776825 -0.21268725395202637 0.9701868295669556
0.20735396444797516 -0.18278241157531738 1.018398404121399
0.12375608086585999 -0.4448946714401245 1.052063226699829
0.12883475422859192 -0.41878756880760193 1.0247739553451538
0.17732203006744385 -0.247452050447464 0.9951791763305664
0.1761314868927002 -0.25868943333625793 0.9839639067649841
0.19656936824321747 -0.22870707511901855 1.0338305234909058
0.19069840013980865 -0.2508390247821808 1.0292253494262695
0.12898768484592438 -0.41121917963027954 1.0253939628601074
0.12345567345619202 -0.45953676104545593 1.056897759437561
0.16748850047588348 -0.28087133169174194 0.990206241607666
0.16072207689285278 -0.3157060742378235 1.0028640031814575
0.1617930829524994 -0.29774147272109985 0.9866918921470642
0.13603776693344116 -0.3944624364376068 1.0185660123825073
0.10130398720502853 -0.5249328017234802 1.0562065839767456
0.08920488506555557 -0.5606099367141724 1.0552133321762085
0.0852169468998909 -0.5508631467819214 1.0343356132507324
0.22430703043937683 -0.21645143628120422 1.066989541053772
0.2122623771429062 -0.24711290001869202 1.060128927230835
0.1889588087797165 -0.288902223110199 1.0342950820922852
0.18077288568019867 -0.3123233914375305 1.0406556129455566
0.15821009874343872 -0.3115420937538147 0.9779291749000549
0.21283820271492004 -0.26166340708732605 1.0662089586257935
0.20903943479061127 -0.24536007642745972 1.0366113185882568
0.20294727385044098 -0.2578276991844177 1.035287618637085
0.12451546639204025 -0.496468722820282 1.0696200132369995
0.11524470150470734 -0.5138697028160095 1.0627096891403198
0.13503624498844147 -0.4023151397705078 1.0045398473739624
0.24367113411426544 -0.12410137057304382 1.0207321643829346
0.24791420996189117 -0.11129112541675568 1.0245630741119385
0.1493699848651886 -0.3376030921936035 0.9564827680587769
0.1922827810049057 -0.30362507700920105 1.035106897354126
0.19143350422382355 -0.3193182349205017 1.0517665147781372
0.1303170919418335 -0.49029314517974854 1.074272871017456
0.13055939972400665 -0.49052485823631287 1.0693211555480957
0.12356318533420563 -0.5046418905258179 1.0646618604660034
0.19126790761947632 -0.22080114483833313 0.9332136511802673
0.18232429027557373 -0.23533132672309875 0.9327590465545654
0.17850634455680847 -0.23427289724349976 0.9346460700035095
0.18600505590438843 -0.2151607871055603 0.9276008605957031
0.18977642059326172 -0.2162354737520218 0.9272822737693787
0.18064427375793457 -0.2161504626274109 0.909410834312439
0.18211333453655243 -0.24576930701732635 0.9552688002586365
0.17332823574543 -0.2147977501153946 0.908889651298523
0.17178143560886383 -0.22843818366527557 0.8983021974563599
0.22936317324638367 -0.18241365253925323 1.0168073177337646
0.22774818539619446 -0.18992926180362701 1.021956443786621
0.22120364010334015 -0.1750524938106537 0.9884101152420044
0.2310076653957367 -0.2240956872701645 1.0647969245910645
0.2217809408903122 -0.23290890455245972 1.0522966384887695
0.16659274697303772 -0.40994930267333984 1.078873634338379
0.1677674502134323 -0.40545785427093506 1.0792373418807983
0.16008466482162476 -0.4018888473510742 1.0677745342254639
0.1757286638021469 -0.21837285161018372 0.8942561149597168
0.18274961411952972 -0.20409435033798218 0.8979600667953491
0.1838260442018509 -0.2492036521434784 0.9509263038635254
0.1281743049621582 -0.4500471353530884 1.0056493282318115
0.11494839936494827 -0.46816426515579224 0.9988085627555847
0.2326158583164215 -0.20686691999435425 1.044555902481079
0.23921270668506622 -0.1680319458246231 1.017096996307373
0.13413050770759583 -0.4778844118118286 1.0527374744415283
0.15739916265010834 -0.3381381630897522 0.9613741636276245
0.27816158533096313 -0.05492130294442177 1.0111472606658936
0.27029240131378174 -0.06713370978832245 1.0064195394515991
0.15693460404872894 -0.34500670433044434 0.9629253149032593
0.24366158246994019 -0.16115623712539673 1.005895972251892
0.23743852972984314 -0.17786826193332672 1.007873773574829
0.23218382894992828 -0.1755516529083252 0.9966232776641846
0.14604754745960236 -0.44621342420578003 1.0210894346237183
0.22314506769180298 -0.19460433721542358 0.963454008102417
0.17605461180210114 -0.3221288323402405 0.9830380082130432
0.23568128049373627 -0.19499534368515015 1.004968523979187
0.23264384269714355 -0.2132594883441925 1.005212426185608
0.2367982268333435 -0.2150612324476242 1.0301209688186646
0.22821561992168427 -0.22272548079490662 1.0118227005004883
0.23544618487358093 -0.1845472753047943 0.9945213794708252
0.2318466156721115 -0.18912813067436218 0.979873776435852
0.15990322828292847 -0.4467083215713501 1.0298963785171509
0.14227734506130219 -0.34599682688713074 1.0303181409835815
0.14120528101921082 -0.35096314549446106 1.0275672674179077
0.14066322147846222 -0.36028486490249634 1.0322757959365845
0.13940668106079102 -0.3462154269218445 1.022975206375122
0.13821646571159363 -0.3658597469329834 1.0307300090789795
0.12112630903720856 -0.4192764461040497 1.0418072938919067
0.12698249518871307 -0.4296226501464844 1.0468380451202393
0.14038631319999695 -0.3722235858440399 1.0237663984298706
0.13712891936302185 -0.379710853099823 1.016869306564331
0.13298988342285156 -0.398226797580719 1.0291376113891602
0.1299944967031479 -0.4100688099861145 1.0433675050735474
0.1829107403755188 -0.23433160781860352 0.9958391189575195
0.21217191219329834 -0.21469783782958984 1.0535125732421875
0.21520376205444336 -0.19921588897705078 1.0452523231506348
0.22068020701408386 -0.1558140516281128 1.0164092779159546
0.2219248116016388 -0.1442451924085617 1.005306363105774
0.1399049311876297 -0.37102606892585754 0.9874024987220764
0.15116144716739655 -0.3263062834739685 0.9809096455574036
0.14162680506706238 -0.3515494167804718 0.953481912612915
0.14488022029399872 -0.3428712487220764 0.9825360178947449
0.2743043899536133 -0.054699115455150604 1.0503875017166138
0.2812667787075043 -0.025462709367275238 1.0291438102722168
0.2750871479511261 -0.0378449484705925 1.0335173606872559
0.2709205150604248 -0.04061120003461838 1.0238666534423828
0.26452016830444336 -0.05119697377085686 1.0189045667648315
0.23819269239902496 -0.10884138941764832 0.997329831123352
0.23122543096542358 -0.12806713581085205 0.9926931858062744
0.23414631187915802 -0.19122007489204407 1.069702386856079
0.1592315435409546 -0.40804943442344666 1.080962896347046
0.14046499133110046 -0.4454689919948578 1.0700260400772095
0.10652757436037064 -0.48332667350769043 0.9871787428855896
0.10264872014522552 -0.47877436876296997 0.9922776222229004
0.18811988830566406 -0.1963966190814972 0.905785083770752
0.17758211493492126 -0.201839417219162 0.9016852378845215
0.25549381971359253 -0.10942378640174866 1.0206782817840576
0.2504885792732239 -0.131373792886734 1.0187768936157227
0.16574569046497345 -0.4079270660877228 1.083787441253662
0.16704654693603516 -0.30319660902023315 0.9706385135650635
0.1688440442085266 -0.3198043704032898 0.9761412143707275
0.19160450994968414 -0.3119148015975952 1.0373804569244385
0.1867305338382721 -0.33064645528793335 1.0395768880844116
0.17879627645015717 -0.34655165672302246 1.038779616355896
0.20337291061878204 -0.2430627942085266 0.9600632190704346
0.27017685770988464 -0.0812133401632309 1.0190929174423218
0.2660355269908905 -0.08978243917226791 1.0084513425827026
0.11430472135543823 -0.5251535177230835 1.0290006399154663
0.21230745315551758 -0.2631497383117676 1.014550805091858
0.20545043051242828 -0.27989548444747925 1.005792260169983
0.2104095071554184 -0.24085572361946106 0.9778232574462891
0.20137809216976166 -0.2360650897026062 0.9506998658180237
0.19086533784866333 -0.25792768597602844 0.9633587598800659
0.22795751690864563 -0.23900745809078217 1.0097625255584717
0.23080770671367645 -0.23526480793952942 1.0257375240325928
0.22458523511886597 -0.24536001682281494 1.022648811340332
0.21917936205863953 -0.2486678808927536 1.0058627128601074
