-0.3645462393760681 -0.06007194519042969 1.0547295808792114
-0.3886525332927704 -0.12188836187124252 1.0853737592697144
-0.3125775158405304 -0.012808792293071747 1.078819751739502
-0.35842740535736084 -0.1157507672905922 1.0685608386993408
-0.2054877132177353 -0.05209558084607124 1.2427266836166382
-0.22061017155647278 -0.11198446154594421 1.1970455646514893
-0.17174527049064636 -0.09811471402645111 0.9556980133056641
-0.1796453595161438 -0.013514809310436249 0.9160445928573608
-0.1328701376914978 0.04984764754772186 0.9134449362754822
-0.1694025993347168 0.10328064113855362 1.2412798404693604
-0.1716785430908203 0.10601884871721268 1.1761773824691772
-0.17935843765735626 0.13490113615989685 1.1448382139205933
-0.15667468309402466 -0.012036332860589027 0.9502248764038086
-0.2170364111661911 -0.05835098773241043 1.7630462646484375
-0.1448369175195694 -0.08170101046562195 1.3610894680023193
-0.16891609132289886 -0.05779819190502167 1.300185203552246
-0.11145709455013275 0.15074920654296875 1.0314207077026367
-0.15262284874916077 0.15882249176502228 0.9443252086639404
-0.26990222930908203 0.018421664834022522 0.17350497841835022
-0.2849324941635132 0.015793241560459137 0.10014235228300095
-0.18515482544898987 -0.06799861788749695 1.7441128492355347
-0.17336037755012512 -0.0538778118789196 1.6814570426940918
-0.14188069105148315 -0.18266379833221436 1.21405029296875
-0.14460135996341705 -0.1922740787267685 1.1833806037902832
-0.15099070966243744 -0.21312355995178223 1.1737937927246094
-0.1514362245798111 0.049452319741249084 1.373956561088562
-0.13963472843170166 0.04415285959839821 1.3694056272506714
-0.1162847951054573 -0.18862631916999817 1.2360798120498657
-0.1334417760372162 -0.08912092447280884 1.207504391670227
-0.24352343380451202 -0.04679699242115021 0.2068018913269043
-0.2463388293981552 -0.021133368834853172 0.24681508541107178
-0.10800842940807343 0.08872207999229431 1.2324305772781372
-0.14974790811538696 -0.12723708152770996 1.4697164297103882
-0.14751353859901428 -0.12206494063138962 1.4436147212982178
-0.1350036859512329 -0.11546178162097931 1.418208122253418
-0.1505666971206665 -0.11615338176488876 1.4201340675354004
-0.1476469337940216 -0.129470556974411 1.3996448516845703
-0.1414901614189148 -0.12566429376602173 0.7911472320556641
-0.15771132707595825 -0.09391442686319351 0.772142767906189
-0.11781156063079834 0.21650633215904236 1.039420485496521
-0.11408758908510208 0.2075812667608261 1.0958888530731201
-0.10721135884523392 -0.17396855354309082 1.2342115640640259
-0.12787342071533203 -0.10161331295967102 0.8565590381622314
-0.23650604486465454 0.06470051407814026 0.21726277470588684
-0.24271225929260254 0.08967211097478867 0.19005785882472992
-0.1413825899362564 -0.1863640993833542 0.8527978658676147
-0.12517616152763367 0.15930725634098053 1.2103532552719116
-0.14064781367778778 -0.1880807727575302 1.6707216501235962
-0.1327195018529892 -0.06894756108522415 1.5572011470794678
-0.1202545240521431 0.03040957823395729 1.5166866779327393
-0.11199411749839783 -0.005215488374233246 1.577451467514038
-0.13477930426597595 -0.013901926577091217 1.5522847175598145
-0.12774452567100525 0.0141691192984581 1.4641135931015015
-0.08011402189731598 0.06935752928256989 1.554051399230957
-0.11238611489534378 -0.11509247124195099 1.511361002922058
-0.09331689029932022 0.044093742966651917 0.9701642394065857
-0.14364588260650635 -0.049216315150260925 1.8528598546981812
-0.15114980936050415 -0.05528644844889641 1.84610915184021
-0.15694603323936462 -0.07125025242567062 1.8359555006027222
-0.03649309277534485 0.023127615451812744 1.4426437616348267
-0.11434213817119598 0.06730444729328156 1.4224529266357422
-0.18127816915512085 0.0653974637389183 0.1164291650056839
-0.07507938891649246 0.1264159381389618 1.3512389659881592
-0.10233688354492188 -0.1937331259250641 1.5747805833816528
-0.1553361564874649 -0.12243331968784332 0.40486329793930054
-0.07674382627010345 0.0007008984684944153 1.5111443996429443
-0.0838804766535759 -0.06081686541438103 1.5055081844329834
-0.06438691169023514 0.08534996956586838 1.4675047397613525
-0.04263310879468918 0.054748304188251495 0.843719482421875
-0.15995337069034576 -0.05135804042220116 0.37763363122940063
-0.0622095912694931 0.19808505475521088 0.9412186145782471
-0.03866029530763626 0.04064128175377846 1.035271406173706
-0.08199488371610641 -0.2029738426208496 1.2309800386428833
-0.07814402878284454 -0.17025770246982574 1.1424800157546997
-0.15079572796821594 -0.07233936339616776 0.34889400005340576
-0.14085298776626587 -0.06767518073320389 0.2874387204647064
-0.16598881781101227 -0.02242939919233322 0.3050414025783539
-0.07094097882509232 -0.02493172697722912 1.5386154651641846
-0.06741173565387726 -0.1717691570520401 0.6900079846382141
-0.10009808093309402 -0.11264540255069733 0.6387983560562134
-0.05533698946237564 0.22592061758041382 1.0820661783218384
-0.05630052089691162 0.2291528880596161 0.9912625551223755
-0.024618078023195267 -0.20619642734527588 1.1624269485473633
-0.16354048252105713 0.01570557989180088 0.18145982921123505
-0.052490949630737305 0.1724395751953125 0.9845061302185059
-0.05280976742506027 0.1407623440027237 1.0246237516403198
-0.00019533559679985046 -0.005822939798235893 1.5220574140548706
-0.06770927459001541 -0.17764714360237122 1.3876211643218994
-0.016669519245624542 0.1466362625360489 1.3275105953216553
0.01813443750143051 0.02557525783777237 1.430265188217163
-0.005981311202049255 -0.026431836187839508 1.5316981077194214
0.008086157031357288 0.17509055137634277 0.9906601905822754
0.029408415779471397 0.17444512248039246 0.9404305815696716
-0.005913650617003441 -0.18929077684879303 1.3795890808105469
0.008631113916635513 0.04274431988596916 1.029476523399353
-0.002160625299438834 -0.20445756614208221 1.103553056716919
0.06723833084106445 0.12715959548950195 1.3532025814056396
0.026590129360556602 -0.05392526835203171 1.316356897354126
0.047259896993637085 0.07792794704437256 1.4767690896987915
0.020515721291303635 0.018533527851104736 1.4754806756973267
0.04439321160316467 -0.04380788654088974 1.2239902019500732
0.03974464535713196 0.10270144790410995 0.9074810743331909
0.01286492869257927 -0.07843945175409317 1.7907366752624512
0.15399090945720673 -0.09473840892314911 0.15872593224048615
0.16112971305847168 -0.07660901546478271 0.13639909029006958
0.14019446074962616 -0.055570028722286224 0.2134595811367035
-0.004744254052639008 -0.217443585395813 1.6871840953826904
0.06796880066394806 -0.1265936642885208 0.7014848589897156
0.08891638368368149 0.018869750201702118 1.449379563331604
0.04822983220219612 -0.12997546792030334 1.521446704864502
0.0929681658744812 -0.13431565463542938 1.4507935047149658
0.04561947286128998 -0.09119540452957153 1.426247477531433
0.12100625783205032 -0.13035812973976135 0.4488058090209961
0.14946715533733368 -0.18872466683387756 0.2941308319568634
0.16345427930355072 -0.08626196533441544 0.3142760992050171
0.08932114392518997 0.17700612545013428 0.9953879714012146
0.07058660686016083 0.21008962392807007 0.9600530862808228
0.09473589062690735 -0.19101586937904358 0.7664502859115601
0.11120270937681198 -0.1476476788520813 0.6545604467391968
0.020697079598903656 -0.13367125391960144 1.7849071025848389
0.06946221739053726 -0.13811025023460388 1.742194414138794
0.11920009553432465 -0.24252653121948242 0.5783085823059082
0.036218222230672836 -0.06904421746730804 1.8065178394317627
0.06582193076610565 -0.08246657997369766 1.75375497341156
0.08771639317274094 -0.08856144547462463 1.1395817995071411
0.0942138284444809 -0.07511389255523682 1.108215093612671
0.08582692593336105 -0.15011465549468994 1.0896024703979492
0.057502102106809616 -0.18427149951457977 1.6792763471603394
0.06622736155986786 -0.11843793094158173 1.556777000427246
0.060220494866371155 -0.1667170524597168 1.563071846961975
0.1334744244813919 0.1712854504585266 0.9510343670845032
0.09838132560253143 -0.15355238318443298 1.2863304615020752
0.11964800208806992 -0.20703119039535522 1.2261440753936768
0.10274050384759903 -0.12588845193386078 1.2411093711853027
0.2128790318965912 -0.06721323728561401 0.27486491203308105
0.19984646141529083 -0.15151742100715637 0.23705872893333435
0.22151361405849457 -0.13744845986366272 0.22916877269744873
0.07755742967128754 -0.05595880374312401 1.7735466957092285
0.11320285499095917 -0.1699279248714447 1.2834171056747437
0.1918342411518097 -0.1444549709558487 0.49281811714172363
0.1661708950996399 -0.20420296490192413 0.5290213823318481
0.20333945751190186 -0.14906537532806396 0.4413788616657257
0.1092430055141449 -0.15125085413455963 1.4406741857528687
0.09467831999063492 -0.14747098088264465 1.434080719947815
0.1198711097240448 -0.11632880568504333 1.4063282012939453
0.11893242597579956 0.07418835163116455 0.9001398086547852
0.11815838515758514 -0.11097913980484009 0.8501598238945007
0.2311895191669464 -0.1244184672832489 0.33804070949554443
0.2389044165611267 -0.1529020518064499 0.3351758122444153
0.12787525355815887 -0.10148001462221146 1.3999979496002197
0.15428665280342102 0.07985083758831024 1.2619357109069824
0.15778331458568573 0.11474486440420151 1.2328256368637085
0.1394883692264557 -0.2438911497592926 1.1029406785964966
0.1595844328403473 -0.04391561448574066 0.9711848497390747
0.16193252801895142 -0.1018797755241394 0.9648523330688477
0.19782838225364685 -0.03634730353951454 1.2489142417907715
0.3140323758125305 -0.08687637746334076 1.1178057193756104
0.31096214056015015 -0.029276765882968903 1.124145746231079
0.32790300250053406 -0.15034984052181244 1.1668949127197266
-0.36774811148643494 -0.022316325455904007 1.0548906326293945
-0.3969089090824127 -0.08372659236192703 1.0217716693878174
-0.29145166277885437 -0.11658205091953278 1.1160836219787598
-0.30137813091278076 -0.13982535898685455 1.161858320236206
-0.2530636787414551 -0.08054926991462708 1.1384556293487549
-0.23674985766410828 -0.03802631050348282 1.1732518672943115
-0.19449329376220703 -0.14953333139419556 0.8719320297241211
-0.18582479655742645 0.15421076118946075 0.9906842708587646
-0.17989863455295563 0.1297556757926941 1.1015732288360596
-0.16404716670513153 -0.2527898848056793 1.0597728490829468
-0.13386094570159912 -0.163869708776474 0.9549157619476318
-0.25472670793533325 -0.06834367662668228 0.31325021386146545
-0.23464713990688324 -0.11837820708751678 0.3107741177082062
-0.16902652382850647 -0.08868154883384705 0.5230072140693665
-0.1523505449295044 -0.1931738406419754 0.8579545617103577
-0.15526911616325378 -0.14709453284740448 0.6253314018249512
-0.149069681763649 -0.1634673774242401 0.6899867057800293
-0.13734859228134155 -0.09962346404790878 0.6775401830673218
-0.11001956462860107 -0.01685820147395134 1.1076077222824097
-0.10352861136198044 -0.08258627355098724 1.1259493827819824
-0.08654636144638062 0.19199399650096893 1.1719340085983276
-0.11766663938760757 -0.013003900647163391 0.8384177088737488
-0.1911585032939911 -0.13300596177577972 0.31464511156082153
-0.1102900505065918 -0.05140863358974457 1.215412974357605
-0.09450244903564453 -0.04333304613828659 1.1409859657287598
-0.1687043160200119 -0.15696147084236145 0.4471030533313751
-0.1448255479335785 -0.07339586317539215 1.7678604125976562
-0.14299950003623962 -0.11424870789051056 1.7590299844741821
-0.09294626116752625 -0.1445658802986145 1.7800242900848389
-0.10603184998035431 -0.1883416324853897 1.7433727979660034
-0.12234243750572205 -0.19099178910255432 1.6332051753997803
-0.16315311193466187 -0.10692482441663742 0.3546225428581238
-0.0658864974975586 -0.15238170325756073 0.7443181276321411
-0.14484094083309174 -0.09555899351835251 0.2845705449581146
-0.16427472233772278 -0.12101341038942337 0.2818624973297119
-0.1720774918794632 -0.01321994699537754 0.27039849758148193
-0.05643134564161301 0.06612741947174072 0.960639476776123
-0.09453404694795609 -0.05169688165187836 1.8120062351226807
-0.11256812512874603 -0.06797105073928833 1.8025041818618774
0.01637517660856247 0.12436322122812271 1.1554358005523682
-0.08750606328248978 0.12218000739812851 1.1562261581420898
-0.004523799754679203 0.10559336096048355 1.218181848526001
0.010065007954835892 -0.0631643682718277 1.2599996328353882
-0.0046002184972167015 0.1915518045425415 1.2052351236343384
-0.0008536982350051403 0.15273219347000122 1.0294020175933838
0.05721326172351837 0.22024786472320557 1.1184446811676025
0.0015775896608829498 0.06235971301794052 1.674793004989624
0.04136280715465546 0.14403218030929565 1.036534309387207
0.04860406368970871 -0.21400834619998932 0.9017448425292969
0.11620217561721802 -0.15335027873516083 0.3176872432231903
0.13906395435333252 -0.14127661287784576 0.2709495723247528
0.057713914662599564 -0.1937849521636963 0.7145645022392273
0.035508893430233 0.01752983033657074 1.064256191253662
0.08884415030479431 -0.171354740858078 0.5926183462142944
0.08064258098602295 0.07909221202135086 1.289440393447876
0.07114696502685547 -0.17041730880737305 1.4061650037765503
0.040623512119054794 0.046561531722545624 1.6412800550460815
0.045004360377788544 -0.03354374319314957 1.6162619590759277
0.04368813708424568 -0.0143362358212471 1.5889441967010498
0.029515430331230164 -0.060150157660245895 1.8554590940475464
0.07683929800987244 -0.1713068187236786 1.3252873420715332
0.15802553296089172 -0.13863223791122437 0.5480095148086548
0.1272885650396347 -0.12394294142723083 0.5429643988609314
0.16698773205280304 -0.10637916624546051 0.4152068495750427
0.19317534565925598 -0.10823704302310944 0.3930947780609131
0.0891740620136261 -0.1136736124753952 1.546381950378418
0.07648693025112152 -0.12284348160028458 1.5570452213287354
0.09060686826705933 -0.11640418320894241 1.5399415493011475
0.13049176335334778 -0.10147000849246979 0.7490584850311279
0.14435122907161713 -0.19682522118091583 0.6569182872772217
0.12242744863033295 0.03749019652605057 0.943076491355896
0.12309353053569794 -0.06474851071834564 1.081587314605713
0.11814321577548981 -0.11915384232997894 1.0701578855514526
0.12520255148410797 -0.1379467397928238 1.016167163848877
0.08644148707389832 -0.06241922453045845 1.6684460639953613
0.09908688813447952 -0.07273046672344208 1.5781580209732056
0.11274328827857971 -0.1890677809715271 1.2131032943725586
0.1070367768406868 -0.00011209025979042053 1.559389352798462
0.09737055003643036 -0.02590116485953331 1.6025973558425903
0.2390715479850769 -0.045738335698843 0.22233222424983978
0.2557305097579956 -0.06725891679525375 0.18900100886821747
0.11907665431499481 -0.014938773587346077 1.5211378335952759
0.12719571590423584 0.003606565296649933 1.4923646450042725
0.14031699299812317 0.007494855672121048 1.4461965560913086
0.13895964622497559 0.027013875544071198 1.4255473613739014
0.13633964955806732 -0.25421735644340515 1.1208833456039429
0.1689780205488205 -0.1441575288772583 0.8590844869613647
0.14625078439712524 -0.23226597905158997 1.1451549530029297
0.14852099120616913 -0.2563580274581909 1.124466896057129
0.1983731985092163 -0.10000438988208771 0.8687950968742371
0.19968058168888092 -0.0841812714934349 0.8468877673149109
0.21170058846473694 -0.04904427006840706 0.8495871424674988
-0.2559453845024109 -0.13751664757728577 1.1731574535369873
-0.1745796650648117 -0.16012904047966003 1.2421554327011108
-0.18813420832157135 -0.15442240238189697 1.2258493900299072
-0.17659924924373627 -0.1463809311389923 1.2341974973678589
-0.1675257682800293 -0.15047569572925568 1.2524900436401367
-0.20306748151779175 0.0064129941165447235 0.849606990814209
-0.13391204178333282 -0.11676065623760223 1.2840877771377563
-0.14380237460136414 -0.06755272299051285 1.078721046447754
-0.16231507062911987 0.010996084660291672 1.5569530725479126
-0.1316901445388794 -0.1153581291437149 1.190725564956665
-0.13452845811843872 -0.09148821234703064 1.1419298648834229
-0.1343594789505005 0.029953187331557274 1.4485266208648682
-0.12412696331739426 0.03520260751247406 1.3991011381149292
-0.11926386505365372 -0.14742127060890198 1.0403634309768677
-0.08547353744506836 -0.17525053024291992 0.9999282360076904
-0.13721421360969543 -0.04918074235320091 0.7593328356742859
-0.08333130180835724 0.1609361469745636 1.2512543201446533
-0.10502633452415466 0.0603993758559227 1.6472257375717163
-0.16783468425273895 0.07988991588354111 0.1680968552827835
-0.18037700653076172 0.09841269999742508 0.17304351925849915
-0.08968640118837357 0.02741856500506401 0.8515219688415527
-0.012330492027103901 0.10016214847564697 0.8376898765563965
-0.06877055019140244 -0.015963364392518997 0.8305810689926147
0.0011712759733200073 0.05962790548801422 1.3206639289855957
-0.041694723069667816 -0.1016702800989151 0.7573796510696411
-0.04535064101219177 -0.21041551232337952 1.6540378332138062
-0.013898704200983047 0.02178928628563881 0.8586001396179199
-0.007408538833260536 -0.0191904716193676 0.8407735824584961
0.012145196087658405 -0.11234230548143387 0.8488138914108276
-0.07834173738956451 -0.16730375587940216 0.8556437492370605
0.0006240122020244598 -0.22353050112724304 0.848093569278717
0.02428584359586239 -0.11146028339862823 0.8262939453125
-0.0026310698594897985 -0.16097043454647064 0.8577673435211182
-0.00987088680267334 -0.054525528103113174 1.5046632289886475
0.023483574390411377 -0.0332946851849556 0.8322275280952454
0.027454540133476257 -0.057465098798274994 0.804995596408844
0.002739217132329941 -0.03318989276885986 1.5877569913864136
0.005793854594230652 -0.027707815170288086 1.5582698583602905
0.03384857624769211 -0.11948531121015549 0.8420401811599731
0.12871836125850677 0.06160285323858261 0.8255754113197327
0.11866552382707596 -0.1281938999891281 0.324977308511734
0.05073880776762962 -0.052916109561920166 0.7849311828613281
0.06524135172367096 0.12354879081249237 1.1874393224716187
0.13825517892837524 -0.17406268417835236 0.42982128262519836
0.140462264418602 -0.14916275441646576 0.3773093819618225
0.1566508710384369 -0.1718381643295288 0.38924503326416016
0.15433640778064728 -0.19881725311279297 0.33142906427383423
0.08656197786331177 0.01348826289176941 1.5307502746582031
0.07698187232017517 -0.01600242406129837 0.826848030090332
0.10436604917049408 -0.05110383778810501 0.8013399839401245
0.0955132395029068 -0.09653863310813904 1.2538397312164307
0.1638561338186264 -0.19583387672901154 0.4739035367965698
0.0771779865026474 -0.0051279738545417786 1.63588285446167
0.08124712109565735 -0.07170165330171585 1.31209397315979
0.18727073073387146 -0.17463727295398712 0.39475879073143005
0.07948574423789978 0.1955704391002655 1.1824374198913574
0.10251695662736893 -0.06646567583084106 1.2304837703704834
0.2026216685771942 -0.09110216796398163 0.3219108283519745
0.12733551859855652 0.20106957852840424 1.0913915634155273
0.18786215782165527 -0.09431057423353195 0.3391374349594116
0.19983580708503723 -0.20224221050739288 0.31182944774627686
0.1317448914051056 0.06547825038433075 1.3148335218429565
0.09955868124961853 -0.14524084329605103 1.4829829931259155
0.11445827037096024 -0.13253481686115265 1.453070878982544
0.10044712573289871 -0.14109042286872864 1.4832627773284912
0.13136938214302063 -0.11140963435173035 1.444122552871704
0.13541483879089355 -0.20896977186203003 1.1936249732971191
0.1201973631978035 -0.22191455960273743 1.180965781211853
0.152872234582901 0.10354900360107422 1.2099039554595947
0.17042529582977295 0.15056349337100983 1.1403274536132812
0.16415375471115112 0.14523199200630188 1.1046618223190308
0.1651204526424408 -0.08353951573371887 1.2753719091415405
0.15805920958518982 -0.13136915862560272 1.2658381462097168
0.15515652298927307 -0.1660328358411789 0.8720865845680237
0.1675535887479782 -0.15524733066558838 1.2698214054107666
0.2351018488407135 -0.13683880865573883 1.172654151916504
0.21593615412712097 -0.05832319334149361 1.1915311813354492
0.24154016375541687 -0.09917864203453064 1.1559503078460693
0.3137547969818115 -0.13818567991256714 1.209376573562622
0.3602442145347595 -0.046725355088710785 1.1134006977081299
0.3557382822036743 -0.12862645089626312 1.1327009201049805
-0.16529935598373413 -0.2526765763759613 1.102988839149475
-0.15640157461166382 -0.19372627139091492 1.1721559762954712
-0.16641612350940704 -0.18867646157741547 1.1958239078521729
-0.15389199554920197 -0.23773804306983948 1.110571265220642
-0.15333062410354614 0.02664758451282978 1.4824576377868652
-0.15589016675949097 0.014754090458154678 1.4642608165740967
-0.16186393797397614 0.040048882365226746 1.4168262481689453
-0.16946378350257874 -0.0785805955529213 1.7272976636886597
-0.16446661949157715 -0.1209488958120346 1.6417289972305298
-0.2224033623933792 -0.10082828253507614 0.35823217034339905
-0.13502177596092224 -0.06168408691883087 0.8411831855773926
-0.13458432257175446 -0.09107451140880585 0.8301829099655151
-0.17371757328510284 0.1758776605129242 0.9637174010276794
-0.09350545704364777 -0.1650659143924713 1.2305123805999756
-0.12237559258937836 -0.030375460162758827 0.8079092502593994
-0.11697226762771606 -0.08749934285879135 1.783409595489502
-0.08564648032188416 -0.1308632344007492 1.1237386465072632
-0.04830103740096092 -0.19007280468940735 1.1146732568740845
-0.09399290382862091 0.14703838527202606 1.077914834022522
-0.005183101166039705 0.14510813355445862 1.0737731456756592
-0.07342275977134705 -0.030302295461297035 1.1594672203063965
-0.056286200881004333 -0.1092141717672348 0.8435534238815308
-0.039895083755254745 -0.19468416273593903 1.0586750507354736
-0.05775008350610733 0.019019532948732376 1.0580068826675415
-0.036353036761283875 -0.18887323141098022 1.7589173316955566
0.02634197659790516 -0.13442812860012054 0.7633941173553467
-0.06472954899072647 0.07252386212348938 1.2868223190307617
0.15449118614196777 -0.04499248415231705 0.16581115126609802
0.09968552738428116 0.22570466995239258 1.020287036895752
0.0728408545255661 0.15455637872219086 1.092388391494751
0.035697463899850845 0.23599612712860107 1.036002278327942
0.09528012573719025 0.09286019206047058 0.8363001346588135
0.2100261151790619 -0.014319241046905518 0.23409125208854675
0.11798213422298431 -0.03997112810611725 0.8265241384506226
0.17278365790843964 -0.18015307188034058 0.43880680203437805
0.11041402816772461 -0.16147461533546448 1.393557071685791
0.12439648807048798 -0.15629278123378754 1.3041058778762817
0.19822584092617035 0.0018008379265666008 0.8344786763191223
0.19790631532669067 -0.031934212893247604 0.9052869081497192
0.3685271441936493 -0.08743192255496979 1.1133772134780884
-0.31884104013442993 -0.14086440205574036 1.1268305778503418
-0.19431500136852264 -0.08034392446279526 0.9172194004058838
-0.2173239290714264 -0.06797518581151962 0.8618345260620117
-0.15980829298496246 0.024039022624492645 1.4120285511016846
-0.16595381498336792 0.07786373049020767 1.2445430755615234
-0.1532311886548996 -0.07273481041193008 1.5466628074645996
-0.1379166841506958 -0.05705685913562775 1.0432885885238647
-0.13797779381275177 -0.08836598694324493 1.0836142301559448
-0.15545275807380676 -0.06959652900695801 1.5453656911849976
-0.14877484738826752 -0.08880005776882172 1.5338690280914307
-0.15600694715976715 -0.07711102068424225 1.542887568473816
-0.15408648550510406 -0.08412148058414459 1.5440475940704346
-0.15596182644367218 -0.09817665070295334 1.533742904663086
-0.221883624792099 -0.06830518692731857 0.19158293306827545
-0.15842942893505096 -0.1578548550605774 1.7055450677871704
-0.03611861914396286 -0.03661985322833061 1.2172362804412842
-0.17641371488571167 0.015434803441166878 0.09191884100437164
-0.05139786750078201 -0.05592591315507889 1.2562692165374756
-0.00852841604501009 -0.03282071650028229 1.1699070930480957
-0.04457993805408478 0.09548613429069519 0.9200088977813721
-0.04747716337442398 -0.09063500165939331 1.8011187314987183
-0.0565679632127285 -0.12257759273052216 0.694635272026062
-0.0346505343914032 0.08318772166967392 1.249516248703003
0.01918293721973896 -0.19402742385864258 1.004088282585144
-0.025291776284575462 -0.2143574059009552 1.2014228105545044
0.007320019416511059 0.12865693867206573 1.1196415424346924
0.14145657420158386 -0.09924572706222534 0.28957363963127136
0.07518723607063293 -0.16933423280715942 0.9848783016204834
0.11890889704227448 -0.15772294998168945 0.9617152810096741
0.06611926108598709 -0.00998314842581749 1.5519177913665771
0.07584844529628754 -0.17352697253227234 1.160128116607666
0.03911260515451431 -0.0364675372838974 1.1683698892593384
0.09588132798671722 -0.01841827854514122 1.077284812927246
0.07776516675949097 0.0680084154009819 0.9441189169883728
0.22967639565467834 -0.04681030660867691 0.1251249462366104
0.20227472484111786 -0.03577226400375366 0.12921053171157837
0.2517072558403015 -0.04120329022407532 0.1479652374982834
0.2223396599292755 -0.18243494629859924 0.2959774434566498
0.09695172309875488 -0.14040963351726532 1.4788835048675537
0.09789589047431946 -0.1420728862285614 1.4812512397766113
0.0963635966181755 -0.11807173490524292 1.3221029043197632
0.12001441419124603 -0.14330758154392242 1.296679973602295
0.17301319539546967 0.18345105648040771 1.0272774696350098
0.16992881894111633 0.1669759452342987 0.9787761569023132
0.17808736860752106 0.1705801784992218 0.9751212000846863
0.36554718017578125 -0.033754900097846985 1.1251074075698853
0.3927701711654663 -0.09723679721355438 1.0881479978561401
0.4185173213481903 -0.11563200503587723 1.0744215250015259
-0.31883999705314636 -0.0562647208571434 1.0689876079559326
-0.1711491346359253 -0.22161102294921875 1.1529858112335205
-0.18865838646888733 -0.11510832607746124 0.3810546100139618
-0.12709292769432068 0.1650373488664627 0.9361360669136047
-0.09373549371957779 -0.1468028873205185 1.078600287437439
-0.03838587924838066 -0.037405431270599365 0.8356993794441223
-0.06036677956581116 -0.03355610370635986 0.7919938564300537
-0.0522378534078598 -0.08568127453327179 0.804953932762146
-0.008925380185246468 0.014430485665798187 1.1041431427001953
0.02982434257864952 -0.20541635155677795 0.8383317589759827
0.09597263485193253 0.021526038646697998 0.8414754867553711
0.09166254848241806 0.15594080090522766 1.055700421333313
0.09346683323383331 -0.05329137668013573 1.5788404941558838
0.09954628348350525 -0.028875770047307014 1.551865816116333
0.18336635828018188 -0.09637337177991867 0.9167449474334717
-0.17853236198425293 -0.22689393162727356 1.1184900999069214
-0.16270025074481964 -0.015991926193237305 1.5736545324325562
-0.09438984096050262 0.17434804141521454 0.9841815233230591
-0.1467430293560028 0.011490777134895325 1.6050796508789062
-0.11424116045236588 -0.021047545596957207 1.5943585634231567
-0.07538192719221115 -0.031544364988803864 1.574605107307434
0.04484865441918373 -0.1933993697166443 1.0595018863677979
0.06485779583454132 -0.1738920360803604 1.242918848991394
0.16744105517864227 -0.1433984935283661 0.22216807305812836
0.10321566462516785 -0.14411398768424988 1.2126781940460205
0.1137276440858841 -0.11773638427257538 1.162678837776184
0.12199857831001282 0.024098999798297882 1.4483556747436523
0.09862259775400162 0.06141998618841171 1.4495152235031128
0.11513672769069672 -0.07423409819602966 1.178020715713501
0.11910790950059891 -0.08274423331022263 0.825579047203064
0.09657124429941177 -0.2107175886631012 1.2103841304779053
0.1344030648469925 0.07919598370790482 1.3395452499389648
-0.15185333788394928 0.06653597950935364 1.337842583656311
-0.1765865981578827 -0.05152318626642227 0.4090243875980377
0.043795567005872726 -0.1557406187057495 0.7277970910072327
0.02360827848315239 -0.18951193988323212 1.7394483089447021
-0.18180058896541595 0.16207706928253174 1.037895679473877
-0.15969786047935486 -0.15312936902046204 1.2554795742034912
-0.13460180163383484 -0.09874843060970306 0.42379000782966614
-0.0068216025829315186 0.09119194746017456 1.4713054895401
0.18163573741912842 -0.047215066850185394 0.1279069483280182
0.09265492856502533 -0.11822842061519623 1.537344217300415
0.09192091226577759 -0.11741235107183456 1.537207007408142
0.0976472869515419 -0.1333201825618744 1.4340635538101196
0.2174021303653717 -0.15819688141345978 0.2749573886394501
0.23045237362384796 -0.12088921666145325 0.28702405095100403
0.2194843292236328 -0.15722623467445374 1.2183409929275513
-0.17229315638542175 -0.1556616872549057 0.929040253162384
-0.1567142903804779 0.0460992306470871 1.3716492652893066
-0.15319682657718658 0.04341142624616623 1.3752363920211792
-0.1600206345319748 0.03997131809592247 1.3748128414154053
-0.16125957667827606 -0.04657379910349846 0.24075914919376373
-0.03692648559808731 -0.09092515707015991 0.8382136821746826
0.1414448767900467 -0.11263944953680038 0.23509514331817627
0.27225372195243835 -0.15428069233894348 1.1821980476379395
0.08254633098840714 -0.13735179603099823 1.686014175415039
0.13652043044567108 -0.12754100561141968 0.7949033975601196
0.13876351714134216 0.030943337827920914 1.3986161947250366
0.13584288954734802 0.055864568799734116 1.3579360246658325
0.14734801650047302 -0.02227359637618065 0.20288649201393127
0.4201493561267853 -0.5046875476837158 0.9498326182365417
0.4121127128601074 -0.46376174688339233 0.9375756978988647
0.41579470038414 -0.47662317752838135 0.934613823890686
0.4045637547969818 -0.4750581681728363 0.9425058364868164
0.41417068243026733 -0.5013214349746704 0.9369134306907654
0.41506335139274597 -0.4953382611274719 0.9559687376022339
0.41097959876060486 -0.3226974606513977 0.993881344795227
0.397012323141098 -0.33081281185150146 0.985770583152771
0.4127873480319977 -0.3554461598396301 0.9850343465805054
0.4110526144504547 -0.36635369062423706 0.985245406627655
0.3952018916606903 -0.13177834451198578 0.9930015206336975
0.38970229029655457 -0.15061964094638824 1.0053116083145142
0.4009420871734619 -0.1458515226840973 0.9818136096000671
0.40669721364974976 -0.3357272744178772 0.9471810460090637
0.40995198488235474 -0.35540974140167236 0.9549210071563721
0.4188205897808075 -0.3962894082069397 0.9960148334503174
0.41590309143066406 -0.3813629150390625 0.9918256998062134
0.406556099653244 -0.1767725646495819 0.9492136836051941
0.39857396483421326 -0.19525519013404846 0.965916633605957
0.4108232259750366 -0.2515859305858612 1.0221971273422241
0.4061526656150818 -0.2413754165172577 1.0160034894943237
0.42462462186813354 -0.47886016964912415 0.9747835397720337
0.4189300537109375 -0.44717639684677124 0.9360297918319702
0.40827202796936035 -0.13584695756435394 0.9741944670677185
0.4034593999385834 -0.14636807143688202 0.9642872214317322
0.391949862241745 0.04109298437833786 1.142960548400879
0.3943654000759125 0.02838035672903061 1.1346962451934814
0.39674443006515503 0.04821677505970001 1.1218141317367554
0.41938716173171997 -0.423796683549881 0.9814627766609192
0.4218718707561493 -0.45074495673179626 0.9743316173553467
0.4084690809249878 -0.13933241367340088 0.9654383659362793
0.4107479453086853 -0.1353449821472168 0.9583975076675415
0.4262848198413849 -0.51252681016922 0.8920716047286987
0.43200555443763733 -0.5288060903549194 0.8934729099273682
0.40193647146224976 0.06020704656839371 1.142883539199829
0.3985081911087036 0.04204970598220825 1.1497645378112793
0.3967597186565399 0.06021986901760101 1.1343321800231934
0.40052106976509094 0.05511171370744705 1.1220669746398926
0.43184342980384827 -0.5851426124572754 0.9345754384994507
0.43576863408088684 -0.6051733493804932 0.9409630298614502
0.4342893064022064 -0.6005774140357971 0.9184353947639465
0.41084471344947815 -0.2653818428516388 0.9471896886825562
0.4231623411178589 -0.2826192378997803 0.9421897530555725
0.41666287183761597 -0.3018838167190552 0.9230024218559265
0.4252905547618866 -0.29733937978744507 0.9262036681175232
0.40282168984413147 0.03436826169490814 1.1515450477600098
0.3999769687652588 0.06507907062768936 1.1310508251190186
0.4254792332649231 -0.42359182238578796 0.9994311332702637
0.43326252698898315 -0.4206218123435974 1.0035187005996704
0.4228224456310272 -0.4407515525817871 0.9960587620735168
0.4294455945491791 -0.4633699059486389 0.9924153089523315
0.411485880613327 -0.2167288362979889 0.9538385272026062
0.41777533292770386 -0.2333124428987503 0.9427152872085571
0.4113025367259979 -0.23748452961444855 0.9458920359611511
0.40774762630462646 0.057449452579021454 1.13631272315979
0.4054945409297943 0.03377094864845276 1.147860050201416
0.4065752625465393 0.04777746647596359 1.1224865913391113
0.4134998619556427 -0.09712795913219452 0.9377754330635071
0.41248348355293274 -0.10109247267246246 0.929734468460083
0.41250428557395935 -0.1196565330028534 0.947862982749939
0.41747424006462097 -0.11272075027227402 0.939888060092926
0.40790486335754395 -0.10634984076023102 0.9367526769638062
0.429237961769104 -0.32467323541641235 0.9093018174171448
0.42430830001831055 -0.3086793124675751 0.9116437435150146
0.42664194107055664 -0.3081989884376526 0.8961753845214844
0.42314377427101135 -0.31317079067230225 0.896318256855011
0.40876469016075134 0.04067841172218323 1.131123423576355
0.44327250123023987 -0.6158130168914795 0.9415549039840698
0.4453139305114746 -0.604480504989624 0.9267989993095398
0.44631606340408325 -0.6237161159515381 0.9368970394134521
0.44200095534324646 -0.6295385360717773 0.9362154006958008
0.43969833850860596 -0.5943675637245178 0.9124559760093689
0.42792707681655884 -0.13044671714305878 0.9942481517791748
0.4192781150341034 -0.14018595218658447 0.9710847735404968
0.4353729784488678 -0.4909800589084625 0.8936055302619934
0.43718814849853516 -0.5209702253341675 0.8906439542770386
0.4384460747241974 -0.5457444190979004 0.8984227776527405
0.4283619821071625 -0.23564308881759644 1.0250275135040283
0.42560911178588867 -0.25860506296157837 1.0191203355789185
0.43474259972572327 -0.2692086100578308 1.0097546577453613
0.4370373785495758 -0.41474649310112 1.007619023323059
0.4370175302028656 -0.4244237542152405 0.9950807690620422
0.4393840730190277 -0.4809304475784302 0.9817587733268738
0.4267793595790863 -0.3827139437198639 1.0004911422729492
0.4426049292087555 -0.4645872414112091 0.9204108119010925
0.4405934810638428 -0.5012809038162231 0.9079639911651611
0.43358030915260315 -0.23436322808265686 1.02277410030365
0.44270727038383484 -0.3879743218421936 0.9839593172073364
0.44388896226882935 -0.36431944370269775 0.9823700785636902
0.4432630240917206 -0.40433764457702637 0.9788692593574524
0.4482286870479584 -0.5687268972396851 0.9287380576133728
0.44733452796936035 -0.5523130297660828 0.9222384691238403
0.4314218759536743 -0.3595794439315796 0.9331864714622498
0.4414242208003998 -0.3632667064666748 0.94553542137146
0.4358639121055603 -0.38774573802948 0.9446741342544556
0.44399070739746094 -0.3928172290325165 0.9517756104469299
0.4342952072620392 -0.3091476857662201 0.9947530031204224
0.434730589389801 -0.35043737292289734 0.9885727763175964
0.4454505443572998 -0.470121294260025 0.9643659591674805
0.45123735070228577 -0.4961465001106262 0.950670599937439
0.44206973910331726 -0.5055344104766846 0.9544271230697632
0.44741424918174744 -0.45133814215660095 0.9417468905448914
0.4505157470703125 -0.46218329668045044 0.9333112239837646
0.440461128950119 -0.319105863571167 0.9531111717224121
0.44044527411460876 -0.3390916585922241 0.9467243552207947
0.4354380965232849 -0.30198216438293457 0.9417652487754822
0.43947163224220276 -0.32912400364875793 0.9404803514480591
0.4371565282344818 -0.347450315952301 0.942542314529419
0.4400177597999573 -0.2989071309566498 0.9685826301574707
0.44081994891166687 -0.284343957901001 0.9800667762756348
0.43267151713371277 -0.26631173491477966 0.9543044567108154
0.44093501567840576 -0.2800425887107849 0.9680229425430298
0.44834595918655396 -0.4741334319114685 0.93589186668396
0.45453184843063354 -0.498043954372406 0.9358478784561157
0.4456520974636078 -0.486739844083786 0.9318665862083435
0.46179062128067017 -0.4893084764480591 0.9357466697692871
0.43895888328552246 -0.15073204040527344 1.0028653144836426
0.40209344029426575 -0.4505924582481384 0.9636977314949036
0.40134957432746887 -0.46384555101394653 0.9487700462341309
0.4023858606815338 -0.3742080330848694 0.9734007120132446
0.400627076625824 -0.37016546726226807 0.9705921411514282
0.3982442021369934 -0.39288461208343506 0.9718997478485107
0.3997156023979187 -0.3771243095397949 0.9649465084075928
0.40019604563713074 -0.3943438231945038 0.9696524143218994
0.40761417150497437 -0.3331829309463501 0.9660637378692627
0.40627244114875793 -0.34076088666915894 0.9637395143508911
0.4060972332954407 -0.3048275113105774 0.9693580865859985
0.407690167427063 -0.3927384912967682 0.9774359464645386
0.4240206480026245 -0.47105658054351807 0.9144196510314941
0.41277679800987244 -0.49746188521385193 0.9322954416275024
0.41083765029907227 -0.3664705753326416 0.9458795189857483
0.4168345034122467 -0.5236009359359741 0.9345979690551758
0.4254089295864105 -0.5481802225112915 0.925054132938385
0.4213176369667053 -0.5270218849182129 0.9213501811027527
0.4225834310054779 -0.5688326954841614 0.9289222955703735
0.4038456678390503 -0.12856987118721008 1.0167276859283447
0.40977171063423157 -0.20457352697849274 1.0668971538543701
0.406772643327713 -0.20973151922225952 1.0552334785461426
0.41287216544151306 -0.21335014700889587 1.0610500574111938
0.40909162163734436 -0.21313413977622986 0.9585986137390137
0.39368167519569397 0.04379647970199585 1.1077189445495605
0.3996454179286957 0.009926915168762207 1.1437859535217285
0.40259334444999695 0.0021962523460388184 1.1314380168914795
0.394730806350708 0.007393680512905121 1.1228536367416382
0.4222854673862457 -0.3337380588054657 1.0013470649719238
0.4271097779273987 -0.5022283792495728 0.9819579124450684
0.4296160042285919 -0.5667383670806885 0.9068023562431335
0.3982485830783844 -0.024029992520809174 1.0727648735046387
0.4121193587779999 -0.05077468976378441 1.0529708862304688
0.4186215400695801 -0.3084283769130707 1.0151690244674683
0.42002201080322266 -0.31620609760284424 1.0059044361114502
0.4193043112754822 -0.3602082431316376 0.9940606951713562
0.4361826479434967 -0.5758410096168518 0.9067741632461548
0.43942707777023315 -0.6229285001754761 0.946660578250885
0.43665632605552673 -0.633387565612793 0.9450030326843262
0.43784916400909424 -0.6205308437347412 0.9276599884033203
0.4086940288543701 -0.10294557362794876 1.028625249862671
0.41608989238739014 -0.12360350787639618 1.0206935405731201
0.42897364497184753 -0.3602408766746521 0.9929373860359192
0.40466785430908203 -0.12786561250686646 0.9970525503158569
0.43477663397789 -0.5408803224563599 0.8907462358474731
0.4172149896621704 -0.165261372923851 1.1033222675323486
0.41805118322372437 -0.16348126530647278 1.0962507724761963
0.4153830409049988 -0.17072688043117523 1.0820587873458862
0.42114025354385376 -0.18055033683776855 1.0924350023269653
0.42258545756340027 -0.19392335414886475 1.0877652168273926
0.41026756167411804 -0.16708652675151825 1.058124303817749
0.41849806904792786 -0.16706690192222595 1.0639612674713135
0.44206690788269043 -0.6349424123764038 0.9466046094894409
0.4274751543998718 -0.37149930000305176 0.9292831420898438
0.42930108308792114 -0.3901712894439697 0.9309852123260498
0.425434947013855 -0.3931456208229065 0.93121737241745
0.4263397753238678 -0.3492799401283264 0.9225913286209106
0.42602652311325073 -0.18029342591762543 1.088900089263916
0.42771267890930176 -0.19401206076145172 1.0860402584075928
0.4226924180984497 -0.13892292976379395 0.9574676156044006
0.42489174008369446 -0.1684979796409607 1.0917271375656128
0.4247370958328247 -0.1717633306980133 1.0815973281860352
0.43352994322776794 -0.3985009789466858 1.000989556312561
0.42179054021835327 -0.13657455146312714 0.9280466437339783
0.41914018988609314 -0.13039730489253998 0.9215653538703918
0.4176258146762848 -0.1396346092224121 0.9088387489318848
0.42134854197502136 -0.15211862325668335 0.9089730978012085
0.432123064994812 -0.13322779536247253 1.0176304578781128
0.42843958735466003 -0.19700802862644196 1.065178394317627
0.4396475553512573 -0.4220893979072571 0.9801599979400635
0.4385716915130615 -0.44767332077026367 0.9775629043579102
0.4268445670604706 -0.15399760007858276 0.9513410925865173
0.42888903617858887 -0.16539061069488525 0.9458757638931274
0.42375829815864563 -0.15377742052078247 0.9342795014381409
0.44674092531204224 -0.4434138536453247 0.9699771404266357
0.4447494447231293 -0.4210948348045349 0.9686061143875122
0.44526249170303345 -0.4234830439090729 0.9504956603050232
0.44694817066192627 -0.402834415435791 0.9560160636901855
0.4441789984703064 -0.5211845636367798 0.9166116714477539
0.451501727104187 -0.5280088186264038 0.9195141792297363
0.43422794342041016 -0.1597331464290619 0.9692481756210327
0.4378759264945984 -0.17937305569648743 1.0174318552017212
0.4389824867248535 -0.20452383160591125 1.0014967918395996
0.43898916244506836 -0.1885685920715332 1.0000519752502441
0.4372123181819916 -0.2195599228143692 0.9978999495506287
0.43731820583343506 -0.2270003855228424 0.9854431748390198
0.45400261878967285 -0.44159889221191406 0.9513220191001892
0.45529457926750183 -0.4311533272266388 0.9558120369911194
0.45813795924186707 -0.4779885411262512 0.9523377418518066
0.4552328586578369 -0.36004605889320374 0.9727512001991272
0.45388683676719666 -0.3943633437156677 0.9684478044509888
0.44798314571380615 -0.36844199895858765 0.9700953364372253
0.45284387469291687 -0.3778195381164551 0.9645553231239319
0.4548157751560211 -0.3869442939758301 0.9651448130607605
0.44521552324295044 -0.37579572200775146 0.971724271774292
0.454782098531723 -0.3936058282852173 0.9627904891967773
0.4612157642841339 -0.49007517099380493 0.9466226696968079
0.4622216522693634 -0.47918039560317993 0.9410152435302734
0.4022994637489319 -0.47401708364486694 0.9561668634414673
0.4028407037258148 -0.49409782886505127 0.9504919648170471
0.40319761633872986 -0.4627220034599304 0.9414851665496826
0.4078262746334076 -0.48791080713272095 0.9399114847183228
0.39547398686408997 -0.1933283507823944 1.0483479499816895
0.394266813993454 -0.1560087502002716 0.9886789321899414
0.3984323740005493 -0.1706317663192749 0.9793330430984497
0.3923936188220978 -0.15224258601665497 1.0366533994674683
0.41605260968208313 -0.459092915058136 0.9670069217681885
0.4152236878871918 -0.4273911118507385 0.9492231011390686
0.3993419110774994 -0.21889600157737732 0.987666130065918
0.4049312472343445 -0.22214800119400024 0.9714263081550598
0.3976501226425171 -0.20837116241455078 1.035171627998352
0.4049268364906311 -0.22774159908294678 1.0259910821914673
0.41730111837387085 -0.414487361907959 0.952963650226593
0.4190034568309784 -0.474300742149353 0.9659148454666138
0.40990087389945984 -0.2533257007598877 0.970766007900238
0.40454092621803284 -0.2898581624031067 0.9692168235778809
0.4079855680465698 -0.2752121090888977 0.9539318084716797
0.41269156336784363 -0.3924899101257324 0.9513353109359741
0.42895177006721497 -0.5558639168739319 0.9382604956626892
0.4317978322505951 -0.5914573073387146 0.9295958876609802
0.43392714858055115 -0.5853886604309082 0.9154751300811768
0.4083518385887146 -0.19307464361190796 1.0823955535888672
0.4128911793231964 -0.23050495982170105 1.0593693256378174
0.4132574200630188 -0.27027565240859985 1.0173689126968384
0.41634249687194824 -0.29794931411743164 1.0129528045654297
0.41464754939079285 -0.28804028034210205 0.9455995559692383
0.41730648279190063 -0.24580396711826324 1.063963532447815
0.41367682814598083 -0.2168123424053192 1.0362063646316528
0.4182717800140381 -0.23344755172729492 1.0293608903884888
0.4322011172771454 -0.5212292075157166 0.9745640158653259
0.4330498278141022 -0.5457524657249451 0.9519826173782349
0.420437216758728 -0.3993180990219116 0.9332473278045654
0.4059786796569824 -0.0777626484632492 1.0692288875579834
0.40330466628074646 -0.06219197437167168 1.077889323234558
0.4167343080043793 -0.30968910455703735 0.9137758016586304
0.4246346056461334 -0.2873719334602356 1.0147150754928589
0.42769256234169006 -0.310695618391037 1.0215646028518677
0.4359370470046997 -0.5122460722923279 0.9803855419158936
0.43900516629219055 -0.5180320739746094 0.9734869003295898
0.4361198842525482 -0.5327883958816528 0.9639244675636292
0.42000454664230347 -0.17036312818527222 0.9397023320198059
0.42131179571151733 -0.1828875094652176 0.9305241107940674
0.41400429606437683 -0.18539266288280487 0.9306063055992126
0.41154688596725464 -0.1603585183620453 0.9341827034950256
0.4188634753227234 -0.15935488045215607 0.9293177723884583
0.417277455329895 -0.1555052399635315 0.9136536121368408
0.41091251373291016 -0.20273995399475098 0.9477720856666565
0.4136662483215332 -0.15384109318256378 0.909112811088562
0.41657885909080505 -0.1593412607908249 0.8951970338821411
0.4185391962528229 -0.14053700864315033 1.043903112411499
0.4234926104545593 -0.149037703871727 1.041321873664856
0.4143696427345276 -0.12921142578125 1.012912631034851
0.4176522493362427 -0.19922710955142975 1.074265956878662
0.41885891556739807 -0.2094707489013672 1.0633535385131836
0.432083398103714 -0.424052894115448 1.0177432298660278
0.42867323756217957 -0.41570255160331726 1.0200358629226685
0.4282103478908539 -0.4041224718093872 1.010446310043335
0.42376530170440674 -0.15495800971984863 0.9000812768936157
0.41363558173179626 -0.1419757902622223 0.905540943145752
0.4198189973831177 -0.20224638283252716 0.9450498223304749
0.43372759222984314 -0.4469587802886963 0.9181482195854187
0.4320777952671051 -0.4709165692329407 0.9049889445304871
0.4303776025772095 -0.1698513627052307 1.0629987716674805
0.4200807213783264 -0.1261013150215149 1.0507564544677734
0.4406057298183441 -0.4971533715724945 0.9648675322532654
0.4270269274711609 -0.3078792095184326 0.9186053276062012
0.41519877314567566 0.00930718332529068 1.093088984489441
0.4196358621120453 -0.005598284304141998 1.0860382318496704
0.4304035007953644 -0.3153810501098633 0.9231628179550171
0.4292897880077362 -0.1122022494673729 1.042893409729004
0.42820969223976135 -0.13197793066501617 1.0379990339279175
0.4261820912361145 -0.12470673024654388 1.026114821434021
0.4491696357727051 -0.43847888708114624 0.9473247528076172
0.43108072876930237 -0.13781441748142242 0.9841539263725281
0.4354243874549866 -0.295906126499176 0.9495009779930115
0.43756103515625 -0.15013420581817627 1.030814528465271
0.4370828866958618 -0.16869708895683289 1.0235096216201782
0.4348311722278595 -0.17621882259845734 1.050296425819397
0.4350343346595764 -0.18607451021671295 1.0273840427398682
0.43316128849983215 -0.13606679439544678 1.0248867273330688
0.43186429142951965 -0.13237357139587402 1.0061553716659546
0.45898154377937317 -0.4411385655403137 0.9588356614112854
0.3956153094768524 -0.34911710023880005 0.9814739227294922
0.3920258581638336 -0.3456687033176422 0.9751750826835632
0.3988075256347656 -0.36158955097198486 0.981574296951294
0.3949960768222809 -0.3418036997318268 0.970134437084198
0.3949185013771057 -0.36327889561653137 0.9729621410369873
0.4051964581012726 -0.43169674277305603 0.9686803221702576
0.40836647152900696 -0.4421004056930542 0.9705629944801331
0.40504610538482666 -0.36663544178009033 0.9646335244178772
0.4066179692745209 -0.37781551480293274 0.9534680247306824
0.40674710273742676 -0.40845000743865967 0.9616711139678955
0.4076865315437317 -0.4164073169231415 0.9705902338027954
0.39930522441864014 -0.20313800871372223 0.9918094873428345
0.4013316035270691 -0.19557015597820282 1.0654282569885254
0.4042511284351349 -0.17264631390571594 1.059035301208496
0.39840200543403625 -0.11180534958839417 1.0473589897155762
0.39739587903022766 -0.10496566444635391 1.0407052040100098
0.4182533919811249 -0.3542882800102234 0.928557276725769
0.41087862849235535 -0.3047606647014618 0.942349374294281
0.4208425283432007 -0.3200571835041046 0.9059436321258545
0.41060519218444824 -0.3208354711532593 0.9356327056884766
0.40324878692626953 -0.00792328268289566 1.1282610893249512
0.3990914523601532 0.0308462455868721 1.1214011907577515
0.3972362279891968 0.01450192928314209 1.1194188594818115
0.4005449712276459 0.01762227714061737 1.1071445941925049
0.3936063051223755 0.0065159425139427185 1.095526099205017
0.40434470772743225 -0.0570523664355278 1.0494829416275024
0.40706008672714233 -0.07781847566366196 1.041393756866455
0.4087665379047394 -0.16866180300712585 1.0948294401168823
0.4241633117198944 -0.42344245314598083 1.0165438652038574
0.4255617558956146 -0.46587255597114563 0.9880664944648743
