-0.13568751513957977 0.05906032770872116 1.3370003700256348
-0.08929197490215302 0.01775871217250824 1.3442094326019287
-0.07023319602012634 0.03443000093102455 1.346415400505066
-0.07515828311443329 0.04143606871366501 1.3700830936431885
-0.07324811071157455 0.01949113979935646 1.365977168083191
0.04091140627861023 0.015695594251155853 1.3836406469345093
0.05472595617175102 0.0061040110886096954 1.351660966873169
0.049347613006830215 -0.006568089127540588 1.3721392154693604
0.050154995173215866 0.022791340947151184 1.3668100833892822
0.08566439151763916 0.00582963228225708 1.4035913944244385
0.08736851811408997 0.0206759050488472 1.399588942527771
0.11474105715751648 -0.0005664452910423279 1.3438022136688232
0.13183772563934326 -0.003297116607427597 1.421505331993103
0.11876028776168823 -0.005521245300769806 1.3489677906036377
0.11821922659873962 0.005344055593013763 1.4390242099761963
0.12305590510368347 0.017646942287683487 1.3504889011383057
0.12250526249408722 0.021359674632549286 1.4291287660598755
0.13325920701026917 0.02730429545044899 1.4930534362792969
0.1361975222826004 0.024772491306066513 1.5563609600067139
0.1859285682439804 -0.009175015613436699 1.4102070331573486
0.14357277750968933 0.016773909330368042 1.5925610065460205
0.1703885793685913 -0.0042882151901721954 1.4993821382522583
0.15123747289180756 0.03542758524417877 1.5826700925827026
0.15728504955768585 0.0314563624560833 1.6672931909561157
0.1638484001159668 0.04412451758980751 1.6699402332305908
0.1618383228778839 0.04798833280801773 1.7122009992599487
0.1597883105278015 0.03187447786331177 1.7438616752624512
0.16972696781158447 0.026076290756464005 1.7461966276168823
0.189581498503685 0.03045111894607544 1.7741901874542236
0.21607990562915802 0.056652337312698364 1.7603291273117065
0.1935977339744568 0.04870835319161415 1.77730131149292
0.2311684638261795 0.022002562880516052 1.7448914051055908
0.29986295104026794 0.029897600412368774 1.6451618671417236
0.22590449452400208 0.037923671305179596 1.7773826122283936
0.2706407904624939 0.04682055860757828 1.78628408908844
0.2716595530509949 0.029712297022342682 1.7888562679290771
0.3308330774307251 0.01547858864068985 1.7620713710784912
0.3004378080368042 0.013132613152265549 1.7221887111663818
0.3413451910018921 -0.011300988495349884 1.6156344413757324
0.3493661880493164 0.016356008127331734 1.5523715019226074
0.3245968222618103 0.03987623006105423 1.7745579481124878
0.43226683139801025 -0.0018531493842601776 1.7119239568710327
0.3385026454925537 0.029378343373537064 1.778085470199585
0.3837161660194397 0.014940612018108368 1.7655819654464722
0.36343085765838623 0.029819723218679428 1.7252284288406372
0.3888951539993286 0.030857320874929428 1.7653589248657227
0.4283491373062134 0.02004552073776722 1.7198176383972168
0.4295525848865509 0.018707428127527237 1.6924190521240234
0.3839101195335388 0.005122274160385132 1.700708270072937
0.3950648307800293 0.015593715012073517 1.740523338317871
0.4305018186569214 0.00513177365064621 1.6874797344207764
0.4682804346084595 0.021593142300844193 1.644455909729004
0.4684765636920929 0.007160445675253868 1.644798994064331
0.4849469065666199 0.009671453386545181 1.6029653549194336
0.5013433694839478 -0.009466810151934624 1.603052020072937
0.52571702003479 0.012813853099942207 1.6259750127792358
0.5187885761260986 0.0020007099956274033 1.6277788877487183
0.5344421863555908 0.0002772323787212372 1.5791257619857788
0.5108345746994019 0.0018946193158626556 1.6025656461715698
0.5415438413619995 -0.0045275818556547165 1.5355032682418823
0.5462751388549805 -0.018940787762403488 1.5345888137817383
0.589331865310669 -0.009460743516683578 1.5006500482559204
0.5859347581863403 -0.018621237948536873 1.4617425203323364
0.562734842300415 -0.03184293955564499 1.467344045639038
0.5916272401809692 -0.026621732860803604 1.4228702783584595
0.5334480404853821 -0.014745518565177917 1.57589590549469
0.5757070779800415 -0.007520636543631554 1.5561578273773193
0.5784893035888672 -0.025377672165632248 1.5110845565795898
0.5644433498382568 -0.026729002594947815 1.557843565940857
0.6632577776908875 -0.03987904638051987 1.4203228950500488
0.6122952103614807 -0.04568096622824669 1.455564022064209
0.6290302872657776 -0.03961094468832016 1.4251240491867065
0.6231760382652283 -0.034785982221364975 1.4854836463928223
0.6149676442146301 -0.04712584987282753 1.426091194152832
0.63520348072052 -0.040603719651699066 1.3959405422210693
0.6261571049690247 -0.05789445713162422 1.3967852592468262
0.671111524105072 -0.03972886502742767 1.4352028369903564
0.6599074602127075 -0.05481008440256119 1.4231557846069336
0.6592153310775757 -0.050920769572257996 1.4421000480651855
0.6687783002853394 -0.05490664392709732 1.3667882680892944
0.7215315103530884 -0.05874770134687424 1.332680344581604
0.676612138748169 -0.04532020539045334 1.3439373970031738
0.722004771232605 -0.053553782403469086 1.3106095790863037
0.7092426419258118 -0.07204779237508774 1.3096126317977905
0.7699040174484253 -0.08699746429920197 1.111967921257019
0.7481570839881897 -0.1075141653418541 1.1362923383712769
0.7683520913124084 -0.11933445930480957 1.0864251852035522
0.7786993384361267 -0.0984364002943039 1.1156078577041626
0.7263885736465454 -0.1352735161781311 1.098770022392273
0.7839776873588562 -0.1488035023212433 1.0519572496414185
0.7736727595329285 -0.1613267958164215 1.0583999156951904
-0.5123879909515381 0.07105055451393127 0.8431645631790161
-0.4841274917125702 0.0587390661239624 0.8129772543907166
-0.48412445187568665 0.04041974991559982 0.7806247472763062
-0.47955241799354553 0.04175146296620369 0.8209868669509888
-0.44841820001602173 0.04821563884615898 0.7496598362922668
-0.43553632497787476 0.025621503591537476 0.748984694480896
-0.5270058512687683 0.13208727538585663 0.8972331285476685
-0.5121191740036011 0.08278587460517883 0.9496310949325562
-0.496351420879364 0.07724617421627045 0.8924341201782227
-0.48494380712509155 0.07200337201356888 0.8897520303726196
-0.45417094230651855 0.05545160546898842 0.8205559849739075
-0.4376526176929474 0.021278589963912964 0.7983343601226807
-0.44735562801361084 0.010088086128234863 0.7615575790405273
-0.4002654552459717 0.008273456245660782 0.6642851233482361
-0.40830549597740173 -0.006481677293777466 0.6889551877975464
-0.37245339155197144 -0.037417490035295486 0.6592459082603455
-0.4425726532936096 0.031108658760786057 0.8591172099113464
-0.4297949969768524 0.03547478839755058 0.7904089093208313
-0.381223201751709 0.01805201545357704 0.6603081226348877
-0.4221568703651428 0.025218933820724487 0.7803756594657898
-0.42767533659935 0.038118984550237656 0.8081254363059998
-0.42170172929763794 0.00867520272731781 0.7617630958557129
-0.40635794401168823 -0.017590001225471497 0.7679349184036255
-0.4857483506202698 0.10645195096731186 1.0850608348846436
-0.3392490744590759 -0.09690764546394348 0.645535945892334
-0.3060608506202698 -0.1085699200630188 0.564633309841156
-0.5083076357841492 0.08997504413127899 1.200735330581665
-0.5142735242843628 0.09402381628751755 1.1160461902618408
-0.46907296776771545 0.09256331622600555 1.0607388019561768
-0.5339962244033813 0.10154664516448975 1.2196447849273682
-0.5233639478683472 0.14852255582809448 1.1551114320755005
-0.39804598689079285 -0.04628600925207138 0.8523227572441101
-0.5453320741653442 0.16269537806510925 1.358323097229004
-0.4973311424255371 0.13608019053936005 1.2991958856582642
-0.29268789291381836 0.008784819394350052 0.6917726397514343
-0.27225086092948914 0.0018759910017251968 0.6031215190887451
-0.3571864366531372 0.03920574486255646 0.8307415843009949
-0.24656376242637634 -0.019684266299009323 0.5978174209594727
-0.3879733979701996 0.039251599460840225 1.0060980319976807
-0.39529144763946533 0.015818748623132706 0.9430877566337585
-0.356320858001709 0.03621157631278038 0.8996836543083191
-0.3410090208053589 0.039960868656635284 0.9518786668777466
-0.33823904395103455 0.061151713132858276 0.9506945013999939
-0.37386471033096313 0.04363022744655609 1.0316088199615479
-0.48620516061782837 0.10507067292928696 1.4289950132369995
-0.5162549018859863 0.15137633681297302 1.4534789323806763
-0.342818021774292 0.07658600807189941 1.050268530845642
-0.4222560524940491 0.10773779451847076 1.2155007123947144
-0.43528851866722107 0.07989294081926346 1.1990047693252563
-0.45718902349472046 0.10529421269893646 1.5419864654541016
-0.451021283864975 0.10052083432674408 1.4143768548965454
-0.483528733253479 0.13965430855751038 1.517118215560913
-0.3605313003063202 0.07084186375141144 1.1420698165893555
-0.3622213304042816 0.10452133417129517 1.1596012115478516
-0.3494226932525635 0.07356193661689758 1.108400583267212
-0.33804866671562195 0.08023454248905182 1.098374843597412
-0.40051859617233276 0.1247144415974617 1.3523787260055542
-0.36685508489608765 0.11644333600997925 1.2886748313903809
-0.3467975854873657 0.08743098378181458 1.4694311618804932
-0.2572479248046875 0.07900916785001755 1.098661184310913
-0.4086255729198456 0.1280771940946579 1.5576207637786865
-0.2689025402069092 0.06681422889232635 1.4480936527252197
-0.30676963925361633 0.11095230281352997 1.4398038387298584
-0.24893227219581604 0.06592065095901489 1.3762290477752686
-0.2356473058462143 0.09649123251438141 1.3700194358825684
-0.20751723647117615 0.08373039215803146 1.2809960842132568
-0.17712551355361938 0.06574545800685883 1.24181067943573
0.22152148187160492 0.017036456614732742 1.2215287685394287
0.197334423661232 -0.005220200400799513 1.2344701290130615
0.23983511328697205 -0.0006305109709501266 1.1866719722747803
0.24205097556114197 0.017171330749988556 1.370361328125
0.21028226613998413 -0.014508230611681938 1.2919371128082275
0.22143954038619995 0.016036860644817352 1.3008699417114258
0.2849852442741394 0.004602929577231407 1.2527458667755127
0.2955225706100464 -0.022826645523309708 1.2503896951675415
0.30782678723335266 -0.00039234478026628494 1.1560665369033813
0.32453787326812744 -0.006900745909661055 1.130341649055481
0.3036292493343353 -0.013067563995718956 1.160117268562317
0.3221825957298279 -0.01757899299263954 1.1398687362670898
0.35438939929008484 -0.0058167739771306515 1.1466996669769287
0.27815231680870056 0.02129650115966797 1.538995623588562
0.2804372012615204 -0.012196879833936691 1.5002105236053467
0.39615994691848755 -0.013951871544122696 1.1279233694076538
0.3752766251564026 -0.03526237979531288 1.1399760246276855
0.34882497787475586 -0.016264447942376137 1.1506234407424927
0.38866090774536133 -0.01945681683719158 1.125293493270874
0.4266241490840912 -0.029659321531653404 1.0911308526992798
0.3175605535507202 -0.019241943955421448 1.406321406364441
0.4433228373527527 -0.019679758697748184 1.2296186685562134
0.39163702726364136 -0.047322340309619904 1.1637567281723022
0.3954795002937317 -0.024369431659579277 1.1787972450256348
0.4103158116340637 -0.0027639828622341156 1.3689719438552856
0.423992782831192 -0.04226602986454964 1.2196177244186401
0.47600963711738586 -0.03165271878242493 1.1437519788742065
0.4577848017215729 -0.018579808995127678 1.1918396949768066
0.46079668402671814 -0.03885706886649132 1.1646140813827515
0.4550606310367584 -0.06541197001934052 1.1914238929748535
0.42183130979537964 -0.010755389928817749 1.4213366508483887
0.4535118043422699 -0.02151085063815117 1.3035539388656616
0.4317709803581238 -0.048932984471321106 1.3237464427947998
0.40312060713768005 -0.03121037222445011 1.5597918033599854
0.49237769842147827 -0.04476885497570038 1.1869254112243652
0.43170326948165894 -0.002351999282836914 1.5328282117843628
0.45346546173095703 -0.01684577204287052 1.475016474723816
0.454120934009552 -0.04126147925853729 1.5267387628555298
0.5821619033813477 -0.10423775017261505 0.9912595748901367
0.49087589979171753 -0.05792112648487091 1.4555692672729492
0.5262107849121094 -0.06022521108388901 1.4167225360870361
0.519375205039978 -0.02961839735507965 1.359828233718872
0.5296425819396973 -0.08149172365665436 1.2669881582260132
0.5416848063468933 -0.04772871360182762 1.2620400190353394
0.5422183275222778 -0.03137454017996788 1.3770315647125244
0.5599085092544556 -0.04443487152457237 1.314435601234436
0.5884345769882202 -0.06957953423261642 1.2488083839416504
0.5723486542701721 -0.03187822178006172 1.404828429222107
0.5815492272377014 -0.05962793529033661 1.3758292198181152
0.6297496557235718 -0.22532999515533447 0.8468181490898132
0.6630886793136597 -0.2424018383026123 0.7055663466453552
0.709700345993042 -0.1875617802143097 0.6903011202812195
0.669942319393158 -0.19596901535987854 0.7273648381233215
0.6452088356018066 -0.13672512769699097 1.054872989654541
0.6509320735931396 -0.1402043253183365 1.01191246509552
0.6348847150802612 -0.06546531617641449 1.2463202476501465
0.739513099193573 -0.13115090131759644 0.731089174747467
0.7162238359451294 -0.12890398502349854 0.8059521913528442
0.7326741218566895 -0.13800570368766785 1.0071051120758057
0.7622888088226318 -0.15681688487529755 0.9102979302406311
0.7118908762931824 -0.15871860086917877 0.9155021905899048
0.74300217628479 -0.18468216061592102 0.9265604019165039
-0.47356894612312317 0.026702862232923508 0.7235496640205383
-0.47309935092926025 0.009823068976402283 0.7373119592666626
-0.5698525905609131 0.14519678056240082 1.0936723947525024
-0.5645754337310791 0.16166427731513977 1.0973362922668457
-0.5422230362892151 0.1378152072429657 1.0500270128250122
-0.4918064475059509 0.09318791329860687 0.9508497714996338
-0.4791853427886963 0.09210988879203796 1.005626916885376
-0.48827511072158813 0.054923996329307556 0.9105879068374634
-0.4483032822608948 0.06772907078266144 0.9227340817451477
-0.49621301889419556 0.07124044746160507 1.058234453201294
-0.5485264658927917 0.12128236889839172 1.2232805490493774
-0.5344690084457397 0.12200184166431427 1.1860910654067993
-0.32003235816955566 0.018168162554502487 0.7343810796737671
-0.3659023940563202 0.02788762003183365 0.6796649694442749
-0.30898380279541016 0.005008082836866379 0.613917350769043
-0.5144433975219727 0.13830885291099548 1.225193738937378
-0.558009922504425 0.1301935315132141 1.2711098194122314
-0.38637587428092957 -0.016607381403446198 0.8135464191436768
-0.37246909737586975 -0.03347385674715042 0.7931737899780273
-0.31985947489738464 -0.060096755623817444 0.635613203048706
-0.2983822822570801 -0.08329383283853531 0.585209310054779
-0.3969005346298218 0.06141721084713936 0.9267669916152954
-0.5786082148551941 0.14979378879070282 1.3765071630477905
-0.416110098361969 0.06637696176767349 0.9707989692687988
-0.3749730587005615 0.05952690169215202 0.9021628499031067
-0.43912267684936523 0.03841021656990051 1.0026724338531494
-0.433809369802475 0.02774052321910858 0.9811820983886719
-0.38642656803131104 0.0680147185921669 0.9874992966651917
-0.4541531801223755 0.06345616281032562 1.0930638313293457
-0.34997642040252686 0.03318751975893974 0.8566794991493225
-0.32096195220947266 0.014499068260192871 0.795166015625
-0.4756075143814087 0.11581061780452728 1.1619192361831665
-0.42404627799987793 0.09049192070960999 1.106278896331787
-0.42183494567871094 0.05933649092912674 1.074679970741272
-0.5292961597442627 0.1326858550310135 1.440460443496704
-0.502449095249176 0.09024877101182938 1.2493691444396973
-0.41483330726623535 0.06973633170127869 1.1563177108764648
-0.5132263898849487 0.11709511280059814 1.5071170330047607
-0.44773465394973755 0.13267460465431213 1.4012874364852905
-0.45780637860298157 0.090314120054245 1.286428451538086
-0.35203081369400024 0.0825817883014679 1.0934956073760986
-0.376171350479126 0.05841035395860672 1.1070297956466675
-0.43438759446144104 0.12588077783584595 1.2886241674423218
-0.4001739025115967 0.11154752969741821 1.2241780757904053
-0.3905380070209503 0.12830351293087006 1.4704687595367432
-0.3786212205886841 0.08631422370672226 1.2887451648712158
-0.32753682136535645 0.06899797916412354 1.2061742544174194
-0.30985069274902344 0.09305686503648758 1.2024478912353516
-0.2995298206806183 0.08163302391767502 1.1384880542755127
-0.2883055806159973 0.0659136027097702 1.2432109117507935
-0.2705308496952057 0.0905657708644867 1.1442019939422607
-0.36315298080444336 0.12374727427959442 1.3819825649261475
-0.3182826638221741 0.0843363106250763 1.3475992679595947
-0.22625936567783356 0.07436200231313705 1.1386168003082275
-0.20590399205684662 0.07233156263828278 1.165000081062317
-0.22811010479927063 0.08875619620084763 1.4456064701080322
-0.2221720814704895 0.05562538281083107 1.28541898727417
0.2721816897392273 -0.018934164196252823 1.170982837677002
0.18581661581993103 0.019567780196666718 1.4546899795532227
0.33010798692703247 0.006358955055475235 1.2148118019104004
0.32539016008377075 -0.020332351326942444 1.2089731693267822
0.33002883195877075 0.0019364282488822937 1.1436659097671509
0.3584948182106018 0.0005861278623342514 1.3324966430664062
0.3697953522205353 -0.03732835501432419 1.254809021949768
0.43519991636276245 -0.022594384849071503 1.0973299741744995
0.38428130745887756 0.00457397848367691 1.4912433624267578
0.44909289479255676 -0.058751896023750305 1.2210142612457275
0.4851767420768738 -0.027081198990345 1.4377391338348389
0.6019546985626221 -0.11326607316732407 0.900905191898346
0.6236815452575684 -0.11141114681959152 0.8832311630249023
0.6372233629226685 -0.1251651495695114 0.7692145705223083
0.6484516263008118 -0.13038185238838196 0.6887140274047852
0.6368756294250488 -0.14699290692806244 0.7041270136833191
0.5811415910720825 -0.06971211731433868 1.1830434799194336
0.6542012691497803 -0.1115703284740448 0.7695470452308655
0.6641284227371216 -0.11987122148275375 0.6956490278244019
0.5933858156204224 -0.16290949285030365 0.9643821716308594
0.5847585201263428 -0.17163246870040894 1.0111489295959473
0.576057493686676 -0.1900835484266281 0.9840008020401001
0.6081497669219971 -0.17624977231025696 0.9121671915054321
0.6813438534736633 -0.11409521847963333 0.7972593903541565
0.6928407549858093 -0.1272357702255249 0.7122769355773926
0.6486966013908386 -0.11983422935009003 0.9722269177436829
0.6116187572479248 -0.16532236337661743 0.9569572806358337
0.6447709202766418 -0.18474669754505157 0.901221513748169
0.6076657176017761 -0.18516522645950317 0.96686190366745
0.6280191540718079 -0.21544383466243744 0.8957849740982056
0.6112217307090759 -0.1485499143600464 1.0318713188171387
0.6578589677810669 -0.16247616708278656 0.9790397882461548
0.68607097864151 -0.1999790072441101 0.7407036423683167
0.6746149659156799 -0.23233051598072052 0.679196298122406
0.7177199125289917 -0.16064630448818207 0.6826119422912598
0.6540464162826538 -0.11133384704589844 1.0520265102386475
0.6847621202468872 -0.1424788534641266 0.8356260061264038
0.6695842146873474 -0.2174973040819168 0.8100725412368774
0.6894533038139343 -0.20631901919841766 0.7988003492355347
0.7203491926193237 -0.1972733587026596 0.7136363983154297
0.7145287394523621 -0.13404302299022675 0.9851587414741516
0.7355911135673523 -0.1312151700258255 0.9559945464134216
0.7503164410591125 -0.17832861840724945 0.7786997556686401
0.7410607933998108 -0.18030719459056854 0.7988314032554626
0.6455342173576355 -0.0930633693933487 1.15560781955719
0.7400858402252197 -0.08848801255226135 1.106374740600586
0.7018413543701172 -0.10723625123500824 1.105219841003418
0.6804588437080383 -0.06711183488368988 1.3000115156173706
0.6826585531234741 -0.07552744448184967 1.252759337425232
0.6805205941200256 -0.07133479416370392 1.2484749555587769
0.6827703714370728 -0.09165553748607635 1.2316877841949463
0.7205806970596313 -0.08776839822530746 1.1661851406097412
0.7097607851028442 -0.09632677584886551 1.1877589225769043
-0.5200668573379517 0.09992189705371857 0.8934584856033325
-0.5218453407287598 0.0773468092083931 0.9086312651634216
-0.5128457546234131 0.05503203719854355 0.8790716528892517
-0.31938737630844116 -0.04023328423500061 0.603454053401947
-0.31842443346977234 -0.08605238795280457 0.565910816192627
-0.37331634759902954 -0.02649489976465702 0.7931281924247742
-0.3794075548648834 -0.03995905816555023 0.7383610010147095
-0.38712847232818604 -0.06791971623897552 0.7781147956848145
-0.36854392290115356 -0.07093837857246399 0.6673656702041626
-0.3338682949542999 -0.051167525351047516 0.6803115010261536
-0.32298603653907776 -0.08630885183811188 0.6462778449058533
-0.42052504420280457 0.007712922990322113 0.9298285245895386
-0.3999485969543457 -0.024224452674388885 0.8857881426811218
-0.41354134678840637 -0.003567226231098175 0.8850789070129395
-0.34871894121170044 -0.07495571672916412 0.7175955772399902
-0.34114980697631836 -0.048665933310985565 0.7171592712402344
-0.3777197003364563 -0.05299776792526245 0.814491868019104
-0.36155593395233154 -0.036395154893398285 0.7649455070495605
-0.4455435276031494 0.09511461853981018 1.0705558061599731
-0.3531133234500885 0.054666537791490555 0.920527994632721
-0.3235347270965576 0.0413198247551918 0.9600155353546143
-0.31692802906036377 0.06283562630414963 0.9586758017539978
-0.40326398611068726 0.05353332683444023 1.1068077087402344
-0.3432152271270752 0.06185537204146385 1.0481758117675781
-0.3236117362976074 0.06712248921394348 0.9927222728729248
-0.3199090361595154 0.04730962589383125 0.9835062623023987
-0.36472567915916443 0.0865829661488533 1.3491705656051636
-0.31218692660331726 0.0837695449590683 1.0793099403381348
-0.2997058033943176 0.05403587222099304 1.124565839767456
-0.27995848655700684 0.08392326533794403 1.081859827041626
-0.22968901693820953 0.06082465499639511 1.130165934562683
-0.24535149335861206 0.07746552675962448 1.0972353219985962
-0.19511550664901733 0.06346230208873749 1.1935315132141113
0.5028143525123596 -0.04509487748146057 1.0981560945510864
0.4503314793109894 -0.01905413530766964 1.6071242094039917
0.5780512690544128 -0.07706195116043091 1.0668587684631348
0.5295842885971069 -0.04845626652240753 1.0425834655761719
0.5471186637878418 -0.08856311440467834 1.0415014028549194
0.5607408285140991 -0.07110501825809479 1.032545804977417
0.5247301459312439 -0.0485968291759491 1.244044303894043
0.5581865906715393 -0.12306968122720718 1.071390151977539
0.5782585740089417 -0.13796277344226837 1.0159339904785156
0.5621596574783325 -0.158915713429451 1.0383085012435913
0.5672998428344727 -0.16231171786785126 1.0071500539779663
0.5889935493469238 -0.15161210298538208 0.9518848061561584
0.6401363015174866 -0.16766344010829926 0.7466456294059753
0.6555349826812744 -0.17094728350639343 0.694682776927948
0.6822476983070374 -0.16167570650577545 0.6847623586654663
0.6070651412010193 -0.1078331395983696 1.0485920906066895
0.6229880452156067 -0.11140643060207367 1.0088589191436768
0.607122004032135 -0.1693156510591507 0.9877342581748962
0.6041300892829895 -0.17389583587646484 0.9459871649742126
0.5936204195022583 -0.2067958265542984 0.916731059551239
0.5465408563613892 -0.0748978778719902 1.3610272407531738
0.6738049387931824 -0.13631883263587952 0.9810800552368164
0.7040103673934937 -0.14620943367481232 0.9358844757080078
0.6539524793624878 -0.1288275420665741 1.110853672027588
0.7455815076828003 -0.2118416130542755 0.7626309394836426
0.7466683387756348 -0.1710166484117508 0.7245842218399048
0.699373722076416 -0.1588473916053772 0.9671614170074463
0.7068569660186768 -0.17581145465373993 0.915036678314209
0.7685675621032715 -0.12051291018724442 1.1000663042068481
0.7267951965332031 -0.15581296384334564 1.0619115829467773
0.7490182518959045 -0.13517619669437408 1.053560495376587
0.772686243057251 -0.17494873702526093 0.921550452709198
0.7679632306098938 -0.15083304047584534 0.9268094897270203
-0.5509182214736938 0.13015848398208618 1.0548373460769653
-0.3398553133010864 -0.028828470036387444 0.5450690984725952
-0.4333536624908447 0.006308041512966156 0.8681905269622803
-0.41482019424438477 -0.016498800367116928 0.8405803442001343
-0.4534286856651306 0.03820847347378731 0.9102135896682739
-0.5402250289916992 0.1306460201740265 1.367197036743164
-0.43203169107437134 0.07330650836229324 0.9431153535842896
-0.4172621965408325 0.05122603848576546 0.9125330448150635
-0.28303515911102295 -0.04401175305247307 0.583259105682373
-0.26469844579696655 -0.016482863575220108 0.5822737812995911
-0.3850529193878174 -0.001930147409439087 0.8857308626174927
-0.37416887283325195 -0.024426352232694626 0.8365244269371033
-0.3816620111465454 -0.0203876793384552 0.8798364996910095
-0.5207613110542297 0.10931821167469025 1.3209245204925537
-0.4784029722213745 0.12174581736326218 1.2112685441970825
-0.24888381361961365 0.09226460754871368 1.20341956615448
0.16780740022659302 0.012819984927773476 1.257840871810913
0.15530338883399963 -0.00359417125582695 1.2669411897659302
0.27418145537376404 -0.022498629987239838 1.215103268623352
0.28040334582328796 -0.005987930111587048 1.1389014720916748
0.34831979870796204 -0.005842149257659912 1.2632784843444824
0.4214494824409485 -0.02847852185368538 1.145764708518982
0.41605883836746216 -0.04385186731815338 1.1299104690551758
0.47295278310775757 -0.05633071810007095 1.2922961711883545
0.48940783739089966 -0.06851653754711151 1.375414252281189
0.5243058800697327 -0.08090650290250778 1.1891955137252808
0.5904874205589294 -0.19488196074962616 0.9186029434204102
0.6235875487327576 -0.18229268491268158 0.8688657283782959
0.6209635138511658 -0.21847037971019745 0.8275927305221558
0.6395713090896606 -0.19510233402252197 0.7704761028289795
0.6112136840820312 -0.12442275136709213 1.1138291358947754
0.6828404664993286 -0.2393275499343872 0.70323246717453
-0.505268931388855 0.06354938447475433 0.9008885622024536
-0.3085695505142212 -0.005887921899557114 0.7385541200637817
-0.2873675227165222 -0.016948368400335312 0.6813275814056396
-0.5476490259170532 0.13654381036758423 1.4752745628356934
-0.30425816774368286 0.07528521120548248 1.0664417743682861
-0.2903709411621094 0.07339487969875336 1.0357648134231567
-0.2758631408214569 0.06377926468849182 1.0707526206970215
-0.22579529881477356 0.07247868925333023 1.1077044010162354
-0.15885666012763977 0.05185753107070923 1.2654533386230469
-0.16793125867843628 0.03490987420082092 1.2686563730239868
0.4024627208709717 -0.03719446063041687 1.422289490699768
0.42565950751304626 -0.043518636375665665 1.4776556491851807
0.6055705547332764 -0.09474922716617584 1.078049659729004
0.6045469641685486 -0.09200064837932587 1.0005087852478027
0.5535722970962524 -0.10231143236160278 1.1880333423614502
0.6043735146522522 -0.15712477266788483 0.892675518989563
0.623210608959198 -0.11312688887119293 1.16066575050354
0.6066457629203796 -0.09408687800168991 1.2466591596603394
0.7015401124954224 -0.1329393833875656 1.083524227142334
0.7022825479507446 -0.14937391877174377 1.0184779167175293
0.7268857955932617 -0.19166438281536102 0.8519555330276489
0.6887165904045105 -0.211441770195961 0.7615665793418884
0.7454811930656433 -0.17310890555381775 0.8422830104827881
-0.3357279896736145 -0.04999697208404541 0.5748422145843506
-0.2916882038116455 -0.02458137646317482 0.5696865320205688
-0.37948888540267944 -0.03328000009059906 0.787775456905365
-0.32804083824157715 -0.05254371091723442 0.6348622441291809
-0.28584617376327515 -0.051455989480018616 0.6267410516738892
-0.37224632501602173 0.03429824486374855 0.9435103535652161
-0.2698501646518707 0.06535471975803375 1.2153834104537964
-0.2601322829723358 0.0632871687412262 1.1583136320114136
-0.2617776393890381 0.07637661695480347 1.1322200298309326
-0.23093438148498535 0.055029332637786865 1.2080843448638916
-0.2103215754032135 0.04390241205692291 1.1411652565002441
-0.20573857426643372 0.057993099093437195 1.1288312673568726
0.28488215804100037 0.0074157314375042915 1.1449657678604126
0.537477433681488 -0.10092902928590775 1.110693097114563
0.5725591778755188 -0.1303209811449051 1.113627314567566
0.5861615538597107 -0.14483630657196045 1.0683619976043701
0.6954823136329651 -0.18840530514717102 0.899409830570221
-0.3949161171913147 -0.007690049707889557 0.6407793760299683
-0.38751256465911865 -0.03764086961746216 0.6110726594924927
-0.3816136121749878 -0.02510908804833889 0.6071018576622009
-0.40655598044395447 0.04606710001826286 0.83236163854599
-0.35823380947113037 -0.016358688473701477 0.8046277165412903
-0.3672577738761902 -0.0164421908557415 0.8562279939651489
-0.19194594025611877 0.04959987848997116 1.2283260822296143
-0.15089432895183563 0.039545878767967224 1.3408241271972656
-0.13761623203754425 0.046033285558223724 1.3300052881240845
0.15629059076309204 -0.01284971833229065 1.2801320552825928
0.21173518896102905 0.01636379212141037 1.6772534847259521
0.38575512170791626 0.014377593994140625 1.6240787506103516
0.40974950790405273 -0.0040474943816661835 1.643969178199768
0.4675421714782715 -0.018400972709059715 1.5755890607833862
0.6356279850006104 -0.06091674044728279 1.3232996463775635
0.6618659496307373 -0.06472436338663101 1.3605890274047852
0.6637148261070251 -0.04680262506008148 1.29556405544281
0.6690284609794617 -0.07217486947774887 1.2815721035003662
0.6923072338104248 -0.05644461140036583 1.2958933115005493
-0.5469474196434021 0.11628274619579315 0.9897779822349548
-0.5361039638519287 0.1268741339445114 0.9672884345054626
-0.5866259932518005 0.16458342969417572 1.2321934700012207
-0.5639463067054749 0.16356036067008972 1.222480297088623
-0.3324679136276245 0.005510542541742325 0.5910773277282715
-0.31687039136886597 -0.009732449427247047 0.5469746589660645
-0.3578817844390869 -0.04920339211821556 0.6737282276153564
-0.38265568017959595 0.03372796252369881 0.782545804977417
-0.43670541048049927 0.08516664803028107 0.994702935218811
-0.53581702709198 0.1383105218410492 1.5259047746658325
0.2788684070110321 0.0056671034544706345 1.2097158432006836
0.29753682017326355 0.014849647879600525 1.4441100358963013
0.4441578984260559 -0.034414734691381454 1.1647255420684814
0.420247882604599 -0.008609512820839882 1.2906954288482666
0.49159932136535645 -0.05397392436861992 1.0992166996002197
0.5128661394119263 -0.06576648354530334 1.0504802465438843
0.49607983231544495 -0.08490999788045883 1.133390188217163
0.6159461736679077 -0.12941642105579376 0.8485424518585205
0.6258311867713928 -0.14956848323345184 0.8361098766326904
0.6303262710571289 -0.19219465553760529 0.9101102948188782
0.6838635206222534 -0.11580315977334976 1.0805188417434692
0.7281990051269531 -0.13755397498607635 0.8582577705383301
-0.3551417589187622 -0.03483481705188751 0.5805003643035889
-0.31108230352401733 -0.03585854172706604 0.5397149920463562
-0.2806411385536194 0.0837225466966629 1.0382837057113647
-0.2368900030851364 0.08517804741859436 1.12767493724823
-0.2043628692626953 0.05353002995252609 1.181201457977295
0.6973724365234375 -0.13681480288505554 0.8910489082336426
0.735197901725769 -0.18481698632240295 0.6565951108932495
0.7444666028022766 -0.18812522292137146 0.673197865486145
-0.39982306957244873 -0.02168630249798298 0.8229403495788574
-0.3294844925403595 -0.011518489569425583 0.7555789947509766
-0.318061888217926 -0.03433753922581673 0.7104982137680054
0.5085686445236206 -0.03693609684705734 1.495774269104004
0.7500050663948059 -0.16631197929382324 0.6646724939346313
0.7441126704216003 -0.15984228253364563 0.9831175804138184
-0.2650085389614105 0.09632884711027145 1.2797598838806152
0.7142066359519958 -0.12588991224765778 1.0751335620880127
-0.3394043445587158 0.01030677929520607 0.8286354541778564
0.6504888534545898 -0.22192496061325073 0.7174357175827026
0.7061429619789124 -0.13115304708480835 1.0592008829116821
-0.3963097333908081 -0.043839842081069946 0.7852513790130615
-0.3679620623588562 -0.14293284714221954 0.9636003375053406
-0.3720472753047943 -0.13904321193695068 0.9762267470359802
-0.3570272922515869 -0.16167448461055756 0.9741088151931763
-0.362668514251709 -0.16079652309417725 0.9856622219085693
-0.3430609405040741 -0.11117792874574661 1.034052848815918
-0.34743696451187134 -0.12689447402954102 1.013063669204712
-0.33808669447898865 -0.11037816107273102 0.9847100973129272
-0.3357577621936798 -0.08638700097799301 1.0189247131347656
-0.3357295095920563 -0.1415662318468094 1.0224002599716187
-0.3392352759838104 -0.1726396232843399 1.0111862421035767
-0.32289963960647583 -0.07423057407140732 1.0993441343307495
-0.3172489404678345 -0.1691674292087555 1.0128508806228638
-0.3327864408493042 -0.1331004798412323 1.009916067123413
-0.31645098328590393 -0.15158061683177948 1.0533478260040283
-0.31851857900619507 -0.125407412648201 1.0411958694458008
-0.31180498003959656 -0.06022682785987854 1.0689257383346558
-0.31131768226623535 -0.11581157892942429 1.0425273180007935
-0.3139554560184479 -0.12457133084535599 1.0657356977462769
-0.32031816244125366 -0.1017087772488594 1.0943583250045776
-0.3369763493537903 -0.05755116790533066 1.1305012702941895
-0.32604801654815674 -0.11094105988740921 1.126794457435608
-0.3015127182006836 -0.008053041063249111 1.1591702699661255
-0.31015676259994507 -0.014104746282100677 1.1129189729690552
-0.32747456431388855 -0.06082087755203247 1.1645365953445435
-0.2747265696525574 -0.013565357774496078 1.1035481691360474
-0.2802938222885132 -0.045991793274879456 1.2198448181152344
-0.2928523123264313 -0.10699324309825897 1.176006555557251
-0.275928795337677 0.005963875912129879 1.1463268995285034
-0.2415749430656433 -0.0013143932446837425 1.1596827507019043
-0.2489425092935562 0.005296826362609863 1.2169111967086792
-0.2242022007703781 0.005676586180925369 1.2182804346084595
-0.2197170853614807 -0.05113498494029045 1.2914049625396729
-0.25667503476142883 -0.08003292232751846 1.2254964113235474
-0.21597175300121307 0.01129421591758728 1.263697624206543
-0.24161940813064575 -0.01915200799703598 1.2710132598876953
-0.2042224407196045 0.008860323578119278 1.302850604057312
-0.18964532017707825 0.004593558609485626 1.3387706279754639
-0.18171702325344086 -0.04461689293384552 1.349015235900879
-0.20751424133777618 -0.08940570056438446 1.248802900314331
-0.19054758548736572 0.057378001511096954 1.7484450340270996
-0.1422007530927658 0.10849009454250336 1.4092457294464111
-0.1323373019695282 0.06652071326971054 0.8745138645172119
-0.17896157503128052 0.01725943014025688 0.8805598020553589
-0.15544751286506653 -0.0753842294216156 0.8863086700439453
-0.1984190195798874 -0.10399188101291656 0.876606822013855
-0.17524559795856476 0.06668120622634888 1.652519941329956
-0.1957630068063736 0.04141201451420784 1.7712254524230957
-0.16517359018325806 0.04991297423839569 1.7187711000442505
-0.1475263237953186 0.07968831062316895 1.666919469833374
-0.15761011838912964 0.062282856553792953 1.6176882982254028
-0.11633765697479248 0.0008009225130081177 1.0467013120651245
-0.15374548733234406 -0.05182774364948273 1.0101383924484253
-0.15960925817489624 -0.12126174569129944 0.9985827803611755
-0.15169456601142883 0.04144402593374252 1.5465734004974365
-0.2770518362522125 -0.07759037613868713 0.06543461233377457
-0.2912929654121399 -0.13918234407901764 0.03177162632346153
-0.29267898201942444 -0.16478291153907776 0.048563361167907715
-0.15113338828086853 -0.029497897252440453 1.3987617492675781
-0.14400136470794678 0.013248097151517868 1.344268798828125
-0.13605131208896637 -0.012578360736370087 1.3257215023040771
-0.15916280448436737 -0.04230470582842827 1.3864233493804932
-0.1416955441236496 -0.08452456444501877 1.3438777923583984
-0.22179695963859558 -0.043147534132003784 0.48504263162612915
-0.2223903238773346 -0.07114540040493011 0.40195104479789734
-0.23314638435840607 -0.02125641517341137 0.3365916311740875
-0.23730945587158203 -0.045213524252176285 0.36851492524147034
-0.1605667918920517 0.05813910439610481 1.6874361038208008
-0.13767372071743011 -0.05400371178984642 1.294713020324707
-0.13955353200435638 -0.06398796290159225 1.251215934753418
-0.14098332822322845 -0.0925053060054779 1.2822511196136475
-0.16618074476718903 -0.10820676386356354 1.28310227394104
-0.22805121541023254 -0.0100899962708354 0.2662053406238556
-0.15119153261184692 -0.02682425081729889 1.5444446802139282
-0.14277581870555878 0.046099934726953506 1.5473737716674805
-0.14841267466545105 0.017518699169158936 1.5413258075714111
-0.1897888034582138 -0.0764421671628952 0.5835579037666321
-0.10903282463550568 0.04273335635662079 1.7843471765518188
-0.1256290078163147 -0.11160983145236969 1.2201831340789795
-0.11652900278568268 -0.03516267612576485 1.1663496494293213
-0.1349496692419052 -0.12717008590698242 0.7566235065460205
-0.11607759445905685 0.09500752389431 1.7282791137695312
-0.12966379523277283 -0.0633523166179657 1.4135971069335938
-0.10506023466587067 -0.11772683262825012 0.8586299419403076
-0.1414978802204132 -0.13131524622440338 0.8807093501091003
-0.12437649071216583 -0.20163783431053162 0.9212517738342285
-0.10808630287647247 -0.21665316820144653 0.8564233779907227
-0.26670530438423157 -0.20111426711082458 0.06993177533149719
-0.07523542642593384 0.11961354315280914 1.7268486022949219
-0.102365642786026 0.05394766479730606 1.7701650857925415
-0.15205425024032593 -0.0037957467138767242 1.452943205833435
-0.13234004378318787 -0.03049144148826599 1.5029041767120361
-0.1940518021583557 0.0036681750789284706 0.3341337740421295
-0.22268497943878174 -0.020433712750673294 0.21813669800758362
-0.25688958168029785 -0.19778627157211304 0.11138064414262772
-0.22822102904319763 -0.013273220509290695 0.07228853553533554
-0.11141838133335114 -0.00989643856883049 1.3282438516616821
-0.17022714018821716 -0.10426326096057892 0.557002067565918
-0.22175376117229462 -0.16022877395153046 0.013353594578802586
-0.2643815875053406 -0.1628073751926422 0.006345442961901426
-0.1057526096701622 0.04136492684483528 1.563868761062622
-0.10574197769165039 0.00959017500281334 1.5205039978027344
-0.031187355518341064 -0.2187243103981018 0.913213312625885
-0.0817004069685936 0.08927345275878906 0.8694126009941101
-0.2227124273777008 -0.12457273155450821 0.27628839015960693
-0.19865015149116516 -0.12140688300132751 0.20000366866588593
-0.2075941413640976 -0.02305738627910614 0.11719652265310287
-0.09557363390922546 -0.006678033620119095 1.2945342063903809
-0.1027865782380104 -0.026894299313426018 1.2526007890701294
-0.07242288440465927 -0.1288043111562729 1.3267595767974854
-0.1392170786857605 -0.03424382954835892 0.6757611036300659
-0.1166176125407219 -0.12940935790538788 0.7459319233894348
-0.07479967921972275 -0.11722301691770554 0.8182803988456726
-0.19059860706329346 -0.1281459629535675 0.16705572605133057
-0.2116558700799942 -0.19214457273483276 0.08035247027873993
-0.12443266808986664 -0.08169116824865341 1.4974459409713745
-0.09512574225664139 0.002989392727613449 1.3643254041671753
-0.0649261325597763 -0.001952987164258957 1.2978659868240356
-0.1394776552915573 -0.10758768022060394 0.5792520046234131
-0.11465591937303543 -0.08757856488227844 0.5804603695869446
-0.15682291984558105 0.00792393833398819 0.5195508003234863
-0.09397940337657928 -0.07021356374025345 1.4679036140441895
-0.07140517234802246 -0.026246845722198486 1.4467872381210327
-0.10188336670398712 0.013526607304811478 1.4049992561340332
-0.12614376842975616 -0.02828928641974926 0.5250970721244812
-0.05991586670279503 0.07074781507253647 1.771850347518921
-0.11421938240528107 -0.12152901291847229 1.6361172199249268
-0.03376448154449463 -0.1889820545911789 0.998672366142273
-0.07350236177444458 -0.037743303924798965 1.4616811275482178
-0.051891788840293884 -0.06667809188365936 1.446716547012329
-0.07244409620761871 -0.051187336444854736 1.4404942989349365
-0.06026527285575867 -0.11814847588539124 1.5659229755401611
-0.10223352909088135 -0.11471380293369293 1.5110557079315186
-0.05001135915517807 -0.006272159516811371 1.471682071685791
-0.10038945823907852 -0.05121031776070595 0.6464172601699829
-0.014070700854063034 0.02454322576522827 1.796670913696289
-0.034200407564640045 0.12837156653404236 1.695845127105713
-0.04772963002324104 -0.13525669276714325 1.5173829793930054
-0.06306688487529755 -0.11495992541313171 1.4692193269729614
-0.0334763377904892 -0.014071948826313019 1.4464179277420044
-0.036830175668001175 -0.11444650590419769 1.4683891534805298
-0.0026139989495277405 0.007311426103115082 1.4211130142211914
-0.026410991325974464 -0.013263564556837082 1.2923994064331055
-0.010638527572154999 0.08040553331375122 1.7698028087615967
-0.009977540001273155 -0.0179055854678154 1.47691011428833
-0.014451626688241959 -0.06250855326652527 1.4627773761749268
0.017191916704177856 0.09859198331832886 1.7265524864196777
0.0011605322360992432 0.03681785613298416 1.7764545679092407
-0.009617403149604797 -0.0542537122964859 1.4468896389007568
0.020722856745123863 -0.08310915529727936 1.4885201454162598
-0.004642840474843979 -0.032297294586896896 1.45456862449646
0.07474063336849213 -0.09015515446662903 0.6016379594802856
0.020045310258865356 0.012549072504043579 1.5049865245819092
0.10876516252756119 -0.10823613405227661 0.5192499160766602
0.00887145847082138 -0.1671617329120636 1.281944990158081
0.05318041518330574 -0.03913255035877228 1.2728147506713867
0.05497077852487564 -0.06658335030078888 1.1572728157043457
0.14384455978870392 -0.10331021249294281 0.08809879422187805
0.16250327229499817 -0.0948057547211647 0.07169695943593979
0.13307464122772217 0.020536072552204132 0.0962064266204834
0.024200439453125 -0.14915911853313446 1.267473816871643
0.012019625864923 -0.18867355585098267 1.1917903423309326
0.0715874657034874 -0.14124156534671783 0.7433789372444153
0.1272282600402832 -0.028848759829998016 0.06774521619081497
0.052202850580215454 0.029018737375736237 1.7359321117401123
0.013546597212553024 -0.12573900818824768 1.644559383392334
0.0038943588733673096 -0.11048214137554169 1.5568217039108276
0.009324995800852776 -0.11346478015184402 1.5107249021530151
0.09960061311721802 -0.15953347086906433 0.8858184218406677
0.10078269243240356 0.022395238280296326 1.762688398361206
0.0270402729511261 0.009845111519098282 1.5615683794021606
0.025981975719332695 -0.006830859929323196 1.5318968296051025
0.13280276954174042 -0.012873943895101547 0.34265634417533875
0.12529665231704712 0.000882420688867569 0.2823954224586487
0.14495554566383362 0.03183656185865402 0.07896101474761963
0.04608217626810074 0.0129021517932415 1.8227455615997314
0.06195332109928131 -0.010434549301862717 1.4282114505767822
0.1008041650056839 -0.2186889946460724 0.8738346099853516
0.0904054269194603 -0.13111752271652222 0.873399019241333
0.1303473562002182 -0.19402362406253815 0.8739793300628662
0.09748651832342148 -0.04231628030538559 0.7625386118888855
0.18963894248008728 -0.09340929239988327 0.0831940546631813
0.05879751592874527 0.016744986176490784 1.7468960285186768
0.04428507760167122 -0.1570701003074646 1.158597707748413
0.05285867303609848 -0.13618436455726624 1.2867863178253174
0.0559811033308506 -0.152589350938797 1.2834415435791016
0.12833164632320404 -0.18826940655708313 0.9428513050079346
0.04993141442537308 -0.06326448172330856 1.5776009559631348
0.056431375443935394 0.011538524180650711 1.569900631904602
0.05208145081996918 -0.014152761548757553 1.5602298974990845
0.05978316068649292 -0.030304942280054092 1.5546902418136597
0.07203634083271027 -0.04232756793498993 1.5309178829193115
0.13653889298439026 -0.06567193567752838 0.6610859632492065
0.13439013063907623 -0.13193997740745544 0.6804247498512268
0.08037848770618439 -0.050022952258586884 1.4052774906158447
0.08267515152692795 0.0022844448685646057 1.3465464115142822
0.04660049080848694 -0.001979842782020569 1.3609583377838135
0.05767817795276642 -0.023443996906280518 1.337578296661377
0.12571942806243896 -0.11875531077384949 0.8421383500099182
0.18904684484004974 0.01511719822883606 0.08244632929563522
0.2046438753604889 -0.01054488867521286 0.07498596608638763
0.07261534035205841 0.007283788174390793 1.7000126838684082
0.08815184980630875 -0.025211628526449203 1.400514841079712
0.19594255089759827 -0.056427501142024994 0.32669636607170105
0.0944153368473053 0.02640487626194954 1.6728707551956177
0.07108234614133835 0.053050193935632706 1.6759406328201294
0.08026475459337234 0.022521276026964188 1.6410465240478516
0.20579983294010162 -0.023019064217805862 0.15117569267749786
0.21370777487754822 -0.06567258387804031 0.0818641185760498
0.19779475033283234 -0.09615977853536606 0.10857295989990234
0.15575939416885376 -0.013096650131046772 0.9825085401535034
0.15270701050758362 -0.014737789519131184 0.8825997710227966
0.09946388006210327 0.00021941959857940674 1.7619645595550537
0.17063085734844208 0.03893343359231949 0.8905283808708191
0.1833108365535736 0.0024684900417923927 0.9533761143684387
0.11076100170612335 -0.006249960511922836 1.3398425579071045
0.1270928531885147 -0.026820197701454163 1.3246963024139404
0.09213517606258392 -0.05337114632129669 1.3704644441604614
0.12455176562070847 -0.010393224656581879 1.2848567962646484
0.1136195957660675 -0.015422243624925613 1.2644646167755127
0.13999134302139282 -0.09259621053934097 1.2419854402542114
0.14935272932052612 -0.04555109143257141 1.2833104133605957
0.16824838519096375 -0.013613231480121613 1.2190386056900024
0.1871277093887329 -0.015439637005329132 1.1413933038711548
0.21385520696640015 -0.028936021029949188 1.159209132194519
0.1982060968875885 -0.049511902034282684 1.2054029703140259
0.1768311709165573 -0.09190531075000763 1.22451913356781
0.22118857502937317 -0.041448622941970825 1.1059305667877197
0.2411656677722931 -0.11523697525262833 1.1539057493209839
0.25138556957244873 -0.08781091868877411 1.1356847286224365
0.24214757978916168 -0.06151370704174042 1.108135461807251
0.20780399441719055 -0.15364998579025269 1.133927345275879
0.22698244452476501 -0.11885345727205276 1.1017138957977295
0.22816510498523712 -0.09633740782737732 1.0911216735839844
0.2732211947441101 -0.16743773221969604 0.9823076725006104
0.20915232598781586 -0.13812176883220673 1.100543737411499
0.20809820294380188 -0.15208810567855835 1.0726184844970703
0.24783359467983246 -0.12783832848072052 1.0192447900772095
0.21380817890167236 -0.14105446636676788 1.0479916334152222
0.2110949456691742 -0.168897345662117 1.04951810836792
0.23533426225185394 -0.1597241908311844 1.017189383506775
0.2581198811531067 -0.16574245691299438 1.0100700855255127
0.2119278907775879 -0.194474995136261 1.0188511610031128
0.23760263621807098 -0.17967090010643005 1.0092962980270386
0.22398380935192108 -0.18547838926315308 1.0185165405273438
0.2661365866661072 -0.17440906167030334 0.9620655179023743
0.23325248062610626 -0.19947782158851624 1.0057165622711182
0.2488085925579071 -0.16114264726638794 0.977249264717102
0.25174471735954285 -0.19486692547798157 0.9742483496665955
0.2700279951095581 -0.18728190660476685 0.9777229428291321
-0.31734105944633484 -0.050354648381471634 1.093045711517334
-0.3027854859828949 -0.11179756373167038 1.0833560228347778
-0.2918420135974884 -0.09362735599279404 1.0792876482009888
-0.308370977640152 -0.13243389129638672 1.1189360618591309
-0.25783830881118774 -0.0466528944671154 1.0894030332565308
-0.2799279987812042 -0.12945014238357544 1.1054396629333496
-0.2014753818511963 -0.013344120234251022 1.240351676940918
-0.19661524891853333 -0.06997409462928772 1.217769980430603
-0.17439380288124084 -0.09901919215917587 0.9736315011978149
-0.17839398980140686 -0.01674743741750717 0.9521890878677368
-0.12833887338638306 0.05100298672914505 0.937993049621582
-0.11622895300388336 0.15497443079948425 1.2623546123504639
-0.1090119481086731 0.15217185020446777 1.2031497955322266
-0.11285105347633362 0.17619293928146362 1.1700730323791504
-0.153590589761734 -0.011972986161708832 0.9756091833114624
-0.20600588619709015 0.034008003771305084 1.7406679391860962
-0.15293332934379578 0.0034437328577041626 1.3643927574157715
-0.1731741577386856 0.0037031732499599457 1.29550039768219
-0.042890481650829315 0.1707594394683838 1.0699182748794556
-0.07200051844120026 0.17654725909233093 0.9879120588302612
-0.2803945243358612 -0.0932176485657692 0.12452368438243866
-0.29417508840560913 -0.14767970144748688 0.07950885593891144
-0.17972500622272491 0.02953462302684784 1.72129225730896
-0.16405414044857025 0.03738288953900337 1.6663591861724854
-0.1505594402551651 -0.13002029061317444 1.2603552341461182
-0.14954501390457153 -0.1476365029811859 1.2320971488952637
-0.1534363478422165 -0.1680206060409546 1.2291356325149536
-0.11546348035335541 0.11544748395681381 1.3836902379989624
