-0.19428519904613495 -0.05921461060643196 1.2423949241638184
-0.10889995098114014 -0.07540547847747803 1.3595306873321533
-0.10156162828207016 -0.06256749480962753 1.350927472114563
0.11903645098209381 -0.09792472422122955 1.2321487665176392
0.3626123368740082 -0.17070037126541138 1.5064072608947754
0.49652355909347534 -0.12656179070472717 1.411512851715088
0.5319632887840271 -0.1449047327041626 1.4104095697402954
0.5523254871368408 -0.12332554161548615 1.3356961011886597
0.6087449193000793 -0.05575815960764885 1.0835257768630981
0.6477358341217041 -0.05580521374940872 1.1089667081832886
0.6193471550941467 -0.0246872641146183 1.0636626482009888
0.6273378133773804 -0.04309634491801262 1.0404435396194458
0.6518114805221558 -0.029283106327056885 1.0539616346359253
-0.6601457595825195 0.018320277333259583 1.1697039604187012
-0.6574552059173584 0.03157643973827362 1.1531776189804077
-0.585881233215332 0.005393046885728836 1.3924980163574219
-0.5725106596946716 0.005411021411418915 1.3745163679122925
-0.6470983624458313 0.004028007388114929 0.7348974943161011
-0.6508679986000061 -0.00047885626554489136 0.6908741593360901
-0.6246859431266785 -0.0784492939710617 0.7849043011665344
-0.6047762036323547 -0.018498990684747696 0.9128373265266418
-0.5558337569236755 -0.016943247988820076 1.1189292669296265
-0.428634375333786 -0.07781416177749634 1.602832317352295
0.18766215443611145 -0.051408760249614716 1.1311860084533691
0.3211062550544739 -0.09176389873027802 1.3143702745437622
0.3319855034351349 -0.04592645913362503 1.0094785690307617
0.3609422743320465 -0.059492699801921844 1.1330088376998901
0.3628769516944885 -0.038722362369298935 0.930149257183075
0.3737514615058899 -0.03365805745124817 0.8788700699806213
0.3967706263065338 -0.07193320989608765 0.9450002908706665
0.41842877864837646 -0.012230641208589077 0.6716465353965759
0.4282456338405609 -0.018761998042464256 0.6567298769950867
0.4770781695842743 -0.06621710956096649 0.6972740888595581
0.5729852914810181 -0.028954539448022842 0.8592265248298645
0.5330461859703064 0.0068861618638038635 0.6601198315620422
-0.6664074063301086 -0.037877216935157776 0.7165522575378418
-0.6493391990661621 -0.02462286688387394 0.6705613732337952
-0.370794415473938 -0.01938692107796669 1.0963386297225952
-0.2867529094219208 -0.01968597248196602 1.166189432144165
-0.2250167578458786 -0.050263725221157074 1.2003326416015625
0.5144851207733154 -0.0012659721542149782 0.6937124729156494
0.4792438745498657 0.018995586782693863 0.47833356261253357
0.4964736998081207 0.012474924325942993 0.48885995149612427
-0.5919771790504456 -0.08808015286922455 0.9261501431465149
-0.5638055801391602 -0.057380128651857376 0.851905882358551
-0.5719174146652222 -0.0688210055232048 0.8060787916183472
0.5544958114624023 -0.10558082163333893 1.2559926509857178
0.4928129017353058 0.03659763187170029 0.48838454484939575
0.6046620607376099 -0.030143655836582184 0.7524111866950989
-0.25285786390304565 -0.03879670053720474 1.3158798217773438
0.6034027338027954 -0.0332559272646904 0.8430722951889038
-0.5374432802200317 -0.04910558462142944 0.9228525161743164
0.43343713879585266 -0.04975719749927521 0.523664116859436
0.5920525789260864 -0.031104985624551773 0.8326178789138794
-0.6011149883270264 -0.10348346829414368 0.8882859945297241
-0.3254079818725586 -0.015444448217749596 0.8769781589508057
-0.33168238401412964 -0.014773807488381863 0.888721764087677
-0.32487282156944275 -0.046903617680072784 0.8801619410514832
-0.33313557505607605 -0.04792678356170654 0.887182891368866
-0.29932349920272827 -0.034435003995895386 0.9579159617424011
-0.3065949082374573 -0.03528597578406334 0.9322472214698792
-0.2870488166809082 -0.005631806794553995 0.9141497611999512
-0.27653464674949646 0.0006492987740784883 0.9571381211280823
-0.30367931723594666 -0.059639863669872284 0.9319994449615479
-0.3185965120792389 -0.08514504134654999 0.9086849689483643
-0.2737707197666168 -0.037902384996414185 1.0339221954345703
-0.29695674777030945 -0.09021489322185516 0.9163853526115417
-0.29633548855781555 -0.04543863236904144 0.9278488159179688
-0.2974480390548706 -0.09283888339996338 0.9576884508132935
-0.28452068567276 -0.06103019043803215 0.9621052145957947
-0.2498742640018463 -0.010137424804270267 1.0173412561416626
-0.27265554666519165 -0.05015545338392258 0.9675778150558472
-0.2827282249927521 -0.07670624554157257 0.984684944152832
-0.28203773498535156 -0.06609722226858139 1.0202234983444214
-0.28447335958480835 -0.03421701490879059 1.0670273303985596
-0.30120426416397095 -0.09243976324796677 1.0398802757263184
-0.22747988998889923 -0.00446936022490263 1.1214423179626465
-0.23194745182991028 0.013057122007012367 1.0774593353271484
-0.28176364302635193 -0.05958498269319534 1.0980405807495117
-0.19456270337104797 0.012366367504000664 1.07718026638031
-0.23303312063217163 -0.08351805806159973 1.163954257965088
-0.2735566794872284 -0.12563860416412354 1.0931594371795654
-0.19220420718193054 0.009604666382074356 1.1237820386886597
-0.16160646080970764 -0.012511201202869415 1.1409236192703247
-0.17343367636203766 -0.03786299005150795 1.1937460899353027
-0.14581891894340515 -0.04097621515393257 1.2028427124023438
-0.17465636134147644 -0.14366862177848816 1.2447084188461304
-0.22766537964344025 -0.1356033831834793 1.1571811437606812
-0.14800125360488892 -0.06512349098920822 1.2463213205337524
-0.18632520735263824 -0.09348349273204803 1.2308975458145142
-0.14698216319084167 -0.08649568259716034 1.2825555801391602
-0.1404944509267807 -0.10865171253681183 1.3201243877410889
-0.1408689171075821 -0.15871649980545044 1.3098835945129395
-0.17421306669712067 -0.1695127785205841 1.1921294927597046
-0.09551754593849182 -0.13406512141227722 1.7088088989257812
-0.08552872389554977 -0.025989875197410583 1.4400502443313599
-0.13608300685882568 0.06388948112726212 0.8433514833450317
-0.17904791235923767 0.012655356898903847 0.8298971056938171
-0.14997953176498413 -0.08274556696414948 0.8406664133071899
-0.19154341518878937 -0.11227835714817047 0.8243807554244995
-0.08961053192615509 -0.10862928628921509 1.6269322633743286
-0.09915495663881302 -0.15302163362503052 1.7260699272155762
-0.07423372566699982 -0.13549280166625977 1.6799769401550293
-0.05998317897319794 -0.09649688750505447 1.643007516860962
-0.07793353497982025 -0.10742353647947311 1.5938427448272705
-0.12113222479820251 -0.018439345061779022 1.0455796718597412
-0.16442936658859253 -0.05860351398587227 0.993739902973175
-0.17017531394958496 -0.12453765422105789 0.9730727076530457
-0.08296414464712143 -0.11742432415485382 1.5283429622650146
-0.12392263859510422 -0.09851053357124329 -0.025699591264128685
-0.12756064534187317 -0.18550071120262146 -0.0185712743550539
-0.12898126244544983 -0.19926685094833374 0.013873166404664516
-0.10369322448968887 -0.16065232455730438 1.3656986951828003
-0.09646043181419373 -0.10379303991794586 1.3374693393707275
-0.0925220400094986 -0.12092866003513336 1.3106802701950073
-0.11579936742782593 -0.16905507445335388 1.3481870889663696
-0.10407965630292892 -0.1933397799730301 1.295045018196106
-0.11346971243619919 -0.0772019624710083 0.4191708266735077
-0.10288192331790924 -0.10278339684009552 0.3333228826522827
-0.10959846526384354 -0.051351431757211685 0.2706781327724457
-0.11658825725317001 -0.07811844348907471 0.29865071177482605
-0.07187935709953308 -0.12210910022258759 1.6540898084640503
-0.09969870001077652 -0.15117014944553375 1.2685080766677856
-0.11059221625328064 -0.1433814913034439 1.2313519716262817
-0.10788113623857498 -0.18114632368087769 1.2439894676208496
-0.13250569999217987 -0.19702614843845367 1.232895851135254
-0.0957382321357727 -0.03812584653496742 0.20174652338027954
-0.08135201036930084 -0.17933520674705505 1.5082483291625977
-0.07120200246572495 -0.11123085021972656 1.5293843746185303
-0.07787561416625977 -0.1404210478067398 1.5155932903289795
-0.09342995285987854 -0.11455553025007248 0.5211731791496277
-0.014509942382574081 -0.14694184064865112 1.7317183017730713
-0.10649602115154266 -0.17561903595924377 1.1866755485534668
-0.1079711765050888 -0.08841617405414581 1.1697691679000854
-0.08322413265705109 -0.15091434121131897 0.7153573036193848
-0.02340945042669773 -0.09488174319267273 1.698521375656128
-0.07954525947570801 -0.19179143011569977 1.3658885955810547
-0.08845247328281403 -0.12595237791538239 0.8326928615570068
-0.13532623648643494 -0.1350380778312683 0.8510392308235168
-0.12469678372144699 -0.2014668583869934 0.9037383794784546
-0.10269328951835632 -0.2180359661579132 0.8453136682510376
-0.10108686238527298 -0.2186604142189026 0.0582147091627121
0.013299563899636269 -0.07433564960956573 1.7008624076843262
-0.010542768985033035 -0.1353358030319214 1.7201164960861206
-0.09248065948486328 -0.14986301958560944 1.428194522857666
-0.06827758997678757 -0.17725099623203278 1.4678089618682861
-0.07372348755598068 -0.027299124747514725 0.27204519510269165
-0.08518475294113159 -0.03649216145277023 0.16072413325309753
-0.0988532155752182 -0.19357262551784515 0.08792538940906525
-0.07786442339420319 0.004895084537565708 -0.027022331953048706
-0.0685543492436409 -0.11726954579353333 1.3167051076889038
-0.07010723650455475 -0.14012396335601807 0.4961249828338623
-0.0534822940826416 -0.20877744257450104 -0.017878033220767975
-0.09378539025783539 -0.21976566314697266 -0.02454289421439171
-0.03462943434715271 -0.11684660613536835 1.539183259010315
-0.04250803217291832 -0.14264161884784698 1.4924486875534058
-0.030168820172548294 -0.21859294176101685 0.9095659852027893
-0.0867404192686081 0.08712313324213028 0.8563430309295654
-0.08980314433574677 -0.15428249537944794 0.2040252983570099
-0.059241097420454025 -0.13222934305667877 0.12247499078512192
-0.06051526963710785 0.002447940409183502 0.03239267319440842
-0.06086932122707367 -0.10306020081043243 1.2908649444580078
-0.07630638033151627 -0.10923367738723755 1.2491464614868164
-0.04480041190981865 -0.22513507306575775 1.2671910524368286
-0.07262510061264038 -0.061823807656764984 0.6234478950500488
-0.06275288015604019 -0.15320301055908203 0.7121298313140869
-0.04645979404449463 -0.12935563921928406 0.8019359111785889
-0.04635113850235939 -0.12694032490253448 0.09054169803857803
-0.04772748053073883 -0.19770696759223938 0.05999834090471268
-0.06175726279616356 -0.22326909005641937 1.4521479606628418
-0.04826318845152855 -0.11644008755683899 1.35052490234375
-0.031357910484075546 -0.0997215062379837 1.2962665557861328
-0.04122539609670639 -0.14217135310173035 0.5228304266929626
-0.02046716958284378 -0.12194044888019562 0.5268450379371643
-0.055798113346099854 -0.025217335671186447 0.4638898968696594
-0.04202548414468765 -0.2070438265800476 1.42426335811615
-0.020054539665579796 -0.16492703557014465 1.41022527217865
-0.05134309455752373 -0.11561036109924316 1.3960802555084229
-0.02721364051103592 -0.06167526915669441 0.47288328409194946
0.03142427280545235 -0.1199965551495552 1.724257230758667
-0.04363773763179779 -0.2737584412097931 1.5675275325775146
-0.033203449100255966 -0.19353216886520386 0.9734877347946167
-0.020348086953163147 -0.17696678638458252 1.4236195087432861
-0.006441565230488777 -0.20252305269241333 1.4024299383163452
-0.024667177349328995 -0.186099112033844 1.3957406282424927
0.0006835609674453735 -0.26019638776779175 1.5037988424301147
-0.04115631803870201 -0.25247687101364136 1.457547664642334
0.005023225210607052 -0.14942598342895508 1.4411709308624268
-0.022309470921754837 -0.08000565320253372 0.6060980558395386
0.07458479702472687 -0.16016191244125366 1.7296464443206787
0.05049461871385574 -0.05561976134777069 1.6773760318756104
0.005122721195220947 -0.27094098925590515 1.4541739225387573
-0.014169055037200451 -0.2479119598865509 1.4145257472991943
0.014184948988258839 -0.15285535156726837 1.4136852025985718
0.010537690483033657 -0.24961642920970917 1.4132983684539795
0.0416441485285759 -0.12919872999191284 1.3957021236419678
0.0026532411575317383 -0.10573717951774597 1.2845988273620605
0.07585040479898453 -0.10852759331464767 1.7201149463653564
0.040640294551849365 -0.15920209884643555 1.4409691095352173
0.028680628165602684 -0.2034021019935608 1.418155312538147
0.10037337988615036 -0.08483098447322845 1.687789797782898
0.08552154153585434 -0.14767417311668396 1.7149568796157837
0.02387467958033085 -0.2000410258769989 1.4048442840576172
0.06949446350336075 -0.22060462832450867 1.4365366697311401
0.036294110119342804 -0.17831161618232727 1.4149067401885986
0.018495019525289536 -0.09238146990537643 0.5493801832199097
0.07496015727519989 -0.13032478094100952 1.47359037399292
0.045085664838552475 -0.12359441816806793 0.4636637270450592
0.009000927209854126 -0.25898706912994385 1.2181482315063477
0.06837766617536545 -0.13405060768127441 1.2461860179901123
0.0558113157749176 -0.110496386885643 1.1421948671340942
0.05501857027411461 -0.2883336842060089 0.05471779406070709
0.08698999881744385 -0.30843114852905273 0.02679019421339035
0.05833324417471886 -0.08306651562452316 -0.023754367604851723
0.023020824417471886 -0.23760148882865906 1.2110129594802856
0.011042840778827667 -0.23754435777664185 1.1303166151046753
0.027816547080874443 -0.14283698797225952 0.6927239894866943
0.04952467232942581 -0.18286125361919403 -0.05307390168309212
0.1273530274629593 -0.14414963126182556 1.6729936599731445
0.07565491646528244 -0.2734716832637787 1.5641547441482544
0.06220036745071411 -0.25010061264038086 1.4914602041244507
0.057059310376644135 -0.2498582899570465 1.4498226642608643
0.08023189753293991 -0.15850572288036346 0.8407977819442749
0.17614509165287018 -0.15238365530967712 1.69254732131958
0.08674214780330658 -0.13676530122756958 1.519496202468872
0.08121153712272644 -0.15258297324180603 1.4894254207611084
0.06371046602725983 -0.06170967221260071 0.26567938923835754
0.05653619393706322 -0.054642871022224426 0.20249347388744354
0.07592985779047012 -0.08721068501472473 -0.054258327931165695
0.12967362999916077 -0.1705789417028427 1.746192216873169
0.09957611560821533 -0.15802109241485596 1.3814585208892822
0.08726316690444946 -0.2177380919456482 0.83537757396698
0.061555955559015274 -0.131600022315979 0.8234953880310059
0.11112090200185776 -0.19274935126304626 0.8205963373184204
0.06060162931680679 -0.04202096536755562 0.7118824124336243
0.10770928114652634 -0.3041883707046509 0.04563680663704872
0.1367102563381195 -0.15561845898628235 1.6801847219467163
0.04119947552680969 -0.19830691814422607 1.1103923320770264
0.045627057552337646 -0.2515932321548462 1.228841781616211
0.043319929391145706 -0.27177056670188904 1.2215464115142822
0.132834792137146 -0.19080130755901337 0.8908306956291199
0.10756433010101318 -0.20566469430923462 1.5159924030303955
0.1147351861000061 -0.13315460085868835 1.5283998250961304
0.11110181361436844 -0.15663908421993256 1.5114250183105469
0.11591701209545135 -0.16974404454231262 1.504075288772583
0.12145529687404633 -0.1800815761089325 1.4788463115692139
0.08750294148921967 -0.06888317316770554 0.6036783456802368
0.08417201042175293 -0.13523460924625397 0.622955322265625
0.10175882279872894 -0.23144589364528656 1.3527674674987793
0.11039254069328308 -0.18786396086215973 1.304390788078308
0.07728296518325806 -0.17718252539634705 1.3284709453582764
0.07810841500759125 -0.18525947630405426 1.3003473281860352
0.0917963981628418 -0.12007179111242294 0.7865816354751587
0.11924917250871658 -0.1351589560508728 -0.04873141273856163
0.13336017727851868 -0.18297985196113586 -0.04771638661623001
0.14178146421909332 -0.15710768103599548 1.6372487545013428
0.11920753121376038 -0.16690698266029358 1.3501592874526978
0.12301187962293625 -0.1155024915933609 0.25103437900543213
0.16284802556037903 -0.13490895926952362 1.6166667938232422
0.14023816585540771 -0.11235640943050385 1.6275399923324585
0.14553497731685638 -0.1335328370332718 1.588987112045288
0.133623406291008 -0.15873846411705017 0.04969669133424759
0.13845397531986237 -0.2711246907711029 0.017559640109539032
0.10514757037162781 -0.2783896028995514 0.07318374514579773
0.17053496837615967 -0.018146846443414688 0.923780083656311
0.13311807811260223 -0.016162823885679245 0.8165062069892883
0.175284743309021 -0.1698381006717682 1.6859387159347534
0.1570715606212616 0.03706430271267891 0.8234512805938721
0.18726280331611633 -0.0018039345741271973 0.879340648651123
0.13420630991458893 -0.20689380168914795 1.288661003112793
0.13471229374408722 -0.23915281891822815 1.2671618461608887
0.10552486777305603 -0.24197477102279663 1.3230907917022705
0.12953639030456543 -0.2240770161151886 1.2285563945770264
0.11048834025859833 -0.22350212931632996 1.2121822834014893
0.11395429074764252 -0.31481632590293884 1.1857563257217407
0.13629373908042908 -0.2675011157989502 1.220052719116211
0.1300506889820099 -0.23811356723308563 1.1487088203430176
0.11631383001804352 -0.2396969348192215 1.0668814182281494
0.14427737891674042 -0.2427077293395996 1.072266697883606
0.15632441639900208 -0.2614266872406006 1.1245028972625732
0.14839358627796173 -0.30276408791542053 1.1510483026504517
0.13729283213615417 -0.25660914182662964 1.020037055015564
0.18780773878097534 -0.3093271851539612 1.0597325563430786
0.18253065645694733 -0.2860449552536011 1.0401716232299805
0.16258034110069275 -0.26645997166633606 1.0191383361816406
0.16083785891532898 -0.35416916012763977 1.053135633468628
0.16188573837280273 -0.3179524838924408 1.022208571434021
0.15558835864067078 -0.29839929938316345 1.010698914527893
0.20125283300876617 -0.33925291895866394 0.9104272127151489
0.1494465321302414 -0.3377920687198639 1.0218967199325562
0.15124523639678955 -0.35088276863098145 0.9959073066711426
0.1770389825105667 -0.3107815086841583 0.9441473484039307
0.15048041939735413 -0.3362572193145752 0.9732736349105835
0.15462881326675415 -0.3604142963886261 0.9737144112586975
0.17136357724666595 -0.34426161646842957 0.9448587894439697
0.18742358684539795 -0.34249937534332275 0.9386072158813477
0.15844936668872833 -0.37740767002105713 0.946662187576294
0.17413672804832458 -0.3594640791416168 0.9378063678741455
0.16758963465690613 -0.3668946623802185 0.9462621212005615
0.19812840223312378 -0.3435162901878357 0.8931602239608765
0.17328710854053497 -0.3780168890953064 0.9338511228561401
0.1795760840177536 -0.3390006124973297 0.9090931415557861
0.19135302305221558 -0.3660741448402405 0.9042026996612549
0.20355534553527832 -0.3569972813129425 0.9073948264122009
-0.2530960142612457 -0.013573459349572659 1.0416511297225952
-0.2665972411632538 -0.07505190372467041 1.0073164701461792
-0.2448449730873108 -0.05661366879940033 1.0142723321914673
-0.28831833600997925 -0.11336828768253326 1.028562068939209
-0.18965855240821838 -0.020994707942008972 1.0527567863464355
-0.25691384077072144 -0.11210445314645767 1.0235737562179565
-0.13424180448055267 -0.08361785113811493 1.2228447198867798
-0.15574878454208374 -0.13635507225990295 1.1755117177963257
-0.18722884356975555 -0.0998467281460762 0.9371404647827148
-0.19298437237739563 -0.016130447387695312 0.9025020599365234
-0.14039184153079987 0.050899360328912735 0.9084699749946594
-0.0771147608757019 0.04146571829915047 1.3357651233673096
-0.08018149435520172 0.05230119079351425 1.2858431339263916
-0.08107760548591614 0.07972224056720734 1.2677357196807861
-0.1697605848312378 -0.012321457266807556 0.9407962560653687
-0.1094302386045456 -0.1518813520669937 1.697611689567566
-0.10359598696231842 -0.12003540992736816 1.3502057790756226
-0.12038964033126831 -0.0936090350151062 1.2838963270187378
-0.02778138779103756 0.1046278327703476 1.1810095310211182
-0.060003094375133514 0.12138813734054565 1.1160869598388672
-0.13257738947868347 -0.08030910044908524 0.042270228266716
-0.13604722917079926 -0.16507337987422943 0.02891865372657776
-0.08633536100387573 -0.15646658837795258 1.6781566143035889
-0.07895073294639587 -0.1388261467218399 1.6304388046264648
-0.1214338168501854 -0.20865045487880707 1.20648193359375
-0.12168741971254349 -0.2167103886604309 1.176614761352539
-0.12910659611225128 -0.2347925901412964 1.1644566059112549
-0.06435658037662506 -0.014196590520441532 1.421764850616455
-0.05617440864443779 -0.018390964716672897 1.4157142639160156
-0.10371987521648407 -0.21425378322601318 1.2241665124893188
-0.12471555173397064 -0.12575773894786835 1.2054808139801025
-0.11185748130083084 -0.11695003509521484 0.10972149670124054
-0.117740198969841 -0.07435869425535202 0.1279710978269577
-0.029682284221053123 0.031618632376194 1.3232297897338867
-0.09586820006370544 -0.1634320318698883 1.4362629652023315
-0.09717749059200287 -0.15476210415363312 1.4168038368225098
-0.08916126936674118 -0.15269020199775696 1.3960795402526855
-0.10153312981128693 -0.14896583557128906 1.3966922760009766
-0.10581039637327194 -0.16271600127220154 1.3783044815063477
-0.11438731849193573 -0.12923792004585266 0.7557486891746521
-0.12831775844097137 -0.09219745546579361 0.742279052734375
-0.018467340618371964 0.15200939774513245 1.2021912336349487
-0.01613195240497589 0.1393432915210724 1.2443516254425049
-0.09620165824890137 -0.20473995804786682 1.224974513053894
-0.11802903562784195 -0.11617236584424973 0.8380321264266968
-0.10755995661020279 -0.007201232016086578 0.03166990354657173
-0.11011577397584915 -0.017810150980949402 -0.01787104271352291
-0.13354842364788055 -0.1907491832971573 0.8389524221420288
-0.0320335254073143 0.08645492792129517 1.323526382446289
-0.07927240431308746 -0.24802915751934052 1.5734012126922607
-0.059898488223552704 -0.1316230595111847 1.520140528678894
-0.03339028358459473 -0.04500526934862137 1.5237159729003906
-0.027882805094122887 -0.08706464618444443 1.5576980113983154
-0.049552708864212036 -0.08722919225692749 1.5362663269042969
-0.047426171600818634 -0.05036380887031555 1.4753888845443726
0.013236925937235355 -0.025231551378965378 1.5658669471740723
-0.056253425776958466 -0.1614823043346405 1.4659727811813354
-0.09970824420452118 0.04399280995130539 0.9724233746528625
-0.03935455530881882 -0.16353186964988708 1.7659684419631958
-0.04981575906276703 -0.16871553659439087 1.7596571445465088
-0.054683152586221695 -0.17700737714767456 1.7456897497177124
0.03041377291083336 -0.05073387175798416 1.465536117553711
-0.02761819213628769 -0.0069312769919633865 1.4606890678405762
-0.039892468601465225 -0.1126500591635704 -0.027256406843662262
0.012399731203913689 0.042554743587970734 1.4204024076461792
-0.054721564054489136 -0.2370191067457199 1.4907368421554565
-0.054400719702243805 -0.10358357429504395 0.34211698174476624
-0.000623578205704689 -0.07482225447893143 1.5111029148101807
-0.02274838089942932 -0.1183803528547287 1.4757320880889893
0.021830834448337555 -0.00270950049161911 1.4994914531707764
-0.03675156086683273 0.05171769857406616 0.8569827079772949
-0.05806908756494522 -0.039466872811317444 0.29277563095092773
0.016460871323943138 0.14714404940605164 1.116421103477478
-0.03252095356583595 0.02139146812260151 1.0514541864395142
-0.08092271536588669 -0.22965538501739502 1.212623119354248
-0.0935271680355072 -0.19874219596385956 1.1263632774353027
-0.04281646013259888 -0.06752122938632965 0.2712329030036926
-0.020307157188653946 -0.08124344050884247 0.21061553061008453
-0.0513218529522419 -0.03234733268618584 0.20619764924049377
-0.0013389941304922104 -0.09639455378055573 1.5157960653305054
-0.018932662904262543 -0.1340816617012024 0.6668053269386292
-0.043937768787145615 -0.0627356544137001 0.6228383183479309
0.03423508256673813 0.1535351276397705 1.234632968902588
0.031384605914354324 0.1656707227230072 1.1627246141433716
-0.0449957549571991 -0.23498722910881042 1.1368458271026611
-0.030551601201295853 -0.06477130949497223 0.06513308733701706
0.01966233178973198 0.1233183965086937 1.1449768543243408
0.014575095847249031 0.09555177390575409 1.1698048114776611
0.060518041253089905 -0.08591768890619278 1.5105760097503662
-0.04241824895143509 -0.2108769416809082 1.3535881042480469
0.06256572902202606 0.05841369181871414 1.4024609327316284
0.07316873222589493 -0.04949125647544861 1.4522223472595215
0.05286090448498726 -0.10047432780265808 1.5024068355560303
0.06978021562099457 0.12284322082996368 1.1470460891723633
0.08123618364334106 0.12314153462648392 1.1056029796600342
0.008690372109413147 -0.22886529564857483 1.3458757400512695
0.0199215579777956 0.021110331639647484 1.0483014583587646
-0.025442279875278473 -0.23028089106082916 1.0760407447814941
0.1279570609331131 0.03885314613580704 1.4093942642211914
0.040319494903087616 -0.10938157141208649 1.2947936058044434
0.1119605153799057 -0.012814275920391083 1.4934964179992676
0.07867100834846497 -0.05874766781926155 1.4858776330947876
0.04165298119187355 -0.09412997215986252 1.212382197380066
0.045725785195827484 0.09468619525432587 0.9204167127609253
0.07954368740320206 -0.1868210732936859 1.6890854835510254
0.029957782477140427 -0.22900652885437012 0.0358743853867054
0.03799241781234741 -0.26836544275283813 0.005178829655051231
0.027676168829202652 -0.1327534168958664 0.01628100872039795
0.030777737498283386 -0.28233402967453003 1.5610733032226562
0.025694554671645164 -0.06285399198532104 0.6777651906013489
0.13080890476703644 -0.05535055696964264 1.451310157775879
0.08171219378709793 -0.1872289776802063 1.4516339302062988
0.10840123891830444 -0.1894790530204773 1.3869861364364624
0.06801583617925644 -0.15720760822296143 1.3861325979232788
0.04564695805311203 -0.0657624900341034 0.3377242088317871
0.04524267092347145 -0.1715630292892456 0.19086116552352905
0.06893053650856018 -0.07631135731935501 0.13629674911499023
0.13129189610481262 0.11980094015598297 1.1449947357177734
0.12332670390605927 0.1483069658279419 1.1267122030258179
0.06290312111377716 -0.1489294171333313 0.7011606693267822
0.06254133582115173 -0.05384610593318939 0.614848256111145
0.07616004347801208 -0.2308037281036377 1.6672415733337402
0.11003923416137695 -0.23010104894638062 1.6236774921417236
0.06275764852762222 -0.13832688331604004 0.5092043280601501
0.09963254630565643 -0.18157602846622467 1.7011892795562744
0.1188083216547966 -0.18708018958568573 1.652547001838684
0.06514832377433777 -0.13603943586349487 1.128862738609314
0.07443947345018387 -0.11749497056007385 1.1089009046554565
0.0639563649892807 -0.18472865223884583 1.0766416788101196
0.08935771882534027 -0.2589411437511444 1.5586198568344116
0.09974599629640579 -0.1833200454711914 1.4781233072280884
0.08742120862007141 -0.22257015109062195 1.4700102806091309
0.16299623250961304 0.11542859673500061 1.1050504446029663
0.06806408613920212 -0.24128073453903198 1.261860966682434
0.05964105576276779 -0.2938244342803955 1.2096972465515137
0.07870255410671234 -0.1937873363494873 1.2090880870819092
0.11398391425609589 -0.09677770733833313 0.07182931154966354
0.08620739728212357 -0.19575946033000946 0.11325985938310623
0.10597939044237137 -0.1977626085281372 0.09224502742290497
0.13694104552268982 -0.16827809810638428 1.6760756969451904
0.07114829123020172 -0.26592686772346497 1.2616955041885376
0.12253744900226593 -0.0698501467704773 0.3729920983314514
0.10136765241622925 -0.11339284479618073 0.4357450604438782
0.12539127469062805 -0.09332545101642609 0.31686824560165405
0.11700481176376343 -0.20795270800590515 1.372990369796753
0.1042933464050293 -0.20309412479400635 1.3748732805252075
0.11799323558807373 -0.18017733097076416 1.338649034500122
0.125653937458992 0.0634993314743042 0.8955651521682739
0.10419341921806335 -0.11780710518360138 0.8141945004463196
0.1386430710554123 -0.09566792845726013 0.18176394701004028
0.1430630385875702 -0.12818804383277893 0.1946137547492981
0.12819832563400269 -0.1856628954410553 1.3361074924468994
0.18306319415569305 0.01380218006670475 1.3189882040023804
0.18868198990821838 0.042952053248882294 1.3049168586730957
0.039769455790519714 -0.3359825611114502 1.0959033966064453
0.16891436278820038 -0.07116441428661346 0.9612624645233154
0.1718059778213501 -0.12791255116462708 0.943403959274292
0.09975972026586533 -0.22465239465236664 1.1527884006500244
0.09841396659612656 -0.32347095012664795 1.0368213653564453
0.09854673594236374 -0.2859422266483307 1.0141878128051758
0.1326076090335846 -0.35262802243232727 1.0955994129180908
-0.23708482086658478 -0.019514281302690506 1.016647219657898
-0.2715495824813843 -0.07166657596826553 0.9726685881614685
-0.20686639845371246 -0.12726642191410065 1.0848718881607056
-0.2304711639881134 -0.1501794308423996 1.1217849254608154
-0.16423577070236206 -0.09939910471439362 1.1168473958969116
-0.1432407945394516 -0.061893634498119354 1.1548606157302856
-0.18910586833953857 -0.1576785296201706 0.8451218008995056
-0.08408499509096146 0.11427487432956696 1.1525204181671143
-0.08414912968873978 0.08177022635936737 1.2336997985839844
-0.1407821774482727 -0.26360884308815 1.0572710037231445
-0.14696872234344482 -0.162359818816185 0.9404703378677368
-0.13765673339366913 -0.08676131814718246 0.21468457579612732
-0.11526802182197571 -0.13612967729568481 0.23047420382499695
-0.09270592778921127 -0.03468506783246994 0.446372389793396
-0.14585411548614502 -0.19677039980888367 0.842646062374115
-0.09608519822359085 -0.0908200666308403 0.5872547626495361
-0.09886424988508224 -0.1275121569633484 0.6487665772438049
-0.09089487791061401 -0.06527504324913025 0.6553890705108643
-0.1010664775967598 -0.04935363680124283 1.112363338470459
-0.10953865200281143 -0.11713787913322449 1.1251598596572876
0.0030002128332853317 0.11623077094554901 1.299058437347412
-0.10930740088224411 -0.02365560457110405 0.831336498260498
-0.07170037180185318 -0.14696943759918213 0.24811868369579315
-0.09814347326755524 -0.09095679223537445 1.2170748710632324
-0.08734196424484253 -0.08275726437568665 1.1448884010314941
-0.07353817671537399 -0.12704119086265564 0.39215144515037537
-0.05104576051235199 -0.1701342910528183 1.6887435913085938
-0.05916266888380051 -0.2004491686820984 1.6708251237869263
-0.02267305552959442 -0.23391413688659668 1.6698682308197021
-0.04422157257795334 -0.2629294693470001 1.6264044046401978
-0.06686218082904816 -0.2443409264087677 1.5390515327453613
-0.05339682847261429 -0.10365138202905655 0.28579819202423096
-0.029438966885209084 -0.1389998197555542 0.7244880199432373
-0.023137670010328293 -0.11102902889251709 0.21588322520256042
-0.04058462753891945 -0.1407434046268463 0.2182759940624237
-0.05125615373253822 -0.045733511447906494 0.15796977281570435
-0.055985063314437866 0.06492210924625397 0.9730761051177979
-0.0030133742839097977 -0.1641114503145218 1.728047251701355
-0.019039787352085114 -0.17470316588878632 1.7149635553359985
0.06938640028238297 0.06488324701786041 1.2611497640609741
-0.012101029977202415 0.06413803994655609 1.2705110311508179
0.05453578382730484 0.04079483821988106 1.3062622547149658
0.017002273350954056 -0.1104106605052948 1.2478084564208984
0.07107479125261307 0.10927297919988632 1.3192048072814941
0.05643012374639511 0.10102008283138275 1.1718454360961914
0.12192176282405853 0.1397242248058319 1.2524038553237915
0.09061531722545624 -0.05622320622205734 1.648162841796875
0.08786025643348694 0.09268230199813843 1.1725176572799683
0.04265206307172775 -0.2184956967830658 0.8996262550354004
0.017147941514849663 -0.1270366758108139 0.20789726078510284
0.031361546367406845 -0.14747905731201172 0.14963474869728088
0.019060168415308 -0.1306711882352829 0.6600666642189026
0.043167389929294586 -0.015472210012376308 1.081575632095337
0.03568504750728607 -0.04979334771633148 0.5202071070671082
0.12600965797901154 0.010675163008272648 1.3501572608947754
0.07471385598182678 -0.23702123761177063 1.3745131492614746
0.1165667176246643 -0.06290144473314285 1.6099028587341309
0.10285928845405579 -0.12195909023284912 1.5609560012817383
0.10466884076595306 -0.10119765996932983 1.5447142124176025
0.10007956624031067 -0.1831570714712143 1.7448902130126953
0.05700765922665596 -0.257027268409729 1.3149621486663818
0.09780764579772949 -0.03408793359994888 0.4398466944694519
0.06592117249965668 -0.020857807248830795 0.4362249970436096
0.08492196351289749 -0.04929507523775101 0.28224456310272217
0.10639625042676926 -0.05759496986865997 0.25227272510528564
0.11982346326112747 -0.17719365656375885 1.4704155921936035
0.10829408466815948 -0.1868971437215805 1.4768129587173462
0.12061911821365356 -0.18043354153633118 1.4618364572525024
0.09645724296569824 -0.05523056536912918 0.7221008539199829
0.09741152077913284 -0.09945192188024521 0.5877678990364075
0.1352277398109436 0.022448990494012833 0.936098039150238
0.11040965467691422 -0.10367535799741745 1.0871145725250244
0.10190001130104065 -0.15378263592720032 1.0674450397491455
0.11659710109233856 -0.16587455570697784 1.006955623626709
0.13760533928871155 -0.15640047192573547 1.5851531028747559
0.13869822025299072 -0.14824260771274567 1.509128451347351
0.05288902670145035 -0.2779211103916168 1.196028232574463
0.1587398499250412 -0.0781526267528534 1.5148552656173706
0.150899276137352 -0.11181946098804474 1.5437716245651245
0.1331787109375 -0.13819348812103271 -0.015877801924943924
0.14021344482898712 -0.21341067552566528 -0.005004722625017166
0.16106438636779785 -0.08682721853256226 1.480653166770935
0.16372555494308472 -0.0671573057770729 1.4586727619171143
0.1671522855758667 -0.062003109604120255 1.4296408891677856
0.1686381846666336 -0.04475642740726471 1.4223510026931763
0.03790878877043724 -0.34181493520736694 1.1137913465499878
0.16008856892585754 -0.1574859321117401 0.8176606297492981
0.0580536387860775 -0.3246777355670929 1.1286985874176025
0.05013193562626839 -0.34430739283561707 1.111425757408142
0.19209767878055573 -0.11485937237739563 0.8267172574996948
0.18861961364746094 -0.09204046428203583 0.8071334362030029
0.20129847526550293 -0.057417742908000946 0.814152181148529
-0.19112274050712585 -0.15411315858364105 1.1435757875442505
-0.142536923289299 -0.185793936252594 1.2252919673919678
-0.1488012671470642 -0.1783793717622757 1.2080978155136108
-0.1394263654947281 -0.17387643456459045 1.2196309566497803
-0.13539713621139526 -0.17752605676651 1.2371220588684082
-0.20040053129196167 -0.0020805727690458298 0.8337522149085999
-0.107292540371418 -0.15029576420783997 1.274601936340332
-0.146699920296669 -0.08964560925960541 1.0742533206939697
-0.06619542837142944 -0.06318646669387817 1.549833059310913
-0.12797951698303223 -0.14793214201927185 1.1856343746185303
-0.13805976510047913 -0.1253470927476883 1.1414939165115356
-0.051454685628414154 -0.03433997929096222 1.4657764434814453
-0.04426053166389465 -0.02735339105129242 1.4344443082809448
-0.13740858435630798 -0.1554490625858307 1.0218021869659424
-0.10257481783628464 -0.173851877450943 0.9817212820053101
-0.10906705260276794 -0.046562064439058304 0.7464026212692261
0.00458599254488945 0.08152657002210617 1.352043867111206
-0.0005590133368968964 -0.04760640114545822 1.6374592781066895
-0.033693525940179825 -0.02710399404168129 -0.007762850262224674
-0.04700009152293205 -0.014150377362966537 -0.023970700800418854
-0.08380299061536789 0.024611687287688255 0.854421079158783
-0.007390676066279411 0.09581486135721207 0.8586297035217285
-0.05612954497337341 -0.025071248412132263 0.8297427892684937
0.060526587069034576 -0.005588406231254339 1.3761470317840576
-0.010617362335324287 -0.09622550010681152 0.756828784942627
-0.0030608363449573517 -0.2685545086860657 1.5432957410812378
-0.011881235986948013 0.016650740057229996 0.874933123588562
-0.006357308477163315 -0.024573272094130516 0.849605917930603
0.0007509262068197131 -0.11602893471717834 0.8502473831176758
-0.07897292822599411 -0.16680581867694855 0.8571723103523254
-0.005117753520607948 -0.22638759016990662 0.8502594828605652
0.004549339413642883 -0.10840296745300293 0.8109195828437805
-0.007673883344978094 -0.1612762063741684 0.862052321434021
0.042195841670036316 -0.11601141095161438 1.4683568477630615
0.007732770871371031 -0.03533586114645004 0.8357331156730652
0.004788927733898163 -0.04819444566965103 0.8063635230064392
0.06386823952198029 -0.11536581814289093 1.541081428527832
0.06515078246593475 -0.106236532330513 1.5202802419662476
0.016419095918536186 -0.12321604043245316 0.8291311264038086
0.11633167415857315 0.05784093216061592 0.8228422999382019
0.02269034832715988 -0.09695933759212494 0.20234060287475586
0.023740151897072792 -0.0341075100004673 0.7862576246261597
0.11059137433767319 0.05830341577529907 1.2818413972854614
0.05905386433005333 -0.12016097456216812 0.3298443555831909
0.05230620503425598 -0.10771752148866653 0.2649247646331787
0.06864612549543381 -0.12875017523765564 0.28204652667045593
0.057383470237255096 -0.17432436347007751 0.2323598712682724
0.14031675457954407 -0.061023566871881485 1.4952201843261719
0.059700094163417816 -0.016238460317254066 0.8217488527297974
0.08073797821998596 -0.03624110296368599 0.7914881706237793
0.08170872926712036 -0.16459736227989197 1.2200056314468384
0.09010154008865356 -0.12888634204864502 0.3794134557247162
0.13934189081192017 -0.10276488959789276 1.5798861980438232
0.07963654398918152 -0.15451493859291077 1.276033639907837
0.09876332432031631 -0.13145525753498077 0.281691312789917
0.1371583342552185 0.11040660738945007 1.2932193279266357
0.08851056545972824 -0.12710873782634735 1.2038917541503906
0.11102382838726044 -0.07995861768722534 0.13681432604789734
0.16934864223003387 0.12501341104507446 1.222802996635437
0.09489931166172028 -0.06103042885661125 0.18041417002677917
0.09756138175725937 -0.18493545055389404 0.20260067284107208
0.16716238856315613 -0.0036601165775209665 1.3587124347686768
0.1274067759513855 -0.19301952421665192 1.4097448587417603
0.12826284766197205 -0.18848295509815216 1.3808529376983643
0.12747085094451904 -0.19172537326812744 1.4092440605163574
0.13999398052692413 -0.15587694942951202 1.3565469980239868
0.06460782885551453 -0.3003306984901428 1.1747127771377563
0.04677436500787735 -0.309134304523468 1.1696021556854248
0.1798805445432663 0.03687726706266403 1.2867263555526733
0.1949366182088852 0.07807428389787674 1.2438037395477295
0.18665602803230286 0.07967570424079895 1.2154587507247925
0.09351513534784317 -0.2369574010372162 1.2143924236297607
0.0780087560415268 -0.27117982506752014 1.2305964231491089
0.1481490582227707 -0.18131887912750244 0.8340749740600586
0.08678821474313736 -0.28841686248779297 1.237445592880249
0.07690346240997314 -0.3232528567314148 1.1353108882904053
0.07559077441692352 -0.26196831464767456 1.1117970943450928
0.07082241028547287 -0.3046717047691345 1.1036038398742676
0.1475844383239746 -0.3297990560531616 1.1253445148468018
0.13236576318740845 -0.30560302734375 0.9942492246627808
0.13049349188804626 -0.354525625705719 1.0478276014328003
-0.1437545120716095 -0.26442059874534607 1.0958633422851562
-0.13244786858558655 -0.21561101078987122 1.1642624139785767
-0.1388026624917984 -0.2104312628507614 1.184694528579712
-0.1313333660364151 -0.2518554627895355 1.1044954061508179
-0.06470144540071487 -0.03921244665980339 1.4920235872268677
-0.07187316566705704 -0.04577089101076126 1.4750442504882812
-0.07571368664503098 -0.02041802741587162 1.444242000579834
-0.07571998238563538 -0.1652638018131256 1.6571046113967896
-0.08902942389249802 -0.18738031387329102 1.5734379291534424
-0.11157092452049255 -0.10329743474721909 0.27636799216270447
-0.12278259545564651 -0.07652422785758972 0.8242049217224121
-0.11781810224056244 -0.10431286692619324 0.8055095672607422
-0.0702069103717804 0.1329289823770523 1.1354013681411743
-0.08785100281238556 -0.19766706228256226 1.2195701599121094
-0.10579894483089447 -0.04012332111597061 0.7994964122772217
-0.028262611478567123 -0.18509238958358765 1.6943079233169556
-0.10230430960655212 -0.16037297248840332 1.1149752140045166
-0.07126713544130325 -0.21642790734767914 1.0921261310577393
-0.014795796014368534 0.09385591745376587 1.2155957221984863
0.05329569801688194 0.09173768758773804 1.205301284790039
-0.06284911930561066 -0.0724753737449646 1.164168357849121
-0.043955378234386444 -0.1167408674955368 0.8457795977592468
-0.06173575669527054 -0.20749229192733765 1.033734917640686
-0.05138170346617699 -0.005452699959278107 1.0707650184631348
0.014207052066922188 -0.2693461775779724 1.631954550743103
-0.0054457481019198895 -0.10193939507007599 0.737546443939209
0.007579358294606209 0.009419226087629795 1.3583736419677734
0.037329837679862976 -0.21102121472358704 -0.04193158447742462
0.15105374157428741 0.15106098353862762 1.1758878231048584
0.11777625977993011 0.09104229509830475 1.2160674333572388
0.10363984107971191 0.16174015402793884 1.1947147846221924
0.0884632095694542 0.08701933175325394 0.8441842198371887
0.1099008321762085 -0.09088779240846634 -0.03695392981171608
0.09949828684329987 -0.03850623965263367 0.8096272349357605
0.09344392269849777 -0.12542614340782166 0.33413439989089966
0.10827681422233582 -0.23825040459632874 1.351442575454712
0.08064388483762741 -0.2639808654785156 1.2805081605911255
0.18593718111515045 -0.00251797866076231 0.8109881281852722
0.20250466465950012 -0.05488041788339615 0.8769208192825317
0.13306505978107452 -0.3356393277645111 1.0092625617980957
-0.24094797670841217 -0.14581719040870667 1.084878921508789
-0.2072523981332779 -0.08542381227016449 0.8950387239456177
-0.21496489644050598 -0.07839515805244446 0.8362185955047607
-0.07865585386753082 -0.033338867127895355 1.4360753297805786
-0.07796080410480499 0.022723233327269554 1.3325474262237549
-0.07984609156847 -0.13239003717899323 1.511451005935669
-0.14323081076145172 -0.07331474125385284 1.0399824380874634
-0.1470114290714264 -0.1112181693315506 1.0764498710632324
-0.07882370799779892 -0.12956839799880981 1.512656331062317
-0.0805121660232544 -0.14090567827224731 1.4967730045318604
-0.08113058656454086 -0.135192409157753 1.5066335201263428
-0.08119572699069977 -0.13828980922698975 1.5083112716674805
-0.08708324283361435 -0.14924752712249756 1.495100498199463
-0.08540412783622742 -0.1379196047782898 0.11354822665452957
-0.08344324678182602 -0.2272958755493164 1.612999677658081
-0.028498034924268723 -0.08262777328491211 1.2176374197006226
-0.03021218627691269 -0.15310397744178772 0.026054318994283676
-0.03716077283024788 -0.10133981704711914 1.2522826194763184
-0.006512647494673729 -0.07884696871042252 1.1719424724578857
-0.043883852660655975 0.09438836574554443 0.9306958913803101
0.02865026891231537 -0.19462643563747406 1.701291799545288
-0.01213254127651453 -0.09345419704914093 0.6858345866203308
0.028505966067314148 0.021213827654719353 1.3290852308273315
0.00312216579914093 -0.1993984431028366 0.9905714988708496
-0.04152105748653412 -0.24754071235656738 1.179292917251587
0.06171387434005737 0.0719483271241188 1.2355527877807617
0.040440090000629425 -0.10401283949613571 0.13108347356319427
0.06566732376813889 -0.1843993067741394 0.976838231086731
0.12412833422422409 -0.17734557390213013 0.9439268112182617
0.11837409436702728 -0.09118317067623138 1.5171444416046143
0.04690117388963699 -0.21606111526489258 1.1323888301849365
0.03209966421127319 -0.08595617860555649 1.1651753187179565
0.09452664852142334 -0.057683102786540985 1.0884853601455688
0.08993183076381683 0.05689375475049019 0.9484521150588989
0.10602547228336334 -0.30204278230667114 -0.04164844751358032
0.08136220276355743 -0.2837216556072235 -0.05773609131574631
0.13572202622890472 -0.2712635397911072 -0.05072101950645447
0.11818531900644302 -0.17689575254917145 0.17951327562332153
0.12403390556573868 -0.19114956259727478 1.4078083038330078
0.12637993693351746 -0.19123421609401703 1.4079269170761108
0.07981739193201065 -0.2190980613231659 1.2889978885650635
0.07870467007160187 -0.2532043159008026 1.2701435089111328
0.19619719684123993 0.11293819546699524 1.1655241250991821
0.18812274932861328 0.10564494878053665 1.1230013370513916
0.19751664996147156 0.11020560562610626 1.1210978031158447
0.1416117548942566 -0.29606977105140686 0.9957512021064758
0.13994495570659637 -0.3510361313819885 0.9886276721954346
0.1506374478340149 -0.3701416254043579 0.9810930490493774
-0.20287874341011047 -0.06118720769882202 1.0394638776779175
-0.14791719615459442 -0.23953557014465332 1.1420555114746094
-0.08309773355722427 -0.10846874117851257 0.30998295545578003
-0.03831978887319565 0.12622705101966858 1.109532356262207
-0.11397599428892136 -0.1652912199497223 1.061143159866333
-0.028414351865649223 -0.04500104486942291 0.8387395143508911
-0.040115829557180405 -0.0398184210062027 0.7949419021606445
-0.03130190074443817 -0.09279860556125641 0.803674578666687
-0.0030333450995385647 -0.02545570768415928 1.1171168088912964
0.023336287587881088 -0.2090090960264206 0.8349992036819458
0.08448711782693863 0.015145030803978443 0.8404092788696289
0.12943723797798157 0.097176194190979 1.1870195865631104
0.13758793473243713 -0.1292983740568161 1.5173816680908203
0.14594335854053497 -0.10375422984361649 1.5032322406768799
0.1891402304172516 -0.12372187525033951 0.8802200555801392
-0.1521407961845398 -0.24069860577583313 1.1092698574066162
-0.07271125912666321 -0.09173561632633209 1.55498206615448
-0.010864372365176678 0.12630853056907654 1.14890456199646
-0.04953249171376228 -0.07316605001688004 1.5882564783096313
-0.029909811913967133 -0.10208344459533691 1.5665624141693115
-0.0025448091328144073 -0.10777014493942261 1.5425341129302979
0.024511374533176422 -0.21448883414268494 1.0399552583694458
0.03935358673334122 -0.23550452291965485 1.2201106548309326
0.04988379403948784 -0.19325733184814453 0.10965465009212494
0.0759415328502655 -0.20473963022232056 1.1811459064483643
0.08571285009384155 -0.16819274425506592 1.1376380920410156
0.15380820631980896 -0.04707564413547516 1.4355273246765137
0.14551794528961182 -0.02121497318148613 1.45637845993042
0.09349319338798523 -0.1276257187128067 1.1576035022735596
0.09961312264204025 -0.07581573724746704 0.7986390590667725
0.03942669928073883 -0.29108741879463196 1.198955774307251
0.17221133410930634 0.003709135577082634 1.3802478313446045
-0.06165732815861702 0.002028629183769226 1.398728370666504
-0.07924667745828629 -0.03237172216176987 0.3201061189174652
0.007466583512723446 -0.10238072276115417 0.6926361322402954
0.06321761757135391 -0.26904216408729553 1.611262559890747
-0.07887879759073257 0.11448385566473007 1.1923787593841553
-0.12968268990516663 -0.1803264319896698 1.2418137788772583
-0.039819762110710144 -0.07098505645990372 0.3571159243583679
0.06973935663700104 -0.0013778838329017162 1.4999327659606934
0.05740344524383545 -0.28327760100364685 -0.04097915440797806
0.12201559543609619 -0.18002662062644958 1.4622573852539062
0.12103977799415588 -0.179909348487854 1.4608691930770874
0.10958847403526306 -0.19163444638252258 1.372428059577942
0.11185633391141891 -0.17217297852039337 0.14349773526191711
0.1280897855758667 -0.1379680186510086 0.12069396674633026
0.08941125869750977 -0.31956130266189575 1.1802997589111328
-0.17798063158988953 -0.15830473601818085 0.9060144424438477
-0.06875574588775635 -0.01616346649825573 1.4192173480987549
-0.06705643236637115 -0.018354756757616997 1.4204902648925781
-0.07257004082202911 -0.020680565387010574 1.4196518659591675
-0.03249745070934296 -0.0878736674785614 0.15069283545017242
-0.027691826224327087 -0.09894653409719467 0.8440558910369873
0.02795581705868244 -0.15615780651569366 0.09804610162973404
0.10693895071744919 -0.34047380089759827 1.134361743927002
0.11959393322467804 -0.22010281682014465 1.5779333114624023
0.11063824594020844 -0.10162650048732758 0.7485647201538086
0.16768261790275574 -0.039807822555303574 1.4068502187728882
0.17027094960212708 -0.015377083793282509 1.384424090385437
0.03956468775868416 -0.1228017807006836 -0.04541582241654396
0.062199823558330536 -0.6582541465759277 1.0198904275894165
0.061385609209537506 -0.6315258145332336 0.9984480738639832
0.05894209071993828 -0.6418607234954834 1.001202940940857
0.054282523691654205 -0.6384119987487793 1.008355975151062
0.05513999983668327 -0.6576670408248901 1.010673999786377
0.06027725338935852 -0.6509637832641602 1.022761583328247
0.09520184248685837 -0.5276997089385986 0.9967724680900574
0.08156988024711609 -0.5320679545402527 0.9924968481063843
0.08805520087480545 -0.5495401620864868 1.0001333951950073
0.0869084894657135 -0.5573291778564453 1.0033081769943237
0.10846615582704544 -0.39511290192604065 0.9300615191459656
