-0.30772000551223755 0.09051823616027832 1.3373304605484009
-0.2066713273525238 0.07189526408910751 1.1336944103240967
-0.18887697160243988 0.07107624411582947 1.160117506980896
-0.2253580391407013 0.09513663500547409 1.4351357221603394
-0.21385720372200012 0.057898860424757004 1.2779185771942139
0.259678453207016 -0.029494985938072205 1.1659965515136719
0.1763414740562439 0.016532085835933685 1.4454824924468994
0.31806284189224243 -0.007466772571206093 1.2081451416015625
0.3105214834213257 -0.032525140792131424 1.20297110080719
0.3181826174259186 -0.013371732085943222 1.137810468673706
0.34225398302078247 -0.012841235846281052 1.3242123126983643
0.35068413615226746 -0.05023965239524841 1.2466721534729004
0.41737863421440125 -0.04253360256552696 1.0900708436965942
0.36589860916137695 -0.006863102316856384 1.4799578189849854
0.4227694272994995 -0.07684920728206635 1.212420105934143
0.4623124897480011 -0.0438077449798584 1.4259552955627441
0.5682256817817688 -0.14413101971149445 0.8902297019958496
0.5894874930381775 -0.14202629029750824 0.8715671300888062
0.6010685563087463 -0.15969617664813995 0.7575235366821289
0.6117511987686157 -0.16638335585594177 0.6783907413482666
0.5983388423919678 -0.18261076509952545 0.6938321590423584
0.5517014861106873 -0.0951024517416954 1.1712979078292847
0.6196557879447937 -0.14779341220855713 0.7591241002082825
0.6269069314002991 -0.15730048716068268 0.6846675872802734
0.5548025369644165 -0.1912582367658615 0.9522216320037842
0.5453713536262512 -0.1989624947309494 1.000842571258545
0.535017192363739 -0.21854373812675476 0.9730899930000305
0.5674021244049072 -0.2073795646429062 0.9010578989982605
0.6464056968688965 -0.15218034386634827 0.786281168460846
0.6550538539886475 -0.16724000871181488 0.701812207698822
0.614849328994751 -0.1519353985786438 0.9613825082778931
0.5734888315200806 -0.19596067070960999 0.9456130862236023
0.6033450365066528 -0.21785618364810944 0.8901956677436829
0.5665690302848816 -0.21519242227077484 0.9550760388374329
0.5839001536369324 -0.247538223862648 0.8837994337081909
0.5750578045845032 -0.17647527158260345 1.0204312801361084
0.6192783117294312 -0.19404292106628418 0.9680875539779663
0.6426149606704712 -0.23847894370555878 0.7279344201087952
0.6277780532836914 -0.2701629102230072 0.6679708957672119
0.6771158576011658 -0.19987083971500397 0.6706286072731018
0.620668351650238 -0.14293301105499268 1.0396943092346191
0.6464873552322388 -0.17843212187290192 0.8237755298614502
0.6226599216461182 -0.25197333097457886 0.7985407114028931
0.6451394557952881 -0.24337315559387207 0.7878518104553223
0.6780545711517334 -0.23800453543663025 0.7024598121643066
0.6777664422988892 -0.16838717460632324 0.9727456569671631
0.6985589265823364 -0.1669880747795105 0.9416630864143372
0.7096880078315735 -0.2155711054801941 0.7652037143707275
0.7008109092712402 -0.21972905099391937 0.7859029769897461
0.6131145358085632 -0.12117033451795578 1.1427499055862427
0.707633376121521 -0.12272641062736511 1.0931793451309204
0.6680788993835449 -0.14048904180526733 1.0910823345184326
0.6530207991600037 -0.09731201827526093 1.286392331123352
0.6535477638244629 -0.10439993441104889 1.2389376163482666
0.6513722538948059 -0.10055118054151535 1.2351130247116089
0.6523162126541138 -0.12079046666622162 1.2195008993148804
0.6898221969604492 -0.11975079774856567 1.1528011560440063
0.6781253814697266 -0.1267288327217102 1.174317717552185
-0.4664378762245178 0.09646683931350708 0.8677453994750977
-0.4679758548736572 0.07409761101007462 0.88460373878479
-0.45960330963134766 0.05064323544502258 0.8555904626846313
-0.2511686682701111 -0.05576639249920845 0.5875108242034912
-0.2461889088153839 -0.10313382744789124 0.552449643611908
-0.3176332712173462 -0.03588906303048134 0.7768962979316711
-0.31996777653694153 -0.049681734293699265 0.7210237979888916
-0.33085253834724426 -0.07487569749355316 0.7631726264953613
-0.30339834094047546 -0.08315747231245041 0.6504901647567749
-0.26950982213020325 -0.0656643733382225 0.6637497544288635
-0.2571258544921875 -0.09920637309551239 0.6325187683105469
-0.3732209801673889 0.005772195756435394 0.9142577648162842
-0.35041579604148865 -0.02818768471479416 0.8710746765136719
-0.36225977540016174 -0.00871165469288826 0.8682492971420288
-0.28765830397605896 -0.08538488298654556 0.7026823163032532
-0.280100017786026 -0.06044333800673485 0.7016544342041016
-0.3225902318954468 -0.05937660485506058 0.7994170188903809
-0.30508312582969666 -0.045110080391168594 0.7495424747467041
-0.4075697660446167 0.0952085554599762 1.053521990776062
-0.3040112257003784 0.04682266339659691 0.9059194922447205
-0.2772115468978882 0.03553999960422516 0.9496383666992188
-0.27162444591522217 0.05687859654426575 0.9465583562850952
-0.37022602558135986 0.05516473576426506 1.0943892002105713
-0.306242436170578 0.05893055722117424 1.0384939908981323
-0.28129464387893677 0.061988603323698044 0.9813605546951294
-0.27741098403930664 0.04169240966439247 0.9734098315238953
-0.3511063754558563 0.09432657808065414 1.3373610973358154
-0.28065022826194763 0.08020631968975067 1.0711382627487183
-0.2743867337703705 0.05356673151254654 1.1184639930725098
-0.25161272287368774 0.0805833488702774 1.0760396718978882
-0.21030667424201965 0.05745074152946472 1.1260132789611816
-0.2217501997947693 0.07435744255781174 1.0924715995788574
-0.1809217780828476 0.06180231273174286 1.1888536214828491
0.47721976041793823 -0.06766025722026825 1.0892695188522339
0.42728957533836365 -0.030048739165067673 1.5932776927947998
0.5490747690200806 -0.10577050596475601 1.055685043334961
0.5032263398170471 -0.0739540383219719 1.0327961444854736
0.5174451470375061 -0.11521373689174652 1.030846118927002
0.5310985445976257 -0.09941139072179794 1.02276611328125
0.49829715490341187 -0.0713103711605072 1.2329394817352295
0.5241302251815796 -0.15027301013469696 1.059306025505066
0.5419812798500061 -0.166585311293602 1.0037661790847778
0.524036169052124 -0.1865798979997635 1.0270932912826538
0.5298317670822144 -0.18986745178699493 0.9961903691291809
0.5517109036445618 -0.18066686391830444 0.9408042430877686
0.6004834771156311 -0.20317725837230682 0.7360318899154663
0.6148502230644226 -0.20916609466075897 0.6834259033203125
0.6428465843200684 -0.20034806430339813 0.6729101538658142
0.5745612382888794 -0.1369083821773529 1.0371043682098389
0.5892151594161987 -0.14146123826503754 0.9982239007949829
0.5685560703277588 -0.19746612012386322 0.975823163986206
0.5643189549446106 -0.20450077950954437 0.9347415566444397
0.5509823560714722 -0.23505793511867523 0.905173122882843
0.5187392830848694 -0.09733810275793076 1.3493781089782715
0.6378620862960815 -0.16693344712257385 0.9688966274261475
0.6664693355560303 -0.1815878450870514 0.9232664108276367
0.6196103692054749 -0.15734542906284332 1.0981345176696777
0.6995001435279846 -0.2512204349040985 0.7487871050834656
0.7055550217628479 -0.21189025044441223 0.7112041711807251
0.6601197719573975 -0.19328752160072327 0.9545369148254395
0.6669760346412659 -0.2108391672372818 0.9023453593254089
0.7340535521507263 -0.15492860972881317 1.085354208946228
0.689284086227417 -0.19020400941371918 1.047526478767395
0.7117340564727783 -0.17087236046791077 1.0397003889083862
0.7308492660522461 -0.21124327182769775 0.9078741669654846
0.7304812669754028 -0.18850606679916382 0.9143570065498352
-0.5083774924278259 0.13402917981147766 1.0309902429580688
-0.26543861627578735 -0.0470348484814167 0.5273706316947937
-0.38159871101379395 0.0011754967272281647 0.8500115275382996
-0.36116379499435425 -0.022320382297039032 0.8235788345336914
-0.40291136503219604 0.034702371805906296 0.8907783031463623
-0.5192100405693054 0.14159822463989258 1.3479211330413818
-0.3832195997238159 0.06979679316282272 0.9249460697174072
-0.36851173639297485 0.04668182507157326 0.8966646194458008
-0.21215200424194336 -0.062005043029785156 0.5701504945755005
-0.19600670039653778 -0.03566579520702362 0.5675051808357239
-0.3354843854904175 -0.007903985679149628 0.8715078830718994
-0.3206198811531067 -0.03207066282629967 0.8209513425827026
-0.33201587200164795 -0.026205889880657196 0.8647844195365906
-0.49875393509864807 0.11875119805335999 1.3022780418395996
-0.44890084862709045 0.12662824988365173 1.1958861351013184
-0.23255407810211182 0.0916299819946289 1.196502923965454
0.1624768227338791 0.006149636581540108 1.2509779930114746
0.14874844253063202 -0.008037731051445007 1.2598687410354614
0.2614462375640869 -0.0329127237200737 1.2085192203521729
0.2697851061820984 -0.019078396260738373 1.1329630613327026
0.3344101905822754 -0.018534768372774124 1.25545334815979
0.40319210290908813 -0.04642314463853836 1.1385045051574707
0.39613378047943115 -0.06171007454395294 1.1230626106262207
0.4476833939552307 -0.07552774250507355 1.2817600965499878
0.46281319856643677 -0.08531990647315979 1.364598274230957
0.49451524019241333 -0.10512188076972961 1.178165078163147
0.5480565428733826 -0.22452175617218018 0.9079285264015198
0.5835622549057007 -0.21646131575107574 0.8578551411628723
0.5766265392303467 -0.2503093481063843 0.8160375952720642
0.5980654358863831 -0.23031684756278992 0.7595187425613403
0.5765106678009033 -0.15224885940551758 1.102266788482666
0.6345886588096619 -0.27715545892715454 0.691475510597229
-0.4530279040336609 0.05973789840936661 0.8785096406936646
-0.24940556287765503 -0.019758593291044235 0.7251601219177246
-0.22390590608119965 -0.033408574759960175 0.6699330806732178
-0.5310413837432861 0.14873971045017242 1.4560476541519165
-0.27393245697021484 0.07272697240114212 1.058933973312378
-0.259247362613678 0.06976331770420074 1.0287173986434937
-0.2473427951335907 0.061711329966783524 1.06313157081604
-0.2042059600353241 0.07011498510837555 1.1029142141342163
-0.1526007205247879 0.051727719604969025 1.2595887184143066
-0.16170449554920197 0.03460768610239029 1.2620738744735718
0.3806135654449463 -0.05054241418838501 1.4122819900512695
0.4030874967575073 -0.057149652391672134 1.4659217596054077
0.5734447836875916 -0.12336409837007523 1.066892385482788
0.5733911991119385 -0.12220153957605362 0.9894663095474243
0.5219505429267883 -0.12683159112930298 1.176203966140747
0.5653778314590454 -0.18850979208946228 0.8827188611030579
0.5894843339920044 -0.1401769071817398 1.1476101875305176
0.5749943852424622 -0.12038794904947281 1.234171986579895
0.6657460331916809 -0.1656070500612259 1.0700809955596924
0.6659046411514282 -0.18248793482780457 1.0055813789367676
0.684753954410553 -0.22943992912769318 0.8380424380302429
0.6445525884628296 -0.24890954792499542 0.7504423260688782
0.7033511400222778 -0.2102797031402588 0.8282626271247864
-0.26375091075897217 -0.06623975932598114 0.5575099587440491
-0.22072356939315796 -0.04312716796994209 0.5548251867294312
-0.322202205657959 -0.0410032719373703 0.7715192437171936
-0.261560320854187 -0.06675679236650467 0.619644284248352
-0.21953925490379333 -0.06592737883329391 0.6146054267883301
-0.32443004846572876 0.028413262218236923 0.9291664958000183
-0.2531636357307434 0.06632126867771149 1.2086690664291382
-0.2399674355983734 0.06355428695678711 1.152592658996582
-0.23919376730918884 0.07519806921482086 1.1260390281677246
-0.21725288033485413 0.054627470672130585 1.2026686668395996
-0.19150936603546143 0.041050925850868225 1.1363670825958252
-0.18624728918075562 0.05563107132911682 1.124291181564331
0.27441301941871643 -0.0046525755897164345 1.1381951570510864
0.5053324699401855 -0.12490163743495941 1.1010940074920654
0.5377886295318604 -0.1571110337972641 1.1013352870941162
0.5504193902015686 -0.17313794791698456 1.0571106672286987
0.6535088419914246 -0.22389326989650726 0.887387216091156
-0.3268113136291504 -0.021918553858995438 0.6217445135116577
-0.3173239231109619 -0.05151773989200592 0.5924098491668701
-0.3109017312526703 -0.0396992452442646 0.5877129435539246
-0.3514101505279541 0.03915755823254585 0.8130511045455933
-0.30302637815475464 -0.023794014006853104 0.7897331118583679
-0.31615132093429565 -0.022941526025533676 0.8422607779502869
-0.18211930990219116 0.04845006763935089 1.222630500793457
-0.1498127281665802 0.04226585477590561 1.3321282863616943
-0.13693451881408691 0.04726244509220123 1.3209264278411865
0.149370938539505 -0.017020953819155693 1.2728708982467651
0.19595593214035034 0.017720654606819153 1.66556978225708
0.36555367708206177 0.005799874663352966 1.6107455492019653
0.38751065731048584 -0.01355147734284401 1.6300296783447266
0.4441724419593811 -0.031506285071372986 1.5613259077072144
0.6085801124572754 -0.08789099752902985 1.3092461824417114
0.6341767311096191 -0.09026753902435303 1.345926284790039
0.6359992027282715 -0.07445995509624481 1.2823700904846191
0.6395962834358215 -0.10085918754339218 1.2679057121276855
0.6650084853172302 -0.08603445440530777 1.2832577228546143
-0.500636637210846 0.11677967011928558 0.96403568983078
-0.4857788681983948 0.1265428364276886 0.9437918663024902
-0.5562470555305481 0.17173677682876587 1.2102359533309937
-0.5336015820503235 0.17159739136695862 1.199641227722168
-0.26150256395339966 -0.011475428938865662 0.5732699036598206
-0.2431226223707199 -0.028230611234903336 0.5307232737541199
-0.29352641105651855 -0.06222975254058838 0.658220112323761
-0.32605209946632385 0.024708766490221024 0.7646790146827698
-0.39264875650405884 0.08285348117351532 0.9764440059661865
-0.5233755111694336 0.15265589952468872 1.507085919380188
0.2681734561920166 -0.006525387987494469 1.2037625312805176
0.2833073139190674 0.005825759842991829 1.4355278015136719
0.4223954379558563 -0.05231284350156784 1.157238483428955
0.40192005038261414 -0.02509722113609314 1.2831895351409912
0.4657660126686096 -0.07611344754695892 1.090736746788025
0.48494356870651245 -0.09065085649490356 1.0411052703857422
0.46786659955978394 -0.10664345324039459 1.12361478805542
0.5809628963470459 -0.1624155044555664 0.8378227353096008
0.5886806845664978 -0.1818840652704239 0.8261450529098511
0.5891718864440918 -0.22446081042289734 0.8982276320457458
0.6498439908027649 -0.1488194763660431 1.0672378540039062
0.6902908682823181 -0.174214169383049 0.8455517292022705
-0.2837151885032654 -0.05199383944272995 0.5620303153991699
-0.23683343827724457 -0.054356545209884644 0.523796021938324
-0.2482728213071823 0.08133280277252197 1.0314323902130127
-0.21454954147338867 0.08272840082645416 1.122525691986084
-0.18897542357444763 0.05188986659049988 1.1771535873413086
0.6609753370285034 -0.1705016940832138 0.879555344581604
0.6941693425178528 -0.22508667409420013 0.6450682282447815
0.7013077139854431 -0.22835873067378998 0.6609581112861633
-0.34632810950279236 -0.02714446932077408 0.8067758083343506
-0.27167439460754395 -0.022496357560157776 0.7402215600013733
-0.25639912486076355 -0.04651309922337532 0.6962769031524658
0.4835752248764038 -0.05289352685213089 1.482872486114502
0.7088985443115234 -0.20645083487033844 0.6525518894195557
0.7044403553009033 -0.1962786614894867 0.9701805710792542
-0.25232166051864624 0.09910138696432114 1.2722294330596924
0.6798298358917236 -0.16034847497940063 1.0613682270050049
-0.28382864594459534 0.0019928328692913055 0.8138995170593262
0.605747640132904 -0.2574973702430725 0.706308126449585
0.669657289981842 -0.1623443067073822 1.0467257499694824
-0.3394683003425598 -0.051607027649879456 0.7702789306640625
-0.36811405420303345 -0.14245711266994476 0.9726182222366333
-0.3725730776786804 -0.1387728899717331 0.9843143820762634
-0.3562610447406769 -0.16029705107212067 0.9827151894569397
-0.36351966857910156 -0.15886397659778595 0.9938300251960754
-0.3429166078567505 -0.10925335437059402 1.0410168170928955
-0.3482150435447693 -0.12529172003269196 1.0201528072357178
-0.33903491497039795 -0.11224431544542313 0.9910591244697571
-0.3373836576938629 -0.08568769693374634 1.0238971710205078
-0.3366243839263916 -0.13981463015079498 1.0282354354858398
-0.3393862843513489 -0.16939043998718262 1.017533779144287
-0.32394444942474365 -0.07271472364664078 1.1029287576675415
-0.318450003862381 -0.16680370271205902 1.0190470218658447
-0.33382588624954224 -0.13233433663845062 1.0166800022125244
-0.3183196187019348 -0.14851918816566467 1.0576413869857788
-0.32069504261016846 -0.12378598004579544 1.0469220876693726
-0.31405436992645264 -0.06064609810709953 1.0720715522766113
-0.31428420543670654 -0.11467217653989792 1.047106385231018
-0.3149369955062866 -0.12136911600828171 1.0709456205368042
-0.3204156458377838 -0.09841611236333847 1.098961591720581
-0.3371548354625702 -0.05648230016231537 1.1339893341064453
-0.3260648250579834 -0.10788147151470184 1.1308720111846924
-0.30320966243743896 -0.0063614253886044025 1.160327434539795
-0.312011182308197 -0.016101928427815437 1.1153208017349243
-0.32678288221359253 -0.05768328905105591 1.168251633644104
-0.27839839458465576 -0.01469695009291172 1.1046276092529297
-0.2813144326210022 -0.04035283625125885 1.2201030254364014
-0.2936326563358307 -0.10150013864040375 1.178675651550293
-0.2788773477077484 0.005721711553633213 1.147268533706665
-0.246446892619133 -0.0009243004024028778 1.1585814952850342
-0.2513282895088196 0.0077217090874910355 1.21561598777771
-0.2276565432548523 0.008018583059310913 1.2151492834091187
-0.22122962772846222 -0.04411241039633751 1.2886769771575928
-0.2583826184272766 -0.07534385472536087 1.225099802017212
-0.2180146723985672 0.014905963093042374 1.2599296569824219
-0.2436436414718628 -0.014214292168617249 1.268599033355713
-0.20553557574748993 0.012854833155870438 1.298596978187561
-0.1903477907180786 0.010384615510702133 1.3336286544799805
-0.18315668404102325 -0.03799819201231003 1.343442440032959
-0.21121610701084137 -0.0831400603055954 1.2468186616897583
-0.1914612203836441 0.06079307943582535 1.7353333234786987
-0.13764086365699768 0.11004342138767242 1.4008729457855225
-0.1305983066558838 0.06655319780111313 0.8738119602203369
-0.17734187841415405 0.017226461321115494 0.8817324042320251
-0.15418171882629395 -0.07544423639774323 0.886264443397522
-0.1974269449710846 -0.10344044864177704 0.8774627447128296
-0.1748918890953064 0.07154904305934906 1.6414928436279297
-0.1982022076845169 0.047340575605630875 1.7577353715896606
-0.16652080416679382 0.054043568670749664 1.7068021297454834
-0.14811179041862488 0.08338705450296402 1.656566858291626
-0.15747039020061493 0.06534160673618317 1.6062570810317993
-0.11556102335453033 0.0003682151436805725 1.0423197746276855
-0.15296928584575653 -0.05080568417906761 1.0066947937011719
-0.15950459241867065 -0.11988109350204468 0.9947286248207092
-0.15315915644168854 0.04553911089897156 1.5365371704101562
-0.29096537828445435 -0.06793639808893204 0.06916795670986176
-0.3063814640045166 -0.12773039937019348 0.03304578736424446
-0.30930274724960327 -0.15324713289737701 0.04951834678649902
-0.1541394740343094 -0.023665208369493484 1.3919169902801514
-0.1458853930234909 0.017574813216924667 1.336939811706543
-0.13893602788448334 -0.008797604590654373 1.3183971643447876
-0.16206589341163635 -0.036076150834560394 1.3801645040512085
-0.14505286514759064 -0.07929249107837677 1.3371413946151733
-0.23006992042064667 -0.03400138020515442 0.4864846467971802
-0.23145000636577606 -0.061713699251413345 0.40264657139778137
-0.2432769238948822 -0.010253867134451866 0.33901330828666687
-0.24814124405384064 -0.03549997881054878 0.3694099485874176
-0.16116034984588623 0.06250835955142975 1.6755093336105347
-0.1406337171792984 -0.05009855329990387 1.2876954078674316
-0.14279453456401825 -0.06090236082673073 1.2447750568389893
-0.14493557810783386 -0.08712100237607956 1.2764354944229126
-0.16978278756141663 -0.1018100306391716 1.2778207063674927
-0.23899243772029877 0.0006134629948064685 0.26665595173835754
-0.15460415184497833 -0.02088947966694832 1.5337309837341309
-0.1427135020494461 0.050405073910951614 1.5375183820724487
-0.14988946914672852 0.021819360554218292 1.5307053327560425
-0.19761539995670319 -0.06890126317739487 0.5847175717353821
-0.11231030523777008 0.045434124767780304 1.7710603475570679
-0.12890149652957916 -0.10784238576889038 1.214111566543579
-0.11758272349834442 -0.03384961560368538 1.159812331199646
-0.13827450573444366 -0.12495018541812897 0.7548794746398926
-0.11640933901071548 0.09691491723060608 1.7176913022994995
-0.13341376185417175 -0.05630385875701904 1.406008005142212
-0.10542851686477661 -0.11789153516292572 0.8576924800872803
-0.14057055115699768 -0.13100463151931763 0.8796049356460571
-0.12386923283338547 -0.19988089799880981 0.9189563989639282
-0.10763385891914368 -0.2151980996131897 0.8547267913818359
-0.2830997407436371 -0.191550612449646 0.06791578233242035
-0.07692751288414001 0.1189173012971878 1.7164692878723145
-0.10545748472213745 0.05627266317605972 1.7565340995788574
-0.15381570160388947 0.002083640545606613 1.4439607858657837
-0.13577282428741455 -0.024143129587173462 1.4920424222946167
-0.20569027960300446 0.013281397521495819 0.3350265920162201
-0.23493780195713043 -0.011617184616625309 0.21811339259147644
-0.2724613547325134 -0.1896457076072693 0.11058206856250763
-0.24113738536834717 -0.0067941248416900635 0.07623625546693802
-0.11394864320755005 -0.006065823137760162 1.3217499256134033
-0.17845548689365387 -0.09623319655656815 0.557711124420166
-0.23825131356716156 -0.14912818372249603 0.011925346218049526
-0.2804144620895386 -0.15020400285720825 0.006371198687702417
-0.10724034905433655 0.043702784925699234 1.553642749786377
-0.1093730553984642 0.013402506709098816 1.5106881856918335
-0.032102346420288086 -0.21747532486915588 0.9102374315261841
-0.07982021570205688 0.0892859697341919 0.868302583694458
-0.234579935669899 -0.11463863402605057 0.277852326631546
-0.21152566373348236 -0.11236071586608887 0.20184938609600067
-0.21994690597057343 -0.01642313227057457 0.11916235834360123
-0.09798765182495117 -0.004424341022968292 1.2873095273971558
-0.10518980026245117 -0.02516571804881096 1.246087670326233
-0.07698879390954971 -0.12504076957702637 1.319859504699707
-0.14376801252365112 -0.028583351522684097 0.6770070195198059
-0.12064763903617859 -0.12687528133392334 0.7448636293411255
-0.07619047164916992 -0.11724106967449188 0.8171753883361816
-0.20332424342632294 -0.12037305533885956 0.16838213801383972
-0.2270473837852478 -0.18324141204357147 0.07750342041254044
-0.12901119887828827 -0.07547463476657867 1.4861574172973633
-0.09809994697570801 0.005923155695199966 1.3572642803192139
-0.0674012079834938 -0.00021935999393463135 1.2918047904968262
-0.1477324366569519 -0.09916552156209946 0.5796691179275513
-0.12370980530977249 -0.07949313521385193 0.580163300037384
-0.16489744186401367 0.0169050395488739 0.5213395357131958
-0.09918864816427231 -0.06360559165477753 1.457095980644226
-0.07489556074142456 -0.02246268093585968 1.43822181224823
-0.10466700792312622 0.01794324442744255 1.3971734046936035
-0.13560806214809418 -0.020001668483018875 0.5262176394462585
-0.06305289268493652 0.07064704596996307 1.759504795074463
-0.12099634110927582 -0.11593740433454514 1.6218993663787842
-0.03598930686712265 -0.18854421377182007 0.9937154054641724
-0.07842561602592468 -0.03346005454659462 1.452352523803711
-0.057073548436164856 -0.06234540790319443 1.4375994205474854
-0.0775149017572403 -0.04672052711248398 1.4316346645355225
-0.06786336749792099 -0.11412166059017181 1.553143858909607
-0.10777361690998077 -0.10775867849588394 1.4993419647216797
-0.05417008697986603 -0.002541281282901764 1.4622576236724854
-0.10678640007972717 -0.044315364211797714 0.6462723016738892
-0.020003993064165115 0.024066857993602753 1.7827680110931396
-0.034845996648073196 0.12690085172653198 1.6862292289733887
-0.055862899869680405 -0.13079285621643066 1.5042824745178223
-0.07015076279640198 -0.10856253653764725 1.4576451778411865
-0.03733845055103302 -0.01154056191444397 1.4375272989273071
-0.04414840415120125 -0.11022267490625381 1.457637071609497
-0.007157120853662491 0.008426874876022339 1.4131189584732056
-0.028535282239317894 -0.013278026133775711 1.2858633995056152
-0.015450764447450638 0.0790199264883995 1.7577579021453857
-0.016088398173451424 -0.014259785413742065 1.4667764902114868
-0.020722053945064545 -0.05752930790185928 1.4530259370803833
0.013136584311723709 0.09495791792869568 1.7167363166809082
-0.005610615015029907 0.03551620990037918 1.7638239860534668
-0.015506807714700699 -0.0489996001124382 1.43934965133667
0.013483874499797821 -0.07927132397890091 1.478112816810608
-0.010308049619197845 -0.02818860113620758 1.4456679821014404
0.07898411899805069 -0.09150154143571854 0.6011723279953003
0.014558933675289154 0.012646675109863281 1.4962737560272217
0.11428839713335037 -0.110738605260849 0.5184974074363708
0.0019527189433574677 -0.16375727951526642 1.2769900560379028
0.048265814781188965 -0.04102272540330887 1.2665894031524658
0.0507374033331871 -0.06917764246463776 1.153105616569519
0.14994663000106812 -0.11770384013652802 0.08273450285196304
0.1665099412202835 -0.10883446782827377 0.06485363841056824
0.13726617395877838 0.008005879819393158 0.09362445771694183
0.016986742615699768 -0.1471831500530243 1.2624633312225342
0.00572974793612957 -0.18786072731018066 1.1872971057891846
0.07375826686620712 -0.14138931035995483 0.7422149777412415
0.13241125643253326 -0.04133283346891403 0.06657440960407257
0.04425191879272461 0.026353351771831512 1.7238523960113525
0.0026018843054771423 -0.12373779714107513 1.6306390762329102
-0.0039375536143779755 -0.10757157951593399 1.544185757637024
0.00025302544236183167 -0.10928354412317276 1.4992254972457886
0.09981042146682739 -0.16058054566383362 0.8863019347190857
0.09247992932796478 0.01819465309381485 1.7514965534210205
0.02074500545859337 0.010448683053255081 1.5511361360549927
0.01957429200410843 -0.00748617947101593 1.5216176509857178
0.13815023005008698 -0.018225785344839096 0.3400837481021881
0.13040995597839355 -0.0070188455283641815 0.278937965631485
0.14924180507659912 0.018813692033290863 0.07658568024635315
0.036963045597076416 0.011226993054151535 1.8094210624694824
0.05474746599793434 -0.010000765323638916 1.418676733970642
0.10032011568546295 -0.21933957934379578 0.8733352422714233
0.09116540849208832 -0.13171613216400146 0.8737320899963379
0.13066300749778748 -0.19504496455192566 0.8749982118606567
0.09899423271417618 -0.04154534265398979 0.7620841264724731
0.1938096433877945 -0.10809563845396042 0.07650714367628098
0.05231345444917679 0.01464495062828064 1.7349790334701538
0.0391671359539032 -0.1580711454153061 1.1539841890335083
0.04561939835548401 -0.13331514596939087 1.2809269428253174
0.04769379645586014 -0.1494138538837433 1.2782948017120361
0.12649185955524445 -0.18937575817108154 0.9429736137390137
0.04182327538728714 -0.06262670457363129 1.5654704570770264
0.050299130380153656 0.011233728379011154 1.5607588291168213
0.045431870967149734 -0.014229901134967804 1.5493723154067993
0.05251593142747879 -0.03047271817922592 1.5441523790359497
0.0627715140581131 -0.04239284247159958 1.520770788192749
0.13926935195922852 -0.06602676212787628 0.660659670829773
0.13721275329589844 -0.1322447955608368 0.6801937818527222
0.07060469686985016 -0.04627963900566101 1.3985340595245361
0.07412869483232498 0.002445712685585022 1.3385100364685059
0.040033210068941116 -0.0014995485544204712 1.3541629314422607
0.05061411112546921 -0.02284376323223114 1.3305513858795166
0.12706221640110016 -0.11901438981294632 0.8423678874969482
0.19351255893707275 0.0026809722185134888 0.07980126142501831
0.20787881314754486 -0.021686919033527374 0.07345488667488098
0.06413468718528748 0.0057491734623909 1.6882803440093994
0.08012215048074722 -0.02423349767923355 1.3919779062271118
0.20149442553520203 -0.0627996176481247 0.3248106837272644
0.0872274860739708 0.023400794714689255 1.6624308824539185
0.0649750679731369 0.05034496262669563 1.6662003993988037
0.07349741458892822 0.019820112735033035 1.6306431293487549
0.20996621251106262 -0.03222014755010605 0.14953108131885529
0.21742507815361023 -0.07797505706548691 0.07691437751054764
0.2044992744922638 -0.10880901664495468 0.10322663187980652
0.15337999165058136 -0.01440527755767107 0.9832165241241455
0.15275558829307556 -0.015468675643205643 0.8837519884109497
0.09010550379753113 -0.002025958150625229 1.7493896484375
0.17021861672401428 0.03797350451350212 0.8911972045898438
0.1815965175628662 0.0013976814225316048 0.9547070860862732
0.1000191867351532 -0.006691940128803253 1.3328591585159302
0.11447271704673767 -0.02691979706287384 1.3192709684371948
0.08240767568349838 -0.04939509183168411 1.3652620315551758
0.1131770983338356 -0.013502426445484161 1.2785016298294067
0.10326069593429565 -0.01797264814376831 1.2579970359802246
0.12338846921920776 -0.09302876889705658 1.2414811849594116
0.1344287395477295 -0.04792068153619766 1.2791173458099365
0.1553557813167572 -0.021726563572883606 1.2141512632369995
0.1734568029642105 -0.027413904666900635 1.1375632286071777
0.19908499717712402 -0.04214809089899063 1.1545624732971191
0.18281422555446625 -0.05889265984296799 1.2028021812438965
0.15741895139217377 -0.0967126339673996 1.22261381149292
0.2049381285905838 -0.06043292582035065 1.1022981405258179
0.22043925523757935 -0.12936930358409882 1.154360294342041
0.2311929166316986 -0.10525965690612793 1.1349998712539673
0.22304998338222504 -0.07927156239748001 1.106745719909668
0.18173375725746155 -0.16515189409255981 1.1362701654434204
0.20417234301567078 -0.13423773646354675 1.1032050848007202
0.20616047084331512 -0.11353506147861481 1.0907013416290283
0.2447333037853241 -0.19279327988624573 0.9875681400299072
0.18432994186878204 -0.15141059458255768 1.1029577255249023
0.1835785210132599 -0.16765689849853516 1.0748109817504883
0.22413402795791626 -0.1485314965248108 1.0206007957458496
0.18944917619228363 -0.157562717795372 1.0496435165405273
0.18406206369400024 -0.18501132726669312 1.0526254177093506
0.2084144949913025 -0.1795768141746521 1.0214563608169556
0.22925373911857605 -0.18625271320343018 1.0155946016311646
0.18218496441841125 -0.2092803418636322 1.0246740579605103
0.2074289619922638 -0.19955521821975708 1.0152734518051147
0.19381943345069885 -0.2025914490222931 1.0242815017700195
0.23717880249023438 -0.1996167004108429 0.9673784375190735
0.20213668048381805 -0.2170397788286209 1.0118989944458008
0.22093376517295837 -0.18390744924545288 0.9815673828125
0.22161337733268738 -0.21738438308238983 0.9803438782691956
0.23917937278747559 -0.21085181832313538 0.9833382368087769
-0.3173728287220001 -0.0504104346036911 1.096097469329834
-0.30426231026649475 -0.10865634679794312 1.0867204666137695
-0.292718768119812 -0.09142731130123138 1.082560420036316
-0.3078422546386719 -0.12702155113220215 1.1230807304382324
-0.26124581694602966 -0.047470130026340485 1.0909022092819214
-0.2814069390296936 -0.1259433627128601 1.1073510646820068
-0.2052803486585617 -0.009909316897392273 1.236628770828247
-0.20072898268699646 -0.06457677483558655 1.2152726650238037
-0.17289821803569794 -0.09778544306755066 0.9722820520401001
-0.17661526799201965 -0.015670418739318848 0.9530309438705444
-0.12671932578086853 0.051269326359033585 0.9370818734169006
-0.10475700348615646 0.15320393443107605 1.2591190338134766
-0.09698253870010376 0.1500815898180008 1.2005391120910645
-0.09818047285079956 0.1734553575515747 1.1703544855117798
-0.1514892578125 -0.01133932638913393 0.9740945100784302
-0.20569024980068207 0.040087103843688965 1.7270963191986084
-0.1549394279718399 0.00791991502046585 1.3573789596557617
-0.17547903954982758 0.007199019193649292 1.2900454998016357
-0.03029664419591427 0.16449099779129028 1.0724515914916992
-0.055867403745651245 0.16951145231723785 0.9916545152664185
-0.2933780252933502 -0.08555083721876144 0.1279517263174057
-0.31013333797454834 -0.13758201897144318 0.07991652935743332
-0.18123246729373932 0.03259173035621643 1.7089440822601318
-0.16533337533473969 0.04243122413754463 1.6542325019836426
-0.15530067682266235 -0.1243082582950592 1.254680871963501
-0.1547260582447052 -0.1413218379020691 1.2275508642196655
-0.1587478071451187 -0.16166585683822632 1.2242766618728638
-0.1094127744436264 0.1148897036910057 1.3761588335037231
-0.10095620155334473 0.10606566816568375 1.3712226152420044
-0.13558292388916016 -0.1254805326461792 1.2696657180786133
-0.14854972064495087 -0.054116640239953995 1.2098912000656128
-0.265104204416275 -0.10289941728115082 0.1941295713186264
-0.2708394229412079 -0.057682331651449203 0.20079836249351501
-0.05465332418680191 0.12961189448833466 1.2537314891815186
-0.15994901955127716 -0.009310204535722733 1.4566274881362915
-0.15965375304222107 -0.0037224218249320984 1.4351649284362793
-0.1456032693386078 -0.008266329765319824 1.4173190593719482
-0.15945520997047424 -0.0019869357347488403 1.4137428998947144
-0.15829844772815704 -0.021867379546165466 1.4053758382797241
-0.15043585002422333 -0.10858924686908722 0.7996842265129089
-0.1621449589729309 -0.07032398134469986 0.7953026294708252
-0.02400093525648117 0.2241039276123047 1.0807993412017822
-0.026216013357043266 0.22187761962413788 1.1322640180587769
-0.12678368389606476 -0.11843302845954895 1.266457200050354
-0.12961113452911377 -0.10871375352144241 0.8715898990631104
-0.26638999581336975 -0.022696275264024734 0.12671509385108948
-0.2716532051563263 -0.022292453795671463 0.08895014226436615
-0.14019235968589783 -0.18673405051231384 0.8573160767555237
-0.05459262430667877 0.190251424908638 1.2351045608520508
-0.1606900990009308 -0.08437575399875641 1.619361400604248
-0.13182394206523895 0.028089821338653564 1.5349586009979248
-0.09938179701566696 0.11354473233222961 1.5025291442871094
-0.10019021481275558 0.07689549028873444 1.561737060546875
-0.1195003017783165 0.07612746208906174 1.534888744354248
-0.1049228087067604 0.09382335841655731 1.4492599964141846
-0.05359550192952156 0.13521969318389893 1.5454401969909668
-0.12247161567211151 -0.008586406707763672 1.48702871799469
-0.08477466553449631 0.04395977035164833 0.9802189469337463
-0.13967107236385345 0.03860888630151749 1.8109012842178345
-0.15090623497962952 0.03158184140920639 1.8053617477416992
-0.15259894728660583 0.020379915833473206 1.7911161184310913
-0.022024622187018394 0.07585562765598297 1.4415791034698486
-0.07840133458375931 0.12724044919013977 1.4192496538162231
-0.21067999303340912 -0.08519164472818375 0.05009651929140091
-0.027589714154601097 0.16408617794513702 1.365075945854187
-0.12322897464036942 -0.0854308009147644 1.5321574211120605
-0.18139879405498505 -0.06456425040960312 0.40469232201576233
-0.06222476437687874 0.07470957934856415 1.503269076347351
-0.08615469932556152 0.03474301099777222 1.486663579940796
-0.032104458659887314 0.13870611786842346 1.4665875434875488
-0.03246651589870453 0.05185922980308533 0.862462043762207
-0.1895950436592102 -0.001401899615302682 0.35474127531051636
0.021465478464961052 0.18347607553005219 0.9903862476348877
-0.032089099287986755 0.0373644195497036 1.0380417108535767
-0.10784800350666046 -0.15037578344345093 1.2655153274536133
-0.10103996843099594 -0.15271475911140442 1.1633538007736206
-0.17804455757141113 -0.02903405763208866 0.3329392075538635
-0.16308994591236115 -0.044000640511512756 0.2704732418060303
-0.1938423365354538 0.005397720728069544 0.2656629681587219
-0.06961160898208618 0.05755648389458656 1.5226165056228638
-0.09197570383548737 -0.10365410149097443 0.6943490505218506
-0.11741641163825989 -0.02959553897380829 0.6672735810279846
0.029122596606612206 0.22669389843940735 1.122748851776123
0.03421808406710625 0.21666806936264038 1.0369757413864136
-0.05455506965517998 -0.18510083854198456 1.1903975009918213
-0.19146229326725006 -0.07013095170259476 0.13470640778541565
0.02421915903687477 0.16615164279937744 1.0310510396957397
0.015841355547308922 0.1456291377544403 1.068406105041504
-0.0005269795656204224 0.05514679104089737 1.5139436721801758
-0.08882857114076614 -0.08097506314516068 1.399674892425537
0.025733433663845062 0.1707070767879486 1.3447234630584717
0.02304166741669178 0.06547366827726364 1.432112216949463
-0.00911807268857956 0.04688167944550514 1.514701247215271
0.0749293640255928 0.15931075811386108 1.0395983457565308
0.09254127740859985 0.14550170302391052 0.9967026114463806
-0.024423478171229362 -0.0987803116440773 1.3958625793457031
0.01384013332426548 0.036497391760349274 1.036516547203064
-0.027590585872530937 -0.199346661567688 1.1184377670288086
0.08873146772384644 0.1402801126241684 1.3696268796920776
0.009913446381688118 -0.012408267706632614 1.3031084537506104
0.05926112085580826 0.11491256952285767 1.4733809232711792
0.025348830968141556 0.06742546707391739 1.4754818677902222
0.025058425962924957 -0.029851965606212616 1.2136845588684082
0.04531900957226753 0.09419898688793182 0.9269509315490723
-0.008246399462223053 -0.011800386011600494 1.7472774982452393
0.13175563514232635 -0.09076418727636337 0.09491447359323502
0.12211188673973083 -0.0972374677658081 0.07098717242479324
0.12453801929950714 -0.03740894794464111 0.10781148076057434
-0.04326776787638664 -0.1297106146812439 1.623191475868225
0.06930126994848251 -0.06247468292713165 0.7260796427726746
0.08220675587654114 0.05470067262649536 1.444473147392273
0.025550629943609238 -0.04485552757978439 1.4884233474731445
0.06348700821399689 -0.03048700839281082 1.4357038736343384
0.021825795993208885 0.0022328458726406097 1.4109132289886475
0.1174805536866188 -0.03184313699603081 0.40759140253067017
0.14087294042110443 -0.11330868303775787 0.24931561946868896
0.13530747592449188 -0.025673717260360718 0.21477743983268738
0.14045630395412445 0.146249458193779 1.0492767095565796
0.1346360445022583 0.173868328332901 1.0155538320541382
0.10725168883800507 -0.14603278040885925 0.7538223266601562
0.11226291209459305 -0.052656225860118866 0.6695224642753601
-0.008940216153860092 -0.05985765904188156 1.733859658241272
0.031156416982412338 -0.071260467171669 1.6900546550750732
0.1295510083436966 -0.13011425733566284 0.5623535513877869
0.011379987001419067 -0.005946308374404907 1.7606862783432007
0.03433670848608017 -0.023450955748558044 1.7108345031738281
0.062223345041275024 -0.097215935587883 1.1491460800170898
0.0668828934431076 -0.08497068285942078 1.1223011016845703
0.05789434537291527 -0.1579325795173645 1.105534315109253
0.01617562025785446 -0.11114148050546646 1.6224949359893799
0.03831270709633827 -0.043434612452983856 1.5174311399459839
0.027107130736112595 -0.08245714753866196 1.5167479515075684
0.17818894982337952 0.12370211631059647 1.0101011991500854
0.06282388418912888 -0.08753665536642075 1.3052914142608643
0.07383992522954941 -0.15244093537330627 1.2673251628875732
0.07057320326566696 -0.09984321892261505 1.2513835430145264
0.1791124790906906 -0.0098051056265831 0.1665746122598648
0.192177414894104 -0.08991982042789459 0.1857011765241623
0.20679815113544464 -0.07762274891138077 0.17076405882835388
0.05284614861011505 -0.0003150179982185364 1.7338690757751465
0.07242356240749359 -0.09650636464357376 1.3062059879302979
0.1907714307308197 -0.03696998208761215 0.44746893644332886
0.16979005932807922 -0.09272205829620361 0.499634325504303
0.1996523141860962 -0.04993920028209686 0.391414612531662
0.07691994309425354 -0.046427421271800995 1.429398536682129
0.06375899910926819 -0.041997030377388 1.425896167755127
0.08319247514009476 -0.032952047884464264 1.3837354183197021
0.11910034716129303 0.06446771323680878 0.9371514916419983
0.13197530806064606 -0.11676278710365295 0.8765223026275635
0.20726856589317322 -0.031083013862371445 0.265511691570282
0.22243447601795197 -0.06209977716207504 0.272463858127594
0.08741410821676254 -0.012248381972312927 1.377922534942627
0.15849556028842926 0.07819050550460815 1.2870252132415771
0.16896197199821472 0.1034729853272438 1.2629258632659912
0.08356928080320358 -0.2261735051870346 1.1654248237609863
0.14884251356124878 -0.06550374627113342 1.0087593793869019
0.15111559629440308 -0.12317557632923126 1.003836750984192
0.11736461520195007 -0.008568048477172852 1.202674388885498
0.13950014114379883 -0.11829227209091187 1.0994083881378174
0.1589793711900711 -0.08154439926147461 1.0816099643707275
0.1421022266149521 -0.15019378066062927 1.1649272441864014
-0.3002139627933502 -0.06603094935417175 1.0721384286880493
-0.3080369234085083 -0.124171182513237 1.0555808544158936
-0.23859697580337524 -0.10384760797023773 1.1503477096557617
-0.24974659085273743 -0.10364434123039246 1.1977289915084839
-0.21639800071716309 -0.06823205202817917 1.1574490070343018
-0.21629250049591064 -0.028287073597311974 1.1772356033325195
-0.19203317165374756 -0.1523972749710083 0.8846489787101746
-0.08696077764034271 0.17630307376384735 1.0300204753875732
-0.09570568799972534 0.16662758588790894 1.1316713094711304
-0.16594833135604858 -0.22762981057167053 1.1334269046783447
-0.13883653283119202 -0.16074562072753906 0.9649862051010132
-0.27839210629463196 -0.044655218720436096 0.28960272669792175
-0.25539493560791016 -0.09540721774101257 0.30398494005203247
-0.20330756902694702 0.008727116510272026 0.5088396072387695
-0.15139901638031006 -0.19271525740623474 0.8635026216506958
-0.1797076314687729 -0.05079958215355873 0.6519501209259033
-0.1676933616399765 -0.09301243722438812 0.7041211128234863
-0.15108329057693481 -0.034372467547655106 0.7100211381912231
-0.1024218201637268 -0.01733585074543953 1.1011359691619873
-0.11408668011426926 -0.07686686515808105 1.1274278163909912
-0.014487171545624733 0.211701899766922 1.2049190998077393
-0.11413897573947906 -0.0183104258030653 0.866733729839325
-0.2124001383781433 -0.10860318690538406 0.316109299659729
-0.11865025758743286 -0.020315021276474 1.2067077159881592
-0.09506028890609741 -0.03841041773557663 1.1346299648284912
-0.19520656764507294 -0.08594970405101776 0.4563843607902527
-0.14393307268619537 0.01651330664753914 1.7277766466140747
-0.1502426713705063 -0.019782252609729767 1.7171685695648193
-0.11207790672779083 -0.05695372819900513 1.7265596389770508
-0.13053733110427856 -0.09411178529262543 1.6843732595443726
-0.14436033368110657 -0.08588191121816635 1.5836098194122314
-0.18687373399734497 -0.06441187113523483 0.3495441675186157
-0.08533652871847153 -0.11614219844341278 0.7445768117904663
-0.1661599576473236 -0.07379719614982605 0.2785480320453644
-0.18412598967552185 -0.10214826464653015 0.28369593620300293
-0.2015892118215561 -0.02276824228465557 0.21366003155708313
-0.04664607346057892 0.0651116743683815 0.9697372317314148
-0.09766324609518051 0.02574629709124565 1.7737027406692505
-0.11524281650781631 0.014179255813360214 1.759690523147583
0.06002458184957504 0.1313234567642212 1.18756902217865
-0.024511709809303284 0.14776022732257843 1.1875462532043457
0.035682741552591324 0.11995970457792282 1.2448409795761108
-0.0059275031089782715 -0.03108028694987297 1.2526365518569946
0.053266458213329315 0.19919870793819427 1.238207459449768
0.059241682291030884 0.14563414454460144 1.0742137432098389
0.11651995033025742 0.2049621343612671 1.159367561340332
0.010842036455869675 0.11441223323345184 1.6591129302978516
0.08994213491678238 0.13218756020069122 1.082859992980957
0.040700413286685944 -0.21883003413677216 0.913637638092041
0.1056990772485733 -0.07861220091581345 0.2685641050338745
0.13675172626972198 -0.0858408510684967 0.2095290571451187
0.06876906752586365 -0.13011434674263 0.7087359428405762
0.03255883604288101 0.009364599362015724 1.073547601699829
0.09452789276838303 -0.04896955192089081 0.5791329741477966
0.0937773659825325 0.09253139793872833 1.3137872219085693
0.04832088202238083 -0.05503707379102707 1.418005108833313
0.04175041243433952 0.0993964895606041 1.622859001159668
0.032347671687603 0.03188396245241165 1.5930709838867188
0.03896193951368332 0.04780726879835129 1.5672006607055664
0.007609747350215912 0.0012048445641994476 1.8084230422973633
0.05154518038034439 -0.07552934437990189 1.3530700206756592
0.15943408012390137 -0.017066510394215584 0.5135209560394287
0.1254560649394989 -0.005110112950205803 0.5093690156936646
0.1555127054452896 -0.008368663489818573 0.35986340045928955
0.1773153394460678 -0.010350733995437622 0.3317488431930542
0.061651211231946945 -0.03965698182582855 1.5089590549468994
0.04838030785322189 -0.04836839437484741 1.5189603567123413
0.06256477534770966 -0.04609544575214386 1.5022770166397095
0.1338496208190918 -0.05261649936437607 0.7764619588851929
0.15212352573871613 -0.09582585096359253 0.6463716626167297
0.11719880998134613 0.024723172187805176 0.9773271083831787
0.09818270057439804 -0.07693299651145935 1.0989665985107422
0.09116612374782562 -0.13089044392108917 1.0898821353912354
0.10048343241214752 -0.15600182116031647 1.0389080047607422
0.06546887755393982 -0.0035915300250053406 1.631725549697876
0.07722751796245575 -0.010078299790620804 1.5479592084884644
0.06861120462417603 -0.1441815197467804 1.2490441799163818
0.09704145789146423 0.06155849248170853 1.5356247425079346
0.08425283432006836 0.03513379395008087 1.5759748220443726
0.20694999396800995 -0.004511825740337372 0.10149082541465759
0.22097814083099365 -0.04586680978536606 0.08909100294113159
0.1064334511756897 0.040244463831186295 1.5017122030258179
0.1139150857925415 0.05309128388762474 1.467811107635498
0.12257808446884155 0.04041104391217232 1.4327880144119263
0.12536026537418365 0.05421087145805359 1.4186478853225708
0.07862003147602081 -0.22750061750411987 1.1851729154586792
0.17875763773918152 -0.15691421926021576 0.8925760388374329
0.09483708441257477 -0.20186424255371094 1.1962199211120605
0.09156253188848495 -0.22814472019672394 1.1847093105316162
0.20627625286579132 -0.11225157976150513 0.9133632183074951
0.20912139117717743 -0.08955815434455872 0.8936233520507812
0.21702507138252258 -0.05459877848625183 0.9040366411209106
-0.22095653414726257 -0.09385020285844803 1.2035980224609375
-0.18061858415603638 -0.09206757694482803 1.2699512243270874
-0.18841519951820374 -0.09076844155788422 1.2534407377243042
-0.17945337295532227 -0.08264809846878052 1.2598483562469482
-0.17621171474456787 -0.08064717054367065 1.2766917943954468
-0.1971626877784729 0.002479388378560543 0.892298698425293
-0.15086886286735535 -0.045663103461265564 1.294162392616272
-0.14575159549713135 -0.06406959891319275 1.0763498544692993
-0.13883498311042786 0.10584180057048798 1.5397473573684692
-0.14855507016181946 -0.0809243842959404 1.1998379230499268
-0.1459639072418213 -0.07728460431098938 1.145987629890442
-0.10721471160650253 0.10731513053178787 1.434046983718872
-0.09269358962774277 0.1011999323964119 1.3949613571166992
-0.13416898250579834 -0.13996273279190063 1.043576955795288
-0.1001255139708519 -0.16617277264595032 1.0038405656814575
-0.1385795772075653 -0.027212902903556824 0.79570072889328
-0.02244018018245697 0.18890170753002167 1.2739133834838867
-0.08232209086418152 0.13156235218048096 1.6335227489471436
-0.19813822209835052 -0.036121074110269547 0.0800609141588211
-0.21123898029327393 -0.0234063733369112 0.0714268833398819
-0.08297445625066757 0.025786932557821274 0.8736950159072876
0.0008357018232345581 0.09536349773406982 0.8582218885421753
-0.06747019290924072 -0.019583258777856827 0.8520388603210449
0.02420656755566597 0.09216216206550598 1.336780309677124
-0.053037241101264954 -0.07932944595813751 0.7697031497955322
-0.07847332954406738 -0.11635793745517731 1.6000083684921265
-0.007186532951891422 0.014672636985778809 0.8777387142181396
-0.005811670795083046 -0.02580995112657547 0.8566967248916626
0.01802581176161766 -0.11856716126203537 0.8621522784233093
-0.0794452577829361 -0.16444258391857147 0.861766517162323
-0.007552282884716988 -0.22561994194984436 0.8545608520507812
0.0379558801651001 -0.1105157732963562 0.8428304195404053
-0.007639880757778883 -0.1613054871559143 0.866310715675354
-0.017218180000782013 0.030354883521795273 1.4861098527908325
0.029942089691758156 -0.03682601451873779 0.8542811274528503
0.03458668291568756 -0.05024956911802292 0.8388910889625549
-0.005122236907482147 0.038904838263988495 1.5646307468414307
-0.0003438331186771393 0.0435287281870842 1.5390284061431885
0.04628027230501175 -0.12465091794729233 0.8584877252578735
0.13274836540222168 0.05749743804335594 0.8700166344642639
0.10726199299097061 -0.04967263340950012 0.26884782314300537
0.05725260451436043 -0.035964109003543854 0.8278485536575317
