-0.2673374116420746 0.05347783863544464 1.1158393621444702
-0.2439095824956894 0.07963573932647705 1.073636531829834
-0.20504477620124817 0.05641074478626251 1.1239187717437744
-0.21534931659698486 0.07342519611120224 1.0904098749160767
-0.17693807184696198 0.06109906733036041 1.1866662502288818
0.4689343571662903 -0.07389871776103973 1.0849753618240356
0.42091768980026245 -0.03376561403274536 1.5868325233459473
0.5397821068763733 -0.11340241879224777 1.0506925582885742
0.49461570382118225 -0.08084698021411896 1.0283700227737427
0.5080509185791016 -0.12229719758033752 1.0260882377624512
0.521533191204071 -0.1070299819111824 1.0182678699493408
0.4900321364402771 -0.07773293554782867 1.2277312278747559
0.5135642886161804 -0.15740865468978882 1.0540297031402588
0.5307821035385132 -0.17397288978099823 0.9984806776046753
0.5123676061630249 -0.19381937384605408 1.0220201015472412
0.5183976888656616 -0.19693385064601898 0.9913138747215271
0.5401328206062317 -0.18796978890895844 0.936052680015564
0.5878158211708069 -0.21183310449123383 0.7317054271697998
0.601888120174408 -0.2184932976961136 0.6790631413459778
0.6302273273468018 -0.20977120101451874 0.6683314442634583
0.5643630027770996 -0.14442899823188782 1.0320792198181152
0.5785976052284241 -0.14911553263664246 0.9934932589530945
0.5567518472671509 -0.20449253916740417 0.9707145094871521
0.5519677400588989 -0.21217761933803558 0.9299030303955078
0.5380327105522156 -0.24197544157505035 0.9001985192298889
0.5105112195014954 -0.10376951098442078 1.3438739776611328
0.6265133619308472 -0.17455068230628967 0.9638144969940186
0.6545857787132263 -0.19039180874824524 0.9180017709732056
0.6090427041053772 -0.16465109586715698 1.0926560163497925
0.6851091384887695 -0.2605893611907959 0.7434895634651184
0.6924125552177429 -0.22179380059242249 0.7060551047325134
0.6478546857833862 -0.20192205905914307 0.9492038488388062
0.6545299887657166 -0.21940988302230835 0.8971033096313477
0.7232589721679688 -0.1635725349187851 1.079334020614624
0.6777185797691345 -0.19881592690944672 1.0415748357772827
0.7000092267990112 -0.1798488348722458 1.0339560508728027
0.7177670001983643 -0.2200094610452652 0.9023682475090027
0.718595564365387 -0.1978975534439087 0.9092686176300049
-0.49649375677108765 0.13522791862487793 1.0243279933929443
-0.24613700807094574 -0.05053438991308212 0.5228592753410339
-0.3676913380622864 0.0004821605980396271 0.8446332812309265
-0.34684133529663086 -0.023112617433071136 0.818577766418457
-0.38920190930366516 0.0342719666659832 0.8851428627967834
-0.5126420855522156 0.14401021599769592 1.3416471481323242
-0.37001967430114746 0.06925328075885773 0.9196637868881226
-0.355362206697464 0.046120841056108475 0.8920449018478394
-0.19382928311824799 -0.06542728841304779 0.5666122436523438
-0.1783020943403244 -0.03943335637450218 0.5635071992874146
-0.3222438097000122 -0.008908256888389587 0.867149829864502
-0.3063816428184509 -0.033308245241642 0.8162277936935425
-0.3188006579875946 -0.027129612863063812 0.8600722551345825
-0.4920536279678345 0.12088268995285034 1.296175479888916
-0.44039300084114075 0.12767022848129272 1.1908892393112183
-0.22795051336288452 0.09122949838638306 1.1936767101287842
0.16056974232196808 0.0038128364831209183 1.2478773593902588
0.146530419588089 -0.009773092344403267 1.2566362619400024
0.2570785880088806 -0.0361657440662384 1.2050703763961792
0.26579925417900085 -0.022936638444662094 1.1299054622650146
0.32975631952285767 -0.022414319217205048 1.2514245510101318
0.3970387578010559 -0.05151166021823883 1.13474440574646
0.3895348310470581 -0.06667333841323853 1.1194612979888916
0.4399911165237427 -0.08111384510993958 1.276633620262146
0.4549853503704071 -0.09021283686161041 1.3592302799224854
0.48528051376342773 -0.11188819259405136 1.1729838848114014
0.5350492596626282 -0.2319144308567047 0.9032575488090515
0.5711695551872253 -0.22505329549312592 0.8530986905097961
0.5630348324775696 -0.2579609751701355 0.8112262487411499
0.5851825475692749 -0.23890841007232666 0.7550750970840454
0.5657776594161987 -0.15941724181175232 1.0971070528030396
0.6196764707565308 -0.2861998677253723 0.6867709755897522
-0.4387679398059845 0.059197939932346344 0.8723506927490234
-0.2339247465133667 -0.02257106453180313 0.7213103175163269
-0.20737598836421967 -0.036812674254179 0.6667938232421875
-0.5254248380661011 0.15126509964466095 1.4495893716812134
-0.26567018032073975 0.07213543355464935 1.056082844734192
-0.25092095136642456 0.06892335414886475 1.0260387659072876
-0.23961128294467926 0.06127270683646202 1.0601131916046143
-0.198321133852005 0.06953149288892746 1.100765585899353
-0.15070921182632446 0.05138497054576874 1.2570602893829346
-0.15974807739257812 0.034246183931827545 1.2592853307724
0.37421146035194397 -0.054777033627033234 1.407217025756836
0.3966149389743805 -0.061436232179403305 1.460201382637024
0.5633446574211121 -0.13086816668510437 1.0619279146194458
0.5633761882781982 -0.13002422451972961 0.984670877456665
0.5122982263565063 -0.1335238665342331 1.1708130836486816
0.5531779527664185 -0.19637295603752136 0.8782989978790283
0.5791383981704712 -0.14726325869560242 1.141883134841919
0.5653495192527771 -0.1274125576019287 1.2285690307617188
0.654616117477417 -0.17394684255123138 1.064408779144287
0.6546245813369751 -0.19078411161899567 1.0001455545425415
0.6716540455818176 -0.23871943354606628 0.8325717449188232
0.6307125091552734 -0.2579154968261719 0.7458365559577942
0.6900359392166138 -0.21933382749557495 0.8227232098579407
-0.24504372477531433 -0.06926080584526062 0.5528638958930969
-0.20236694812774658 -0.04675963521003723 0.5509308576583862
-0.3070650100708008 -0.042093463242053986 0.7667028903961182
-0.24419233202934265 -0.06934835016727448 0.6154472827911377
-0.20240715146064758 -0.06844806671142578 0.6112921833992004
-0.3114997148513794 0.02730744704604149 0.924645185470581
-0.24838605523109436 0.06635437905788422 1.2057424783706665
-0.2343679666519165 0.06360781192779541 1.1501107215881348
-0.23294302821159363 0.0747654139995575 1.1234023571014404
-0.21339848637580872 0.054277293384075165 1.2001525163650513
-0.18630298972129822 0.0401981920003891 1.1340728998184204
-0.18090960383415222 0.054893918335437775 1.1220606565475464
0.2704266905784607 -0.008196079172194004 1.1350395679473877
0.49536949396133423 -0.13126999139785767 1.0965768098831177
0.5271225571632385 -0.16417017579078674 1.095916509628296
0.539484977722168 -0.1804865151643753 1.0520570278167725
0.6404894590377808 -0.23268619179725647 0.8823510408401489
-0.30889788269996643 -0.024672284722328186 0.6168299317359924
-0.2988840937614441 -0.05391553044319153 0.5874955058097839
-0.2923773527145386 -0.0423341728746891 0.5825765132904053
-0.3366479277610779 0.037994612008333206 0.8075412511825562
-0.28841957449913025 -0.024851292371749878 0.7852640151977539
-0.3026500940322876 -0.023932456970214844 0.8379099369049072
-0.17926952242851257 0.04780086874961853 1.2200493812561035
-0.1491510421037674 0.04261123389005661 1.3288264274597168
-0.1364576667547226 0.04721534997224808 1.3175276517868042
0.14706099033355713 -0.018658636137843132 1.269600749015808
0.1921038031578064 0.016962610185146332 1.6599209308624268
0.36001989245414734 0.0025289729237556458 1.604504942893982
0.38149869441986084 -0.01708640344440937 1.6235129833221436
0.43752050399780273 -0.035798247903585434 1.5547595024108887
0.6003239154815674 -0.09535747021436691 1.3030643463134766
0.6256646513938904 -0.09709509462118149 1.3394505977630615
0.6274138689041138 -0.08186052739620209 1.2765235900878906
0.6305571794509888 -0.10853436589241028 1.2618598937988281
0.6565173864364624 -0.09397397935390472 1.2774569988250732
-0.4878084659576416 0.11716483533382416 0.9568400382995605
-0.4717985987663269 0.1267206072807312 0.9373399615287781
-0.5472495555877686 0.17330388724803925 1.2037115097045898
-0.5246750712394714 0.17346879839897156 1.1928036212921143
-0.24306973814964294 -0.014779472723603249 0.5686672925949097
-0.22405001521110535 -0.03184496611356735 0.5266819000244141
-0.2767767608165741 -0.06464935839176178 0.6538853645324707
-0.31120774149894714 0.023097295314073563 0.7596702575683594
-0.3806726336479187 0.08255937695503235 0.9710456132888794
-0.5190145969390869 0.1557736098766327 1.5007046461105347
0.2643892467021942 -0.01031491905450821 1.2006856203079224
0.2791531980037689 0.0025741439312696457 1.4311662912368774
0.4152904450893402 -0.05735044553875923 1.1532506942749023
0.39604878425598145 -0.03006622940301895 1.2791829109191895
0.45740288496017456 -0.08218026161193848 1.0865366458892822
0.4760012924671173 -0.09738088399171829 1.0366966724395752
0.45910611748695374 -0.1125880628824234 1.11897873878479
0.5698225498199463 -0.17080965638160706 0.8333142995834351
0.5768740177154541 -0.18986119329929352 0.8219709992408752
0.576576292514801 -0.23243586719036102 0.8932138085365295
0.6392455697059631 -0.1572992354631424 1.061655879020691
0.6781816482543945 -0.1833004653453827 0.840535044670105
-0.2650787830352783 -0.055382758378982544 0.5571634769439697
-0.2176629602909088 -0.05787201598286629 0.5197027921676636
-0.23949061334133148 0.08080744743347168 1.028778314590454
-0.20843710005283356 0.08206461369991302 1.1202880144119263
-0.1846543252468109 0.051355376839637756 1.1751017570495605
0.6493189334869385 -0.17876526713371277 0.8748018145561218
0.6809839010238647 -0.23463666439056396 0.6406900882720947
0.6875473260879517 -0.23792921006679535 0.6563371419906616
-0.332152783870697 -0.027833160012960434 0.8019590377807617
-0.2565758228302002 -0.024485355243086815 0.735710620880127
-0.24030451476573944 -0.04869254305958748 0.6922321319580078
0.47631216049194336 -0.0576917827129364 1.4767193794250488
0.695686399936676 -0.21592463552951813 0.647973358631134
0.692068874835968 -0.2053179293870926 0.9647967219352722
-0.24858587980270386 0.09950271993875504 1.2691912651062012
0.6691059470176697 -0.16920435428619385 1.0555412769317627
-0.2691251337528229 0.0006221272051334381 0.8095189332962036
0.591864287853241 -0.2660563886165619 0.7018366456031799
0.6583166718482971 -0.17014813423156738 1.0414373874664307
-0.32436850666999817 -0.05287741497159004 0.7659331560134888
-0.36725956201553345 -0.14077095687389374 0.9732496738433838
-0.37194904685020447 -0.13711245357990265 0.9846259355545044
-0.3552432060241699 -0.15844161808490753 0.9832162857055664
-0.36294594407081604 -0.15682044625282288 0.9940750002861023
-0.34211066365242004 -0.1076238751411438 1.041162371635437
-0.3476288318634033 -0.1235547587275505 1.0203322172164917
-0.3384925425052643 -0.11149097234010696 0.9910630583763123
-0.3369012176990509 -0.08429325371980667 1.023532748222351
-0.33618849515914917 -0.13809598982334137 1.0278931856155396
-0.33880090713500977 -0.16720928251743317 1.0173078775405884
-0.32356932759284973 -0.07153790444135666 1.1022133827209473
-0.3182014226913452 -0.16493529081344604 1.0188992023468018
-0.33341461420059204 -0.13090479373931885 1.0167394876480103
-0.3184068202972412 -0.14658132195472717 1.0568677186965942
-0.32065993547439575 -0.12231125682592392 1.0467643737792969
-0.3137969672679901 -0.05991971865296364 1.0713378190994263
-0.3144054114818573 -0.11324910819530487 1.0466119050979614
-0.3146190941333771 -0.11957869678735733 1.0706392526626587
-0.3198094069957733 -0.09670285880565643 1.0985103845596313
-0.33647385239601135 -0.05547027662396431 1.1331841945648193
-0.3256353735923767 -0.10631158947944641 1.1300948858261108
-0.30290502309799194 -0.005430279299616814 1.1590396165847778
-0.3116174340248108 -0.01604309305548668 1.1144728660583496
-0.32598793506622314 -0.056213367730379105 1.167528510093689
-0.27853208780288696 -0.01438935101032257 1.103529691696167
-0.28099873661994934 -0.038499023765325546 1.2185816764831543
-0.2935105860233307 -0.09952519834041595 1.1776317358016968
-0.2788236439228058 0.006047777831554413 1.1461907625198364
-0.24702541530132294 -0.0005271276459097862 1.157060980796814
-0.25122374296188354 0.008419396355748177 1.2139959335327148
-0.2278677374124527 0.00866059958934784 1.213107943534851
-0.2211523950099945 -0.04241742566227913 1.2866169214248657
-0.2584607005119324 -0.07400930672883987 1.2233350276947021
-0.21794487535953522 0.015711132436990738 1.2577030658721924
-0.24367117881774902 -0.012957602739334106 1.2665607929229736
-0.2053220123052597 0.013630464673042297 1.2962520122528076
-0.1900913566350937 0.011536825448274612 1.331115961074829
-0.18316589295864105 -0.03653768450021744 1.3405841588974
-0.21188096702098846 -0.08155722916126251 1.2449772357940674
-0.19131016731262207 0.060914747416973114 1.729964017868042
-0.13590803742408752 0.10975483059883118 1.3975574970245361
-0.13011935353279114 0.06651458889245987 0.8727269172668457
-0.17679435014724731 0.017161840572953224 0.8810949325561523
-0.1536993384361267 -0.07545057684183121 0.8853297233581543
-0.19700874388217926 -0.10335466265678406 0.8767706155776978
-0.17432138323783875 0.07217653095722198 1.636922001838684
-0.19853317737579346 0.04815110191702843 1.7521636486053467
-0.166519433259964 0.054367877542972565 1.7017556428909302
-0.1477389931678772 0.08370605856180191 1.6521716117858887
-0.15702231228351593 0.06545640528202057 1.6015892028808594
-0.11539571732282639 9.113922715187073e-05 1.0403099060058594
-0.15280619263648987 -0.05050512030720711 1.00490140914917
-0.1594347059726715 -0.11942721903324127 0.9928269386291504
-0.15320374071598053 0.0459570586681366 1.5323960781097412
-0.29334479570388794 -0.06615081429481506 0.06929370760917664
-0.3090256452560425 -0.12560774385929108 0.03284382075071335
-0.3123401701450348 -0.15104927122592926 0.04932244122028351
-0.15466615557670593 -0.02266116440296173 1.388682246208191
-0.14600063860416412 0.01818114146590233 1.3338558673858643
-0.13935734331607819 -0.00829167291522026 1.315251111984253
-0.16261038184165955 -0.03483355790376663 1.3770396709442139
-0.14568006992340088 -0.07829999923706055 1.3338390588760376
-0.23131857812404633 -0.03201156109571457 0.48603108525276184
-0.23274333775043488 -0.059752508997917175 0.4020512104034424
-0.24483025074005127 -0.00794390868395567 0.3389132022857666
-0.24991951882839203 -0.03355608880519867 0.3688183128833771
-0.16086195409297943 0.06296937167644501 1.6705753803253174
-0.1411183625459671 -0.04946012422442436 1.2845748662948608
-0.14340247213840485 -0.060307569801807404 1.2418622970581055
-0.14577443897724152 -0.08592118322849274 1.2735307216644287
-0.1704254299402237 -0.10026271641254425 1.2749826908111572
-0.24071379005908966 0.0027977877762168646 0.26601672172546387
-0.15516185760498047 -0.019863922148942947 1.5292590856552124
-0.14221207797527313 0.05089539662003517 1.5333936214447021
-0.14983753859996796 0.02226429432630539 1.5263479948043823
-0.19886361062526703 -0.06733369827270508 0.5842164158821106
-0.1128593236207962 0.045386746525764465 1.765506386756897
-0.12954214215278625 -0.10700123757123947 1.211254358291626
-0.11774782836437225 -0.03369995951652527 1.1571824550628662
-0.13871224224567413 -0.12446888536214828 0.7536165714263916
-0.11609414964914322 0.09654083847999573 1.713156819343567
-0.13406221568584442 -0.05485386773943901 1.4024162292480469
-0.10538950562477112 -0.11795413494110107 0.8566840887069702
-0.14024034142494202 -0.130872905254364 0.8785576224327087
-0.1236492171883583 -0.19930385053157806 0.9175890684127808
-0.10741671919822693 -0.2147071659564972 0.8536785840988159
-0.2860495448112488 -0.18975603580474854 0.06710562109947205
-0.07709549367427826 0.1176406592130661 1.71205472946167
-0.10602141916751862 0.05605406314134598 1.7508810758590698
-0.15395767986774445 0.0030661635100841522 1.440129280090332
-0.13633021712303162 -0.022972479462623596 1.4875777959823608
-0.20775893330574036 0.015150831080973148 0.334515243768692
-0.2370540350675583 -0.00995019543915987 0.21739719808101654
-0.2752435803413391 -0.18804629147052765 0.11007549613714218
-0.24330997467041016 -0.005574813112616539 0.07636992633342743
-0.11427938938140869 -0.005490761250257492 1.318892478942871
-0.17978523671627045 -0.09449939429759979 0.557095468044281
-0.24125556647777557 -0.14712916314601898 0.01110318023711443
-0.28316739201545715 -0.14787077903747559 0.0060230884701013565
-0.10720496624708176 0.043594080954790115 1.549383282661438
-0.11011205613613129 0.013701051473617554 1.5065538883209229
-0.03232714533805847 -0.2170122265815735 0.9087762236595154
-0.07932537794113159 0.08923932164907455 0.867329478263855
-0.23657892644405365 -0.11262327432632446 0.2775774598121643
-0.21376511454582214 -0.11054296791553497 0.2016376554965973
-0.22199399769306183 -0.015117593109607697 0.11883886903524399
-0.09834706783294678 -0.004301488399505615 1.284299612045288
-0.10569729655981064 -0.025033893063664436 1.2433209419250488
-0.0780601054430008 -0.124418243765831 1.3164576292037964
-0.14438149333000183 -0.027349133044481277 0.6764708757400513
-0.12131452560424805 -0.12635162472724915 0.7439221739768982
-0.07635750621557236 -0.11726212501525879 0.8163191080093384
-0.20548895001411438 -0.1188470646739006 0.16805434226989746
-0.22972607612609863 -0.18150804936885834 0.07639169692993164
-0.12992984056472778 -0.07434621453285217 1.4814773797988892
-0.09851185977458954 0.006098080426454544 1.354201078414917
-0.06785044074058533 -0.0002919025719165802 1.289156436920166
-0.14909711480140686 -0.09726066887378693 0.5790542364120483
-0.1253887563943863 -0.07766716182231903 0.5793468952178955
-0.1661582887172699 0.01883360929787159 0.5210514068603516
-0.10042695701122284 -0.06236156076192856 1.4525145292282104
-0.07557007670402527 -0.022130191326141357 1.434443712234497
-0.10509257018566132 0.01864808425307274 1.3939297199249268
-0.13734284043312073 -0.01824689470231533 0.5258509516716003
-0.0636749267578125 0.06966640800237656 1.7542903423309326
-0.12275207042694092 -0.11486401408910751 1.616102695465088
-0.03655023127794266 -0.18841709196567535 0.9914109706878662
-0.07955549657344818 -0.032967329025268555 1.4483134746551514
-0.05837024748325348 -0.061845071613788605 1.433578372001648
-0.07872359454631805 -0.04614633321762085 1.4276537895202637
-0.0698995366692543 -0.11352252960205078 1.5478650331497192
-0.10905693471431732 -0.1063561663031578 1.4944539070129395
-0.0550324022769928 -0.0022651702165603638 1.4582339525222778
-0.10782933980226517 -0.04275615140795708 0.6455460786819458
-0.021441873162984848 0.023057013750076294 1.7769016027450562
-0.03466198220849037 0.1254958212375641 1.6821107864379883
-0.05808735266327858 -0.13013693690299988 1.4989407062530518
-0.07199357450008392 -0.10733353346586227 1.4527949094772339
-0.038170456886291504 -0.011616390198469162 1.4337166547775269
-0.04602743312716484 -0.1096857339143753 1.453055739402771
-0.008289463818073273 0.007884617894887924 1.4096742868423462
-0.028859814628958702 -0.013806886970996857 1.2830278873443604
-0.016624193638563156 0.07758937776088715 1.752555012702942
-0.017645468935370445 -0.01399311050772667 1.4625499248504639
-0.02236548438668251 -0.05682701617479324 1.4488123655319214
0.012187376618385315 0.09286145120859146 1.7123875617980957
-0.00739331915974617 0.034136995673179626 1.7584724426269531
-0.01710926741361618 -0.04828474670648575 1.4358174800872803
0.011514099314808846 -0.07882963120937347 1.4736928939819336
-0.011805515736341476 -0.027824588119983673 1.4417495727539062
0.07975723594427109 -0.09163258224725723 0.6001952886581421
0.013216894119977951 0.011906899511814117 1.4924615621566772
0.11540441960096359 -0.11110898107290268 0.5174364447593689
-0.00013597402721643448 -0.16320589184761047 1.2741618156433105
0.046939533203840256 -0.04213589429855347 1.2637202739715576
0.04957231879234314 -0.07009159028530121 1.1509802341461182
0.15094977617263794 -0.12190315127372742 0.08088355511426926
0.16700735688209534 -0.1131361871957779 0.062498539686203
0.13779190182685852 0.004703640937805176 0.09211638569831848
0.014811196364462376 -0.1469859480857849 1.2596828937530518
0.003908231854438782 -0.1877935379743576 1.1847203969955444
0.07411286234855652 -0.14131790399551392 0.7409495115280151
0.13325335085391998 -0.04487127810716629 0.0654594749212265
0.04205138236284256 0.024649426341056824 1.7185885906219482
-0.0005106963217258453 -0.123813696205616 1.6248418092727661
-0.006022226065397263 -0.10745063424110413 1.5388975143432617
-0.0023512132465839386 -0.10880844295024872 1.4943615198135376
0.09959416091442108 -0.16092857718467712 0.8855072855949402
0.09010618925094604 0.016018465161323547 1.7464728355407715
0.0191569272428751 0.009896721690893173 1.5466465950012207
0.017899563536047935 -0.008533436805009842 1.5171960592269897
0.13910812139511108 -0.019360221922397614 0.3385988175868988
0.1313217580318451 -0.008906066417694092 0.2772010266780853
0.14980649948120117 0.015220828354358673 0.07502597570419312
0.034413568675518036 0.009879503399133682 1.803680181503296
0.052793972194194794 -0.010802365839481354 1.4145152568817139
0.10001242160797119 -0.21946141123771667 0.8723042011260986
0.0910341739654541 -0.1319229006767273 0.872879147529602
0.13055485486984253 -0.19534039497375488 0.8743029832839966
0.09910531342029572 -0.04124069958925247 0.761062741279602
0.19425320625305176 -0.11259204149246216 0.07422133535146713
0.050542570650577545 0.01308385282754898 1.7297148704528809
0.03772816061973572 -0.1585565060377121 1.1514942646026611
0.04337112233042717 -0.13305766880512238 1.2778061628341675
0.045051682740449905 -0.14913015067577362 1.275308609008789
0.12595157325267792 -0.18961821496486664 0.942010760307312
0.03956470638513565 -0.06317763030529022 1.5603208541870117
0.048655323684215546 0.010386228561401367 1.5566823482513428
0.04373617470264435 -0.01502058282494545 1.5447368621826172
0.05055244266986847 -0.031232479959726334 1.539628505706787
0.06015164405107498 -0.043159469962120056 1.516345500946045
0.1396792232990265 -0.06602587550878525 0.6596192121505737
0.1376548707485199 -0.1321331411600113 0.679158091545105
0.06770387291908264 -0.04640258848667145 1.3952078819274902
0.07166160643100739 0.0012437328696250916 1.3349087238311768
0.0382523238658905 -0.002413816750049591 1.3509910106658936
0.04859575629234314 -0.023671485483646393 1.3272740840911865
0.12712876498699188 -0.11908867210149765 0.8414583206176758
0.1941593587398529 -0.0009950846433639526 0.07816027849912643
0.2081570327281952 -0.02511829137802124 0.07220998406410217
0.061744458973407745 0.0043746232986450195 1.683169960975647
0.07791823148727417 -0.024767804890871048 1.388197422027588
0.20245757699012756 -0.06430403888225555 0.3235102891921997
0.08527498692274094 0.02159624919295311 1.6577937602996826
0.06329597532749176 0.04861151799559593 1.6617786884307861
0.07161968946456909 0.018179725855588913 1.6260790824890137
0.2105126678943634 -0.034872811287641525 0.14826633036136627
0.21784797310829163 -0.0818202793598175 0.07505432516336441
0.20566098392009735 -0.11254469305276871 0.10129307210445404
0.1526605486869812 -0.014790439046919346 0.982323169708252
0.15252284705638885 -0.01572544313967228 0.8830755352973938
0.08749248087406158 -0.003549005836248398 1.743893027305603
0.1698286384344101 0.037676356732845306 0.890338122844696
0.18099337816238403 0.0010924376547336578 0.9539487957954407
0.09689730405807495 -0.008120495826005936 1.3295120000839233
0.11053895950317383 -0.028286851942539215 1.3163096904754639
0.0794076919555664 -0.04936503618955612 1.3624622821807861
0.10972145944833755 -0.015730328857898712 1.2753305435180664
0.09996945410966873 -0.019906293600797653 1.254860281944275
0.11808477342128754 -0.09446006268262863 1.2399930953979492
0.12961676716804504 -0.04991016909480095 1.2764959335327148
0.15096062421798706 -0.025393765419721603 1.2113111019134521
0.16858141124248505 -0.032187215983867645 1.135113000869751
0.19382718205451965 -0.0471600741147995 1.1517199277877808
0.1776757538318634 -0.06274783611297607 1.2006068229675293
0.15119916200637817 -0.09922438859939575 1.2205593585968018
0.1991535872220993 -0.06708955764770508 1.0998002290725708
0.21359580755233765 -0.13435772061347961 1.1528785228729248
0.22430038452148438 -0.11130177229642868 1.1332286596298218
0.21645542979240417 -0.08547269552946091 1.1049444675445557
0.17336517572402954 -0.16943657398223877 1.1354317665100098
0.19663479924201965 -0.13962268829345703 1.1021623611450195
0.19875986874103546 -0.1195397600531578 1.0891262292861938
0.23529870808124542 -0.20080772042274475 0.9876335859298706
0.17626604437828064 -0.15614914894104004 1.1021965742111206
0.17561286687850952 -0.17306995391845703 1.073993444442749
0.21625225245952606 -0.15524807572364807 1.0195757150650024
0.18143081665039062 -0.16323637962341309 1.0486726760864258
0.17532861232757568 -0.1904318630695343 1.0521053075790405
0.1996159851551056 -0.18607191741466522 1.021289587020874
0.21971148252487183 -0.1928647756576538 1.015796422958374
0.17264367640018463 -0.2141738086938858 1.0248947143554688
0.19762398302555084 -0.20597019791603088 1.0155378580093384
0.18417136371135712 -0.2081625759601593 1.0245269536972046
0.22767671942710876 -0.2074682116508484 0.9675530195236206
0.1920485645532608 -0.2227223813533783 1.0122580528259277
0.21172623336315155 -0.19119662046432495 0.98146653175354
0.21186280250549316 -0.22448034584522247 0.980697751045227
0.22910943627357483 -0.21828815340995789 0.9835564494132996
-0.3165082633495331 -0.049718305468559265 1.095339298248291
-0.30403536558151245 -0.10697999596595764 1.0858407020568848
-0.29228973388671875 -0.09007608145475388 1.0817627906799316
-0.3072875738143921 -0.12468408793210983 1.1223630905151367
-0.2613488733768463 -0.0471440814435482 1.089874267578125
-0.2813795208930969 -0.12424907088279724 1.1061227321624756
-0.20567156374454498 -0.009163357317447662 1.2345463037490845
-0.20147326588630676 -0.06321200728416443 1.2133790254592896
-0.1724599152803421 -0.09744969010353088 0.9710192680358887
-0.17617806792259216 -0.015397422946989536 0.9522193670272827
-0.12631498277187347 0.05128227174282074 0.935974657535553
-0.10117766261100769 0.15200112760066986 1.2575187683105469
-0.09335854649543762 0.14888855814933777 1.1990926265716553
-0.09361931681632996 0.1721479296684265 1.1698700189590454
-0.15096625685691833 -0.011222844943404198 0.9727095365524292
-0.20506463944911957 0.04109880328178406 1.7215359210968018
-0.1550717055797577 0.00858277827501297 1.3542722463607788
-0.17562608420848846 0.0077224001288414 1.2874767780303955
-0.026484781876206398 0.1623852550983429 1.0727603435516357
-0.05101867765188217 0.1671423316001892 0.9923816919326782
-0.29554471373558044 -0.084040567278862 0.12810778617858887
-0.3130311369895935 -0.13559947907924652 0.079442098736763
-0.18116027116775513 0.03260345011949539 1.7037944793701172
-0.16528162360191345 0.043064411729574203 1.6492397785186768
-0.15633827447891235 -0.12290987372398376 1.2516717910766602
-0.15588940680027008 -0.13970762491226196 1.2249460220336914
-0.1599762737751007 -0.15994742512702942 1.22147798538208
-0.10729306936264038 0.11397061496973038 1.3731274604797363
-0.09889937937259674 0.10527670383453369 1.3685097694396973
-0.13673461973667145 -0.12446510791778564 1.2666529417037964
-0.14854761958122253 -0.05363290384411812 1.2071324586868286
-0.2669939398765564 -0.10113364458084106 0.19385340809822083
-0.273228257894516 -0.055886123329401016 0.20077018439769745
-0.05180826038122177 0.12832516431808472 1.2522056102752686
-0.1603425294160843 -0.0084606371819973 1.4527149200439453
-0.15977157652378082 -0.002890363335609436 1.4314556121826172
-0.1457824856042862 -0.0071950554847717285 1.413793921470642
-0.15979814529418945 -0.001193612813949585 1.4103360176086426
-0.15880057215690613 -0.020662184804677963 1.4017603397369385
-0.1506456732749939 -0.10837365686893463 0.7989281415939331
-0.16245734691619873 -0.0699811726808548 0.7946581840515137
-0.019188638776540756 0.2213331162929535 1.0816341638565063
-0.02168041653931141 0.21912351250648499 1.1326467990875244
-0.127841979265213 -0.11750134825706482 1.2629952430725098
-0.1292497217655182 -0.10876914113759995 0.8707315921783447
-0.2684910297393799 -0.02136380597949028 0.12649068236351013
-0.2737530767917633 -0.020975030958652496 0.08898398280143738
-0.13991032540798187 -0.18628840148448944 0.856243371963501
-0.05101804435253143 0.18866558372974396 1.2339105606079102
-0.16165459156036377 -0.08323431015014648 1.6135681867599487
-0.13182294368743896 0.028342626988887787 1.530662178993225
-0.0983668714761734 0.11280003190040588 1.49920654296875
-0.09956180304288864 0.07669807970523834 1.5578248500823975
-0.11906915158033371 0.07617972046136856 1.5311312675476074
-0.10412156581878662 0.09351103007793427 1.4460762739181519
-0.052883442491292953 0.13386836647987366 1.5424304008483887
-0.12292508780956268 -0.007810063660144806 1.4828433990478516
-0.08434055000543594 0.04391489923000336 0.9789164662361145
-0.14034603536128998 0.03868968039751053 1.80508553981781
-0.15101179480552673 0.031935788691043854 1.7993764877319336
-0.15360689163208008 0.02085123211145401 1.7852615118026733
-0.021614642813801765 0.07479272782802582 1.4390788078308105
-0.07662533968687057 0.12624695897102356 1.4163280725479126
-0.21290956437587738 -0.0836234763264656 0.05003563314676285
-0.025395959615707397 0.16257843375205994 1.3629677295684814
-0.12481645494699478 -0.08444952964782715 1.526735544204712
-0.18292136490345 -0.06231105327606201 0.4040687680244446
-0.06217722222208977 0.07414551079273224 1.499866247177124
-0.08640936017036438 0.03471377491950989 1.4829487800598145
-0.031041115522384644 0.13750992715358734 1.4640371799468994
-0.03235504776239395 0.051593828946352005 0.8613308668136597
-0.1913735419511795 0.0006844217423349619 0.35433340072631836
0.02622496895492077 0.18010163307189941 0.9921872615814209
-0.03182348236441612 0.03700080141425133 1.0366034507751465
-0.10908062011003494 -0.14943033456802368 1.2622718811035156
-0.10198772698640823 -0.1521223783493042 1.160782814025879
-0.17988765239715576 -0.02699923701584339 0.3323057293891907
-0.1651196926832199 -0.04181688278913498 0.26981475949287415
-0.19585411250591278 0.007531179115176201 0.26508957147598267
-0.06957405805587769 0.05709175392985344 1.518734097480774
-0.0929829329252243 -0.10275647044181824 0.6934541463851929
-0.11855980008840561 -0.028596188873052597 0.6666986346244812
0.03300996869802475 0.22315096855163574 1.1235573291778564
0.038528550416231155 0.213359534740448 1.0387228727340698
-0.055975500494241714 -0.18473684787750244 1.1876249313354492
-0.19382351636886597 -0.06910854578018188 0.13419388234615326
0.028071004897356033 0.16328531503677368 1.0319675207138062
0.01912693865597248 0.1427086591720581 1.0689500570297241
-0.001013088971376419 0.05401315540075302 1.5105054378509521
-0.09042162448167801 -0.0803072601556778 1.3961037397384644
0.02758420631289482 0.16821323335170746 1.3433867692947388
0.02335646003484726 0.06428709626197815 1.4297184944152832
-0.009840618818998337 0.04615918919444084 1.5111005306243896
0.07782464474439621 0.15544083714485168 1.0410022735595703
0.09564608335494995 0.14184363186359406 0.9979672431945801
-0.026386601850390434 -0.0980028361082077 1.3923022747039795
0.01370125450193882 0.035896893590688705 1.03508722782135
-0.028875891119241714 -0.19934499263763428 1.1158695220947266
0.08944252133369446 0.1375696361064911 1.368503451347351
0.00920279510319233 -0.012895602732896805 1.3002580404281616
0.059196099638938904 0.11270226538181305 1.4709465503692627
0.025170963257551193 0.06614361703395844 1.4727035760879517
0.02418968267738819 -0.030892696231603622 1.2112867832183838
0.0454559363424778 0.09381814301013947 0.9258221387863159
-0.010531332343816757 -0.01250886544585228 1.741586685180664
0.13273188471794128 -0.09449800848960876 0.0930456891655922
0.12297958135604858 -0.10151562839746475 0.06884728372097015
0.12565676867961884 -0.04060187190771103 0.10613633692264557
-0.0458403117954731 -0.1289691925048828 1.6174724102020264
0.0698627233505249 -0.062462933361530304 0.7249010801315308
0.08156126737594604 0.052473463118076324 1.4419891834259033
0.0233499463647604 -0.04482397809624672 1.483856201171875
0.06131395697593689 -0.030359085649251938 1.4319998025894165
0.02026446908712387 0.0015696026384830475 1.4074177742004395
0.11836010962724686 -0.0329565666615963 0.40614384412765503
0.14180581271648407 -0.11567474901676178 0.24813389778137207
0.13610504567623138 -0.028446665033698082 0.21276523172855377
0.14245517551898956 0.14190709590911865 1.0504817962646484
0.13713742792606354 0.16907015442848206 1.0173851251602173
0.10759706795215607 -0.1459994614124298 0.752639651298523
0.11297749727964401 -0.05260421335697174 0.6685940623283386
-0.011750295758247375 -0.060203950852155685 1.7277921438217163
0.02853415347635746 -0.07200302928686142 1.6844298839569092
0.130442813038826 -0.13023877143859863 0.5613386034965515
0.009566063061356544 -0.0066422149538993835 1.7550803422927856
0.03254617005586624 -0.024155471473932266 1.7052348852157593
0.06111820042133331 -0.09781063348054886 1.146979808807373
0.0658668577671051 -0.08580730110406876 1.1203148365020752
0.056658968329429626 -0.15841832756996155 1.1034873723983765
0.01303519681096077 -0.11122927069664001 1.6168029308319092
0.03610186278820038 -0.04395006597042084 1.5131304264068604
0.024963071569800377 -0.08304581791162491 1.511891484260559
0.18025831878185272 0.11919458955526352 1.0119496583938599
0.05984269827604294 -0.08791787922382355 1.302450180053711
0.07054182887077332 -0.15230166912078857 1.2649919986724854
0.06831318885087967 -0.10048240423202515 1.2483549118041992
0.17921526730060577 -0.01229500025510788 0.16497792303562164
0.19326408207416534 -0.09275633841753006 0.18479327857494354
0.2077646255493164 -0.08013655245304108 0.16998112201690674
0.05039238557219505 -0.0017603226006031036 1.7286176681518555
0.06917881220579147 -0.09668994694948196 1.3036937713623047
0.19168636202812195 -0.037562206387519836 0.4463523328304291
0.17076465487480164 -0.09321746230125427 0.4986954927444458
0.20048308372497559 -0.05090514197945595 0.3900662958621979
0.07449637353420258 -0.046361006796360016 1.4256396293640137
0.06130145862698555 -0.04237043485045433 1.4221136569976807
0.08083604276180267 -0.03375186398625374 1.3802577257156372
0.11877506226301193 0.06403698027133942 0.9361065030097961
0.13182878494262695 -0.11689063906669617 0.8760290741920471
0.2073899805545807 -0.0330815389752388 0.2641734480857849
0.22307497262954712 -0.06398772448301315 0.2712441682815552
0.08463966846466064 -0.01323285698890686 1.3740496635437012
0.1582338511943817 0.07438206672668457 1.2863132953643799
0.16915960609912872 0.09941402822732925 1.2627768516540527
0.0798439159989357 -0.22590512037277222 1.1635116338729858
0.14817175269126892 -0.06585045903921127 1.0077403783798218
0.15032529830932617 -0.12343860417604446 1.0027090311050415
0.11379680782556534 -0.011573992669582367 1.199805498123169
0.13265745341777802 -0.12267575412988663 1.0978347063064575
0.1527370661497116 -0.08634979277849197 1.0794613361358643
0.1348550021648407 -0.15352649986743927 1.1639679670333862
-0.2997116148471832 -0.06516903638839722 1.0712151527404785
-0.307704359292984 -0.12281053513288498 1.0553005933761597
-0.23899437487125397 -0.1021290197968483 1.1489319801330566
-0.24989768862724304 -0.10159061849117279 1.1962547302246094
-0.21717768907546997 -0.06736615300178528 1.1560698747634888
-0.21685364842414856 -0.027776900678873062 1.175309181213379
-0.19157980382442474 -0.15199978649616241 0.8839164972305298
-0.08170168101787567 0.17467977106571198 1.0307061672210693
-0.09142167866230011 0.1651942878961563 1.1315133571624756
-0.16780252754688263 -0.22588294744491577 1.1312410831451416
-0.13876445591449738 -0.16033142805099487 0.9633374214172363
-0.28001439571380615 -0.042790234088897705 0.28951603174209595
-0.25721505284309387 -0.09330306202173233 0.3038487434387207
-0.20460349321365356 0.010654209181666374 0.5084349513053894
-0.15104912221431732 -0.19226348400115967 0.8624109625816345
-0.18092049658298492 -0.04913971573114395 0.6514546871185303
-0.16888129711151123 -0.09187615662813187 0.7033818960189819
-0.15177945792675018 -0.03376469388604164 0.7096172571182251
-0.10242681205272675 -0.0177077017724514 1.0991853475570679
-0.11455188691616058 -0.07661787420511246 1.1248868703842163
-0.010546974837779999 0.2091515064239502 1.2043612003326416
-0.1138763278722763 -0.018479546532034874 0.8660501837730408
-0.21412378549575806 -0.10628660768270493 0.31585991382598877
-0.11877040565013885 -0.020612644031643867 1.204094648361206
-0.09516823291778564 -0.038480211049318314 1.1324692964553833
-0.19667072594165802 -0.08375964313745499 0.4560776352882385
-0.1444925218820572 0.016773108392953873 1.7223869562149048
-0.15103641152381897 -0.01916453242301941 1.7111400365829468
-0.11352774500846863 -0.05626526102423668 1.7204008102416992
-0.1322503536939621 -0.0927744209766388 1.6783788204193115
-0.1459013968706131 -0.08488162606954575 1.5780787467956543
-0.18897590041160583 -0.06247470900416374 0.34899064898490906
-0.08586128056049347 -0.11559277772903442 0.7434182167053223
-0.1682586669921875 -0.07174485921859741 0.277845561504364
-0.18632102012634277 -0.10018987953662872 0.28324413299560547
-0.20380255579948425 -0.020768852904438972 0.2128954380750656
-0.04621586948633194 0.06491991877555847 0.9682419896125793
-0.09863285720348358 0.025696229189634323 1.7679343223571777
-0.11639785021543503 0.01456012949347496 1.754050850868225
0.0618937686085701 0.12864276766777039 1.1878200769424438
-0.02129100263118744 0.14607523381710052 1.1865839958190918
0.037164896726608276 0.11816305667161942 1.24399733543396
-0.006903465837240219 -0.03155321255326271 1.2497851848602295
0.056006744503974915 0.1958141028881073 1.2377880811691284
0.06235458329319954 0.1423248052597046 1.074751615524292
0.11893633008003235 0.20078051090240479 1.1601791381835938
0.010363668203353882 0.11285549402236938 1.6553606986999512
0.09261776506900787 0.12813270092010498 1.0838313102722168
0.04021909832954407 -0.2186976671218872 0.912349283695221
0.10670654475688934 -0.08044960349798203 0.2671869993209839
0.137959823012352 -0.08853460103273392 0.20792075991630554
0.06922925263643265 -0.1301518678665161 0.7075735330581665
0.03225449100136757 0.008440445177257061 1.0721838474273682
0.09528934210538864 -0.049011148512363434 0.5780361294746399
0.09420465677976608 0.08978310227394104 1.3122166395187378
0.04576844349503517 -0.054748814553022385 1.414595365524292
0.04111691564321518 0.09747105091810226 1.619249701499939
0.03105969913303852 0.030608519911766052 1.5886785984039307
0.037588052451610565 0.04642638564109802 1.5635945796966553
0.005299415439367294 0.00025344640016555786 1.8025320768356323
0.04844963550567627 -0.07568302750587463 1.3502397537231445
0.16027821600437164 -0.01734684593975544 0.5122267603874207
0.12652187049388885 -0.005263587459921837 0.507983922958374
0.15645843744277954 -0.0094766765832901 0.3582662343978882
0.1784067302942276 -0.011841017752885818 0.33001571893692017
0.0595819354057312 -0.040593069046735764 1.5045061111450195
0.04643899202346802 -0.04926207289099693 1.5144531726837158
0.060321010649204254 -0.04645998030900955 1.498000144958496
0.13378414511680603 -0.05249558389186859 0.7757214307785034
0.1527339369058609 -0.09578704833984375 0.645697295665741
0.11690781265497208 0.02425326220691204 0.9763344526290894
0.09708904474973679 -0.07757614552974701 1.0976412296295166
0.08989298343658447 -0.13148260116577148 1.088151454925537
0.09944947808980942 -0.15648886561393738 1.0374765396118164
0.06303880363702774 -0.004943083971738815 1.6269142627716064
0.07497400790452957 -0.011203475296497345 1.5437730550765991
0.06542322039604187 -0.14437872171401978 1.2465097904205322
0.09561190754175186 0.05975683778524399 1.5318126678466797
0.08239013701677322 0.033207304775714874 1.5719380378723145
0.20768307149410248 -0.007467024028301239 0.1003425121307373
0.2217610776424408 -0.049157798290252686 0.08746734261512756
0.10492280125617981 0.038262974470853806 1.4979654550552368
0.11262877285480499 0.0509076751768589 1.4646387100219727
0.12169745564460754 0.03825001046061516 1.4301995038986206
0.12451297044754028 0.05158405005931854 1.416109561920166
0.07538711279630661 -0.22715243697166443 1.1831051111221313
0.17839840054512024 -0.15728184580802917 0.8919060230255127
0.09089001268148422 -0.20186194777488708 1.1941196918487549
0.08758995682001114 -0.22816941142082214 1.1829394102096558
0.20572592318058014 -0.11258688569068909 0.912727415561676
0.20858772099018097 -0.08982674032449722 0.8930281400680542
0.2166248857975006 -0.05488359183073044 0.9035078883171082
-0.22150281071662903 -0.09210103005170822 1.2018890380859375
-0.1813892275094986 -0.09027300775051117 1.2672983407974243
-0.18932852149009705 -0.08934786915779114 1.2510517835617065
-0.1804690659046173 -0.08108606189489365 1.2571845054626465
-0.17680242657661438 -0.07943817973136902 1.2740461826324463
-0.19662770628929138 0.0024968264624476433 0.8919597268104553
-0.15144109725952148 -0.04491516947746277 1.2911778688430786
-0.14581149816513062 -0.06388190388679504 1.0741345882415771
-0.13805848360061646 0.10572732985019684 1.535882592201233
-0.14896738529205322 -0.0804915800690651 1.1973098516464233
-0.14656725525856018 -0.07681640237569809 1.1432948112487793
-0.10610979795455933 0.10688275843858719 1.4306495189666748
-0.09104836732149124 0.10038033872842789 1.3920440673828125
-0.13443481922149658 -0.13977207243442535 1.0408177375793457
-0.10037650913000107 -0.16588270664215088 1.0014004707336426
-0.1388302743434906 -0.026969853788614273 0.7952185869216919
-0.01918216049671173 0.18673427402973175 1.2726240158081055
-0.08156824111938477 0.13061212003231049 1.6297000646591187
-0.20036360621452332 -0.03523213416337967 0.07960805296897888
-0.21362538635730743 -0.02198202908039093 0.07104866206645966
-0.08254575729370117 0.025589846074581146 0.8724895119667053
0.0011388864368200302 0.09504992514848709 0.8571968078613281
-0.06744801253080368 -0.019942328333854675 0.8509927988052368
0.02517825923860073 0.09037024527788162 1.3351010084152222
-0.05367593094706535 -0.07928156107664108 0.7685965299606323
-0.0806664451956749 -0.11578140407800674 1.5939832925796509
-0.007018227130174637 0.01448770985007286 0.8766241073608398
-0.0057965535670518875 -0.02614900842308998 0.8555935621261597
0.018076959997415543 -0.11878056824207306 0.8610730171203613
-0.07922026515007019 -0.16405586898326874 0.8606840968132019
-0.007835449650883675 -0.22529399394989014 0.8534069657325745
0.03815741837024689 -0.11071472615003586 0.8417887687683105
-0.008035863749682903 -0.16105243563652039 0.8650897741317749
-0.018275436013936996 0.029662195593118668 1.4821102619171143
0.030003560706973076 -0.03708701208233833 0.8532955050468445
0.034842316061258316 -0.05035244673490524 0.8378067016601562
-0.00603819265961647 0.03778054565191269 1.5605570077896118
-0.0012350678443908691 0.04287267476320267 1.5352405309677124
0.046482447534799576 -0.12479126453399658 0.8574742078781128
0.13265301287174225 0.05717005953192711 0.8693716526031494
0.10811249911785126 -0.05160362645983696 0.26721441745758057
0.05720433220267296 -0.03593222424387932 0.8270623683929443
0.09819260239601135 0.12116144597530365 1.2195875644683838
0.13679781556129456 -0.08456060290336609 0.3926725387573242
0.1332997828722 -0.06254185736179352 0.33089327812194824
0.14957699179649353 -0.08493901789188385 0.34596383571624756
0.14851361513137817 -0.1232219785451889 0.28997859358787537
0.0823737308382988 0.07371409237384796 1.4986673593521118
0.08327266573905945 -0.017046961933374405 0.8621000647544861
0.11167371273040771 -0.0363452211022377 0.8432892560958862
0.06776129454374313 -0.07304024696350098 1.2495276927947998
0.16681985557079315 -0.09805718064308167 0.4409234821796417
0.06715644150972366 0.049101438373327255 1.6073429584503174
0.053456634283065796 -0.02781166136264801 1.2987236976623535
0.1798623651266098 -0.0845392495393753 0.3478891849517822
0.12636981904506683 0.17815600335597992 1.2189055681228638
0.07460097968578339 -0.056075319647789 1.222346305847168
0.16737240552902222 -0.01983156055212021 0.2225371152162552
0.17029185593128204 0.16801568865776062 1.1392191648483276
0.16454628109931946 -0.009365711361169815 0.25968611240386963
0.1922166496515274 -0.12366560101509094 0.26459816098213196
0.13206443190574646 0.06894411146640778 1.333009123802185
0.0700584426522255 -0.028916317969560623 1.4620904922485352
0.07854264974594116 -0.026318233460187912 1.4286820888519287
0.06780137866735458 -0.027411967515945435 1.4615192413330078
0.09259606152772903 -0.026072034612298012 1.4081376791000366
0.08299902081489563 -0.16892719268798828 1.2340364456176758
0.06953795999288559 -0.17825274169445038 1.2284361124038696
0.16291004419326782 0.08763611316680908 1.2432007789611816
0.19049298763275146 0.11847984790802002 1.1835336685180664
0.1861165463924408 0.11190877109766006 1.1497915983200073
0.08909241855144501 -0.03506113588809967 1.2549636363983154
0.08184126019477844 -0.06624164432287216 1.269554853439331
0.16085253655910492 -0.18223261833190918 0.9007546901702881
0.08823493123054504 -0.07636965811252594 1.2796885967254639
0.08813496679067612 -0.10143247246742249 1.1775201559066772
0.10955320298671722 -0.04014934226870537 1.1583023071289062
0.0962371677160263 -0.08347079902887344 1.1462225914001465
0.14618055522441864 -0.13245581090450287 1.1961374282836914
0.17453883588314056 -0.12131313979625702 1.0683759450912476
0.14641936123371124 -0.16304761171340942 1.120591402053833
-0.17090152204036713 -0.21141065657138824 1.1698088645935059
-0.1679614782333374 -0.14217424392700195 1.2152507305145264
-0.17449569702148438 -0.12820345163345337 1.234797477722168
-0.16030174493789673 -0.19803953170776367 1.1702674627304077
-0.12406118959188461 0.11175878345966339 1.4594895839691162
-0.1299484819173813 0.1002158597111702 1.443434715270996
-0.1258254498243332 0.1163286492228508 1.400524377822876
-0.16758525371551514 0.016564078629016876 1.684462308883667
-0.1716599017381668 -0.01790064573287964 1.6005016565322876
-0.24636831879615784 -0.060475461184978485 0.34755516052246094
-0.13384005427360535 -0.06690475344657898 0.8644863367080688
-0.13756726682186127 -0.09123553335666656 0.8442003726959229
-0.06657036393880844 0.18739624321460724 1.0099570751190186
-0.11736926436424255 -0.11590279638767242 1.25437331199646
-0.12105359137058258 -0.02866804227232933 0.8398135900497437
-0.12199979275465012 -0.000526919960975647 1.7337778806686401
-0.10743352770805359 -0.11957570165395737 1.1327905654907227
-0.07557231932878494 -0.18208518624305725 1.130738377571106
-0.017988698557019234 0.16180823743343353 1.114309310913086
0.05357843637466431 0.1440243273973465 1.1139222383499146
-0.07294674962759018 -0.02318200282752514 1.1478033065795898
-0.0559309646487236 -0.11423759162425995 0.8539389967918396
-0.06313394010066986 -0.18746572732925415 1.0627598762512207
-0.05169864371418953 0.017110787332057953 1.0571033954620361
-0.07212775200605392 -0.10400893539190292 1.6925344467163086
0.03775738924741745 -0.10263219475746155 0.7782251834869385
-0.020826183259487152 0.10957653820514679 1.3044853210449219
0.11998875439167023 -0.06378833949565887 0.06297395378351212
0.16121117770671844 0.18274325132369995 1.0768814086914062
0.11742491275072098 0.1351291686296463 1.1362457275390625
0.111027792096138 0.20811393857002258 1.085237979888916
0.10137291997671127 0.0863875150680542 0.8699849843978882
0.17929436266422272 0.017983809113502502 0.0906466692686081
0.1254398226737976 -0.038175590336322784 0.870551586151123
0.17013277113437653 -0.08819262683391571 0.3990303874015808
0.07588513940572739 -0.048266779631376266 1.3946104049682617
0.07300929725170135 -0.07051892578601837 1.3177927732467651
0.20160327851772308 -0.0008784197270870209 0.8935893774032593
0.1978013813495636 -0.05131576210260391 0.9582387208938599
0.16342052817344666 -0.14938725531101227 1.0856401920318604
-0.2592651844024658 -0.11624319851398468 1.1656277179718018
-0.19494646787643433 -0.08356784284114838 0.9467424750328064
-0.21396273374557495 -0.07225273549556732 0.8951457738876343
-0.12924781441688538 0.09991802275180817 1.3957693576812744
-0.10203056782484055 0.12987829744815826 1.2594358921051025
