-0.12403436005115509 0.0796438679099083 1.3446300029754639
-0.10316117107868195 -0.15054254233837128 1.2721976041793823
-0.13125421106815338 -0.06500418484210968 1.2137043476104736
-0.1260535717010498 -0.059024956077337265 0.1229829341173172
-0.13103927671909332 -0.018003031611442566 0.14119203388690948
-0.08768580853939056 0.10640177875757217 1.196284532546997
-0.14166447520256042 -0.04720485582947731 1.4719054698944092
-0.14062201976776123 -0.042442962527275085 1.4469578266143799
-0.12780356407165527 -0.0417061448097229 1.425547480583191
-0.1430855095386505 -0.04002733528614044 1.422426462173462
-0.1439422070980072 -0.05637584626674652 1.409237265586853
-0.12129484117031097 -0.1165505051612854 0.7583256363868713
-0.13441018760204315 -0.0773196890950203 0.7498698234558105
-0.08110178261995316 0.19739419221878052 0.9689867496490479
-0.08128836750984192 0.20231446623802185 1.0270798206329346
-0.09583083540201187 -0.14229236543178558 1.267891526222229
-0.12070895731449127 -0.11486905813217163 0.8405681848526001
-0.12146331369876862 0.051059573888778687 0.053560562431812286
-0.12436315417289734 0.04503406584262848 0.0037504099309444427
-0.13526369631290436 -0.19156847894191742 0.8396798968315125
-0.10095445066690445 0.17308276891708374 1.1609313488006592
-0.13152208924293518 -0.10889171063899994 1.660567045211792
-0.11681127548217773 0.008685357868671417 1.5527430772781372
-0.10405012220144272 0.09814184904098511 1.501704216003418
-0.09372861683368683 0.06706538051366806 1.5701940059661865
-0.11768443882465363 0.05941799283027649 1.5446937084197998
-0.11411444842815399 0.07299292832612991 1.4465519189834595
-0.059748705476522446 0.1357680857181549 1.5348396301269531
-0.09979806840419769 -0.03401976823806763 1.5070970058441162
-0.09857383370399475 0.04599606245756149 0.9687182903289795
-0.13264323770999908 0.040892452001571655 1.8377468585968018
-0.142924964427948 0.033089421689510345 1.8334882259368896
-0.14645478129386902 0.02260584384202957 1.8236738443374634
-0.02324371598660946 0.06583677232265472 1.4292045831680298
-0.09798344224691391 0.11300451308488846 1.3950293064117432
-0.05290347710251808 -0.04325838387012482 -0.017311429604887962
-0.054829567670822144 0.1589847058057785 1.312106728553772
-0.09352350234985352 -0.11166641861200333 1.5651332139968872
-0.06961887329816818 -0.060771871358156204 0.3536560535430908
-0.05924716964364052 0.0661139190196991 1.5062792301177979
-0.06970653682947159 0.014075078070163727 1.501257300376892
-0.046635501086711884 0.1329355090856552 1.439267873764038
-0.03922995924949646 0.0516890287399292 0.8532775640487671
-0.07108992338180542 0.00790458731353283 0.3110354244709015
-0.024252302944660187 0.15871480107307434 0.8722859621047974
-0.031181825324892998 0.047165337949991226 1.0318410396575928
-0.07509621232748032 -0.16795894503593445 1.26582932472229
-0.07936801761388779 -0.1553056687116623 1.1637130975723267
-0.056571222841739655 -0.018411114811897278 0.2862241864204407
-0.03444591164588928 -0.0266558900475502 0.22420252859592438
-0.06414949893951416 0.022955721244215965 0.22346648573875427
-0.05279950052499771 0.050581011921167374 1.5325623750686646
-0.03347892686724663 -0.11483736336231232 0.666536271572113
-0.05560251325368881 -0.041654471307992935 0.6317899823188782
-0.020317954942584038 0.21734082698822021 1.0124684572219849
-0.02018825337290764 0.20065942406654358 0.9178391695022583
-0.025064151734113693 -0.1867670714855194 1.1888357400894165
-0.044001396745443344 -0.008573567494750023 0.08086937665939331
-0.018124990165233612 0.14378060400485992 0.9201171398162842
-0.020478494465351105 0.12064660340547562 0.9708731174468994
0.016186999157071114 0.0538577064871788 1.5151569843292236
-0.0623420774936676 -0.11325179040431976 1.4069923162460327
0.007912475615739822 0.17055217921733856 1.2852325439453125
0.02904752641916275 0.06265933066606522 1.4145073890686035
0.008847441524267197 0.04469267651438713 1.5248271226882935
0.04771697148680687 0.14524993300437927 0.9329850077629089
0.060566045343875885 0.1285237967967987 0.8799839615821838
0.004899689927697182 -0.1256123185157776 1.399484395980835
0.018695438280701637 0.046040892601013184 1.0264211893081665
-0.004951676353812218 -0.19544589519500732 1.1198301315307617
0.08545825630426407 0.15219326317310333 1.3122445344924927
0.03099343739449978 -0.008092135190963745 1.3098604679107666
0.06403934955596924 0.12384223937988281 1.4479615688323975
0.03470011055469513 0.06816018372774124 1.462404727935791
0.04360385611653328 -0.016996867954730988 1.2177340984344482
0.04446415230631828 0.09643591195344925 0.9169045686721802
0.025356348603963852 0.0017473101615905762 1.776766061782837
0.01281510666012764 -0.1935751736164093 0.06930763274431229
0.01822737045586109 -0.23289257287979126 0.04142053797841072
0.01792537234723568 -0.10269374400377274 0.03774064779281616
0.0034363064914941788 -0.14052391052246094 1.6724355220794678
0.04030998423695564 -0.06828869879245758 0.6925079822540283
0.1015324518084526 0.06044512242078781 1.4282143115997314
0.0604366809129715 -0.056727953255176544 1.5105297565460205
0.10948116332292557 -0.05762101709842682 1.443699836730957
0.05760741978883743 -0.020969759672880173 1.4218945503234863
0.0489196740090847 -0.0689614862203598 0.358556866645813
0.045012425631284714 -0.1646943986415863 0.2081453502178192
0.06250084936618805 -0.06770624220371246 0.16091637313365936
0.12111830711364746 0.14596329629421234 0.9377040863037109
0.1082192212343216 0.1697535514831543 0.8925968408584595
0.07827609032392502 -0.15394625067710876 0.7213141918182373
0.07473333925008774 -0.061844535171985626 0.6287822723388672
0.03102429024875164 -0.05505809932947159 1.7696301937103271
0.07861004769802094 -0.06252264231443405 1.7237493991851807
0.07126819342374802 -0.14922982454299927 0.5262264013290405
0.045887358486652374 0.014636814594268799 1.7892861366271973
0.08016900718212128 -0.002982866019010544 1.7382484674453735
0.0856873095035553 -0.07908213138580322 1.144687294960022
0.09027886390686035 -0.07023406028747559 1.113328218460083
0.08203539997339249 -0.14643855392932892 1.1003648042678833
0.06646105647087097 -0.10984109342098236 1.6625611782073975
0.07768344134092331 -0.04604604095220566 1.5429295301437378
0.07094253599643707 -0.09226783365011215 1.5488027334213257
0.16900360584259033 0.12748278677463531 0.895314633846283
0.10038010776042938 -0.11111301183700562 1.3010097742080688
0.11116950958967209 -0.17813129723072052 1.2530428171157837
0.10110267996788025 -0.09862454235553741 1.2499051094055176
0.10121604800224304 -0.07076409459114075 0.09765220433473587
0.08372780680656433 -0.17222163081169128 0.12951120734214783
0.10003611445426941 -0.16882234811782837 0.1111946552991867
0.09229209274053574 0.02255748212337494 1.7586692571640015
0.1130034551024437 -0.1294984370470047 1.2984588146209717
0.12682850658893585 -0.07376774400472641 0.3932510316371918
0.1090182512998581 -0.12169163674116135 0.45283353328704834
0.1277507245540619 -0.09283154457807541 0.33517950773239136
0.1255050003528595 -0.07911151647567749 1.4357467889785767
0.11190417408943176 -0.07322195172309875 1.4313114881515503
0.13175342977046967 -0.049146056175231934 1.391950249671936
0.12492557615041733 0.06737202405929565 0.9082015752792358
0.12315668165683746 -0.11494618654251099 0.8370907306671143
0.13480626046657562 -0.09016089141368866 0.20381848514080048
0.14066538214683533 -0.1220962405204773 0.21312911808490753
0.14412473142147064 -0.039019204676151276 1.384522795677185
0.17340382933616638 0.08825075626373291 1.2291861772537231
0.18011590838432312 0.12010855972766876 1.1934490203857422
0.114248126745224 -0.24147947132587433 1.142081379890442
0.16982588171958923 -0.057590629905462265 0.9757391214370728
0.17248111963272095 -0.1177954152226448 0.9677385091781616
0.1428820937871933 -0.004391424357891083 1.1901748180389404
0.18939705193042755 -0.07943321764469147 1.033889889717102
0.18532972037792206 -0.024446215480566025 1.0274109840393066
0.22958716750144958 -0.1349652260541916 1.0800855159759521
-0.2148497849702835 -0.009627853520214558 0.942280650138855
-0.23111365735530853 -0.07667619735002518 0.9119508266448975
-0.17894244194030762 -0.10050132870674133 1.069420337677002
-0.2156122922897339 -0.11382538080215454 1.1130595207214355
-0.14461222290992737 -0.0663803368806839 1.1006320714950562
-0.13855816423892975 -0.01700782962143421 1.12682044506073
-0.19047608971595764 -0.15896986424922943 0.8512082695960999
-0.1510021686553955 0.13116544485092163 0.9278926849365234
-0.15406586229801178 0.1279486119747162 1.0482362508773804
-0.09422320127487183 -0.2534100115299225 1.1141068935394287
-0.14581254124641418 -0.16683697700500488 0.9531443119049072
-0.15139664709568024 -0.03250763565301895 0.2269931435585022
-0.13059192895889282 -0.08153977245092392 0.23879118263721466
-0.10787457227706909 -0.0028019396122545004 0.46449223160743713
-0.14675340056419373 -0.19815868139266968 0.8441173434257507
-0.11025962978601456 -0.0682949498295784 0.5976812839508057
-0.11165802925825119 -0.10798919945955276 0.6559796333312988
-0.10039752721786499 -0.04639839380979538 0.665807843208313
-0.10116368532180786 -0.008790887892246246 1.1045581102371216
-0.1031944677233696 -0.07037092000246048 1.131900668144226
-0.06041476130485535 0.19805727899074554 1.110044240951538
-0.11118356883525848 -0.021683188155293465 0.8386362195014954
-0.08469267934560776 -0.09447454661130905 0.2548661231994629
-0.10786989331245422 -0.022246701642870903 1.214367151260376
-0.0862840861082077 -0.03081030212342739 1.1402477025985718
-0.0892607644200325 -0.08797864615917206 0.4000575542449951
-0.1309659481048584 0.011927161365747452 1.7561674118041992
-0.13147790729999542 -0.026272792369127274 1.7480077743530273
-0.08466368913650513 -0.0640440285205841 1.765557050704956
-0.09716463834047318 -0.10842456668615341 1.7286609411239624
-0.11337226629257202 -0.11146067827939987 1.6210131645202637
-0.0692799910902977 -0.055458053946495056 0.29685068130493164
-0.039284225553274155 -0.122736357152462 0.7216100096702576
-0.037480589002370834 -0.05574682354927063 0.22671550512313843
-0.055899281054735184 -0.0861549898982048 0.22712883353233337
-0.06826946139335632 0.01071939431130886 0.17141371965408325
-0.05643170699477196 0.06815138459205627 0.9617113471031189
-0.0835186317563057 0.034597475081682205 1.8017956018447876
-0.0949094370007515 0.01870385929942131 1.7909438610076904
0.03822287917137146 0.12402310967445374 1.1141647100448608
-0.06649307906627655 0.12485753744840622 1.1108860969543457
0.015330458991229534 0.11337748914957047 1.1789478063583374
0.011094426736235619 -0.02689264714717865 1.2578483819961548
0.023800669237971306 0.20057308673858643 1.1502861976623535
0.029207292944192886 0.12715324759483337 0.9761809706687927
0.09345477819442749 0.21167732775211334 1.0531625747680664
0.025907348841428757 0.13703268766403198 1.6551361083984375
0.07276150584220886 0.11927703022956848 0.9856982231140137
0.043702103197574615 -0.2171899378299713 0.9056940078735352
0.016365978866815567 -0.12261985242366791 0.22690220177173615
0.029270391911268234 -0.1390111744403839 0.16734075546264648
0.032149121165275574 -0.13580256700515747 0.6803524494171143
0.04505272954702377 0.020782189443707466 1.0625417232513428
0.04409819096326828 -0.06171166151762009 0.5386524200439453
0.09947799146175385 0.09339608252048492 1.2604697942733765
0.08818179368972778 -0.1036146879196167 1.4193668365478516
0.06304982304573059 0.11618690937757492 1.621006727218628
0.06198304519057274 0.03900957107543945 1.6037442684173584
0.06276950985193253 0.05674836039543152 1.5745809078216553
0.04069710150361061 0.02689826861023903 1.8384897708892822
0.08761398494243622 -0.12030832469463348 1.3481049537658691
0.10346966236829758 -0.043441951274871826 0.45941275358200073
0.07282216101884842 -0.029743485152721405 0.4573900103569031
0.08587437123060226 -0.04822717607021332 0.30493390560150146
0.10681787133216858 -0.0567605085670948 0.2744012475013733
0.10182246565818787 -0.04068346321582794 1.5336880683898926
0.08959117531776428 -0.05063948780298233 1.5430058240890503
0.10398974269628525 -0.04519324004650116 1.5244790315628052
0.11175793409347534 -0.05998450517654419 0.7351309061050415
0.1081070676445961 -0.10879991948604584 0.6039425730705261
0.13221994042396545 0.02928192913532257 0.9499325156211853
0.12161732465028763 -0.06271783262491226 1.0865787267684937
0.11396923661231995 -0.11911384761333466 1.0793744325637817
0.12307848781347275 -0.1474103033542633 1.0240294933319092
0.10209900140762329 0.01207030564546585 1.6518545150756836
0.11394554376602173 -0.00046078115701675415 1.5647774934768677
0.0995086207985878 -0.16495230793952942 1.2372634410858154
0.1273452639579773 0.07345334440469742 1.534968376159668
0.11814513802528381 0.044249825179576874 1.5848665237426758
0.12100604921579361 -0.10144233703613281 0.0016241837292909622
0.12259085476398468 -0.1753828227519989 0.018257133662700653
0.13774582743644714 0.04971861466765404 1.4988434314727783
0.1422426402568817 0.06183056905865669 1.4644970893859863
0.15005001425743103 0.05176248773932457 1.4200963973999023
0.14963525533676147 0.06489713490009308 1.396755576133728
0.10969486087560654 -0.24857893586158752 1.1602628231048584
0.17538468539714813 -0.1559257060289383 0.8453500866889954
0.12480086833238602 -0.22183819115161896 1.1757464408874512
0.12355026602745056 -0.24770554900169373 1.15999436378479
0.2064591348171234 -0.11129505932331085 0.8584592342376709
0.2050795555114746 -0.08964211493730545 0.8384628295898438
0.21660736203193665 -0.054021142423152924 0.8456227779388428
-0.17685770988464355 -0.11158455908298492 1.1453087329864502
-0.14896947145462036 -0.11983154714107513 1.2548191547393799
-0.1503600925207138 -0.11831311881542206 1.2314320802688599
-0.14447492361068726 -0.11178356409072876 1.2427256107330322
-0.1429663598537445 -0.11030116677284241 1.263667345046997
-0.20198169350624084 -0.002479586750268936 0.84787917137146
-0.12700173258781433 -0.07134371995925903 1.2962747812271118
-0.14175859093666077 -0.05841144546866417 1.0821880102157593
-0.1423242688179016 0.09087421000003815 1.5448018312454224
-0.13020068407058716 -0.0927833765745163 1.2039848566055298
-0.13555218279361725 -0.07908497005701065 1.1495985984802246
-0.11932963877916336 0.08433341234922409 1.4246655702590942
-0.11108303815126419 0.07732352614402771 1.376155972480774
-0.12737789750099182 -0.13870498538017273 1.0472462177276611
-0.0947415828704834 -0.16591814160346985 1.007055640220642
-0.11374252289533615 -0.03243420645594597 0.7552207112312317
-0.05802183225750923 0.17863181233406067 1.2012088298797607
-0.081497922539711 0.13743045926094055 1.6318280696868896
-0.04634340479969978 0.033164262771606445 0.012777158990502357
-0.060384634882211685 0.04830974340438843 -0.0006697364151477814
-0.08488348126411438 0.023067181929945946 0.8568980693817139
-0.007912158034741879 0.09652882069349289 0.8470941781997681
-0.05879677087068558 -0.022931192070245743 0.8350459337234497
0.016926493495702744 0.08184327185153961 1.2942173480987549
-0.018283497542142868 -0.08304974436759949 0.757413387298584
-0.035720258951187134 -0.13171789050102234 1.640614628791809
-0.011981865391135216 0.016887953504920006 0.8708233833312988
-0.006356383673846722 -0.02461281791329384 0.8496379256248474
0.009512540884315968 -0.11642888188362122 0.8515464067459106
-0.0768478661775589 -0.16676828265190125 0.8566234111785889
-0.0038892049342393875 -0.2266896367073059 0.8526408076286316
0.023065591230988503 -0.10879737883806229 0.8228968381881714
-0.00768610555678606 -0.16132651269435883 0.8637242317199707
0.004991421476006508 0.023440342396497726 1.4980231523513794
0.02000541239976883 -0.0352829173207283 0.8402658700942993
0.022624347358942032 -0.048026055097579956 0.8171901702880859
0.018781445920467377 0.04093039780855179 1.577785611152649
0.02317623980343342 0.04417167603969574 1.5491434335708618
0.03483208641409874 -0.122095987200737 0.8376891613006592
0.1272086799144745 0.059653088450431824 0.8364192247390747
0.021653402596712112 -0.0932864099740982 0.222126767039299
0.04193630814552307 -0.03531031310558319 0.7994934916496277
0.08686162531375885 0.12584935128688812 1.1463464498519897
0.06365940719842911 -0.1186077669262886 0.3470984697341919
0.05318303033709526 -0.10571476817131042 0.2839809060096741
0.07078734040260315 -0.12783002853393555 0.30098313093185425
0.057316433638334274 -0.17009344696998596 0.2485685795545578
0.10527537763118744 0.08380749821662903 1.5019127130508423
0.07522685825824738 -0.014836636371910572 0.8348295092582703
0.09877213835716248 -0.03690709173679352 0.8055455684661865
0.09872645139694214 -0.0669947937130928 1.2542285919189453
0.09488631784915924 -0.1320943534374237 0.39662817120552063
0.09816382825374603 0.06833277642726898 1.6187663078308105
0.08807819336652756 -0.027994606643915176 1.308771014213562
0.10068421065807343 -0.13004571199417114 0.30032676458358765
0.11044576019048691 0.19498619437217712 1.1265085935592651
0.10326101630926132 -0.04198838397860527 1.2257874011993408
0.10319004952907562 -0.069778673350811 0.16322064399719238
0.15906068682670593 0.18444541096687317 1.031553030014038
0.09255478531122208 -0.05711463466286659 0.20394335687160492
0.09715258330106735 -0.17787806689739227 0.21947287023067474
0.14887435734272003 0.08287644386291504 1.2857775688171387
0.1201687902212143 -0.05855114012956619 1.476989984512329
0.1316419243812561 -0.05683109909296036 1.4406830072402954
0.12265954911708832 -0.057507824152708054 1.4750242233276367
0.1444167047739029 -0.03701705485582352 1.4194468259811401
0.12002618610858917 -0.1886083483695984 1.2197487354278564
0.10535446554422379 -0.2049463987350464 1.2130272388458252
0.17600451409816742 0.10534689575433731 1.1751580238342285
0.19635024666786194 0.13707977533340454 1.0962368249893188
0.19215208292007446 0.12869222462177277 1.0611538887023926
0.13533078134059906 -0.0446486733853817 1.2450076341629028
0.12490040808916092 -0.09328813850879669 1.2502710819244385
0.16091538965702057 -0.18056556582450867 0.8598321676254272
0.1430637091398239 -0.1136990487575531 1.2541701793670654
0.15042880177497864 -0.12021029740571976 1.132453203201294
0.13801412284374237 -0.03547235578298569 1.1356488466262817
0.14460739493370056 -0.08596507459878922 1.1069564819335938
0.23944933712482452 -0.1129167452454567 1.1209890842437744
0.22881758213043213 -0.04169400408864021 0.9941841959953308
0.23791852593421936 -0.11920534074306488 1.0300548076629639
-0.10778895020484924 -0.241431325674057 1.153743863105774
-0.11745192110538483 -0.1709805428981781 1.2068179845809937
-0.13034482300281525 -0.15940725803375244 1.2242361307144165
-0.09771684557199478 -0.22430633008480072 1.1599676609039307
-0.13723887503147125 0.09151388704776764 1.4607646465301514
-0.1412034034729004 0.07648218423128128 1.4428629875183105
-0.14647789299488068 0.09129063040018082 1.3895418643951416
-0.15380516648292542 0.00576530396938324 1.7187777757644653
-0.14946654438972473 -0.04017166793346405 1.6327697038650513
-0.12752099335193634 -0.053981680423021317 0.28837794065475464
-0.12563838064670563 -0.07289978116750717 0.8285566568374634
-0.12250663340091705 -0.09826624393463135 0.8092347383499146
-0.13486385345458984 0.14594899117946625 0.8935896754264832
-0.08641815185546875 -0.1336612105369568 1.260704517364502
-0.10839443653821945 -0.03332628682255745 0.8076134920120239
-0.10088744759559631 -0.0029107481241226196 1.7714112997055054
-0.09197495132684708 -0.11879505217075348 1.137152910232544
-0.0532577745616436 -0.1790727972984314 1.1341068744659424
-0.06342783570289612 0.13594278693199158 1.0239125490188599
0.0230867937207222 0.13139326870441437 1.0234997272491455
-0.06370023638010025 -0.014382967725396156 1.1556475162506104
-0.04722478985786438 -0.11681084334850311 0.8450494408607483
-0.047607287764549255 -0.1842573881149292 1.0696136951446533
-0.050096917897462845 0.027110598981380463 1.0552605390548706
-0.028467819094657898 -0.10967490077018738 1.742464542388916
0.011914720758795738 -0.10482180118560791 0.7556941509246826
-0.04597745090723038 0.09247597306966782 1.256314754486084
0.02014746516942978 -0.18238863348960876 -0.013452339917421341
0.13498704135417938 0.1965884417295456 0.9543851017951965
0.10366986691951752 0.13805381953716278 1.0451016426086426
0.07023242115974426 0.21315047144889832 0.9674091935157776
0.09439835697412491 0.08999800682067871 0.8462976217269897
0.0955645963549614 -0.05471958965063095 -0.018185807392001152
0.11806944012641907 -0.03647550940513611 0.8305721282958984
0.09756086766719818 -0.12563318014144897 0.3513512909412384
0.13429321348667145 -0.09641260653734207 1.3949880599975586
0.12124661356210709 -0.11070515960454941 1.3073179721832275
0.20079442858695984 0.00037807971239089966 0.8402407765388489
0.2091178148984909 -0.047868527472019196 0.9074462652206421
0.235037699341774 -0.08408866822719574 1.0005043745040894
-0.2165881246328354 -0.11915431916713715 1.07083261013031
-0.20663562417030334 -0.08978389948606491 0.9078317284584045
-0.21611610054969788 -0.07980397343635559 0.8491300344467163
-0.14583586156368256 0.07403020560741425 1.388782024383545
-0.14622725546360016 0.09677696973085403 1.2109642028808594
-0.14018793404102325 0.004392314702272415 1.5422921180725098
-0.1414543092250824 -0.05276195704936981 1.0472781658172607
-0.13885702192783356 -0.08094871044158936 1.0892620086669922
-0.13888712227344513 0.006632436066865921 1.5413018465042114
-0.1346023976802826 -0.007898230105638504 1.5300788879394531
-0.13941141963005066 0.002563837915658951 1.5387791395187378
-0.13784220814704895 -0.0014343112707138062 1.5407347679138184
-0.14240960776805878 -0.019770581275224686 1.5312780141830444
-0.09686840325593948 -0.07901113480329514 0.12566393613815308
-0.14640989899635315 -0.07378406077623367 1.6960269212722778
-0.03415787220001221 -0.008517351001501083 1.2129600048065186
-0.04435531049966812 -0.09065166860818863 0.029700154438614845
-0.04990733042359352 -0.020473795011639595 1.2553611993789673
-0.0032404917292296886 -0.013775374740362167 1.1662757396697998
-0.04504702612757683 0.09337213635444641 0.9233978986740112
-0.03802280128002167 -0.007165893912315369 1.7884999513626099
-0.022789381444454193 -0.07473690807819366 0.6873466372489929
-0.015444529242813587 0.09622630476951599 1.217604398727417
0.010705217719078064 -0.1908874362707138 1.0160317420959473
-0.02355337329208851 -0.18962445855140686 1.2369884252548218
0.034348756074905396 0.12161313742399216 1.07472562789917
0.034537479281425476 -0.09269599616527557 0.1542849838733673
0.07080942392349243 -0.1753639578819275 0.9954572916030884
0.12495327740907669 -0.17065253853797913 0.9645427465438843
0.08368919044733047 0.05665750801563263 1.5371637344360352
0.07559524476528168 -0.15894369781017303 1.1776914596557617
0.03983616083860397 -0.02033058926463127 1.163672924041748
0.1013379693031311 -0.016956906765699387 1.0784876346588135
0.08691509068012238 0.06273329257965088 0.9511174559593201
0.07679425179958344 -0.26385262608528137 -0.0023786313831806183
0.05432869493961334 -0.2499954253435135 -0.02150716260075569
0.10756430774927139 -0.2331540882587433 -0.01894620805978775
0.1176009550690651 -0.16606947779655457 0.195327028632164
0.11858762800693512 -0.05674241483211517 1.4721801280975342
0.12377039343118668 -0.05724158510565758 1.4742376804351807
0.1054932102560997 -0.06985483318567276 1.326696753501892
0.11554417014122009 -0.09941687434911728 1.2997957468032837
0.2030845582485199 0.15146976709365845 0.9735870361328125
0.19913172721862793 0.12179165333509445 0.9258809089660645
0.21111837029457092 0.1293070912361145 0.9248988628387451
0.2359279990196228 -0.027895860373973846 0.997174859046936
0.24541345238685608 -0.0994819700717926 0.9672999382019043
0.2675052285194397 -0.11958621442317963 0.9461515545845032
-0.17204275727272034 -0.046655114740133286 0.9950613975524902
-0.1289169192314148 -0.2022727131843567 1.1912368535995483
-0.0980524867773056 -0.06241660192608833 0.3204728364944458
-0.08729120343923569 0.12810738384723663 0.8710417151451111
-0.10148635506629944 -0.13677754998207092 1.0874440670013428
-0.029844027012586594 -0.04389093816280365 0.8402853012084961
-0.044902194291353226 -0.03222918137907982 0.8007264733314514
-0.03718861937522888 -0.08602191507816315 0.804746687412262
0.0004766639322042465 0.022073838859796524 1.0996994972229004
0.024212028831243515 -0.20971854031085968 0.8405325412750244
0.09411190450191498 0.01635008119046688 0.850993275642395
0.12077149003744125 0.13435061275959015 1.0055819749832153
0.10944309085607529 0.020762328058481216 1.5629963874816895
0.11752667278051376 0.042161568999290466 1.534125804901123
0.19557783007621765 -0.1164981946349144 0.9104363918304443
-0.12467116117477417 -0.2131642997264862 1.1578727960586548
-0.14486929774284363 0.05940939486026764 1.5676790475845337
-0.05518033355474472 0.14625783264636993 0.9238265156745911
-0.12655997276306152 0.09131799638271332 1.5958575010299683
-0.09553336352109909 0.05495529994368553 1.5900132656097412
-0.058997996151447296 0.045198701322078705 1.569056510925293
0.0389736033976078 -0.186894029378891 1.0723024606704712
0.06502024829387665 -0.14447161555290222 1.2675182819366455
0.04742466285824776 -0.16783252358436584 0.1270170956850052
0.10348430275917053 -0.12211868166923523 1.224279761314392
0.11198683083057404 -0.10411711037158966 1.1690036058425903
0.13096767663955688 0.07248833775520325 1.4181394577026367
0.11110509932041168 0.10448835790157318 1.4161534309387207
0.1143280565738678 -0.05987798795104027 1.1766915321350098
0.1184813380241394 -0.07664993405342102 0.8158698081970215
0.08702614903450012 -0.185939222574234 1.2422473430633545
0.14770081639289856 0.09978260844945908 1.3075811862945557
-0.13336969912052155 0.09760414063930511 1.3083417415618896
-0.09275934100151062 0.011447479017078876 0.33820250630378723
0.021497946232557297 -0.10756006836891174 0.7115672826766968
0.029923688620328903 -0.11038479208946228 1.7253460884094238
-0.1492946743965149 0.1510934829711914 0.9747235178947449
-0.137577086687088 -0.1122296154499054 1.2717671394348145
-0.05558088421821594 -0.02998950704932213 0.37084105610847473
0.010246997699141502 0.13571381568908691 1.441023826599121
0.02924187295138836 -0.2477879524230957 0.0006223618984222412
0.10663531720638275 -0.045677829533815384 1.523679494857788
0.10370753705501556 -0.04467032849788666 1.5232417583465576
0.11610204726457596 -0.06164262816309929 1.4283758401870728
0.11025523394346237 -0.15674865245819092 0.16060346364974976
0.11995361745357513 -0.11866998672485352 0.14177677035331726
0.1581985205411911 -0.128304585814476 1.1827375888824463
-0.1786409169435501 -0.1638895869255066 0.9142719507217407
-0.13995465636253357 0.08345653861761093 1.3471558094024658
-0.13738709688186646 0.08168217539787292 1.3509325981140137
-0.14577001333236694 0.07939329743385315 1.350580096244812
-0.046799756586551666 -0.03298550844192505 0.164068803191185
-0.028343141078948975 -0.09778866171836853 0.8423975706100464
0.02232440747320652 -0.13414600491523743 0.1192781925201416
0.1903422623872757 -0.13333146274089813 1.125133752822876
0.09370224922895432 -0.06141715496778488 1.6708488464355469
0.12805548310279846 -0.1048860251903534 0.7654964923858643
0.1498730182647705 0.06529376655817032 1.3713083267211914
0.14919978380203247 0.0816216766834259 1.3273065090179443
0.028508571907877922 -0.09171605110168457 -0.023366089910268784
0.2364206612110138 -0.51762855052948 0.9187942743301392
0.22289155423641205 -0.4838099479675293 0.9046139717102051
0.22554998099803925 -0.4930645227432251 0.9039531946182251
0.2170015424489975 -0.49312523007392883 0.9202926754951477
0.22581888735294342 -0.5158063173294067 0.9114664196968079
0.23289290070533752 -0.5133615732192993 0.9247110486030579
0.24172192811965942 -0.340425968170166 0.9275455474853516
0.21959073841571808 -0.34626737236976624 0.9269199967384338
0.24203623831272125 -0.36929893493652344 0.9274420738220215
0.23764637112617493 -0.3820720911026001 0.9303107261657715
0.2130255252122879 -0.15510813891887665 0.8943173885345459
0.2130727469921112 -0.16705717146396637 0.9109202027320862
0.211259663105011 -0.16644740104675293 0.885625422000885
0.21424652636051178 -0.35657358169555664 0.8898607492446899
0.22191756963729858 -0.3759804666042328 0.9012004733085632
0.2543289363384247 -0.40855735540390015 0.9437556266784668
0.24754400551319122 -0.3947044610977173 0.9360011219978333
0.20449820160865784 -0.2024114429950714 0.8632660508155823
0.2100493609905243 -0.21509075164794922 0.8844774961471558
0.24669472873210907 -0.2619503140449524 0.9352741241455078
0.2386253923177719 -0.25560635328292847 0.9325632452964783
0.2540748715400696 -0.49240022897720337 0.9346071481704712
0.23072798550128937 -0.4645964503288269 0.8993596434593201
0.21627268195152283 -0.15907232463359833 0.8731833696365356
0.21113097667694092 -0.1657758206129074 0.8681851625442505
0.26322704553604126 0.04741890728473663 0.9782077074050903
0.2626153826713562 0.03601406514644623 0.9746776819229126
0.25136032700538635 0.053722575306892395 0.9578028321266174
0.24336941540241241 -0.43647387623786926 0.9319562911987305
0.2492406666278839 -0.46519285440444946 0.9318318367004395
0.21880792081356049 -0.16387757658958435 0.8660531044006348
0.2111527919769287 -0.1627662479877472 0.8552753925323486
0.21963757276535034 -0.5383069515228271 0.86691814661026
0.22275356948375702 -0.5531224012374878 0.8685384392738342
0.2687382102012634 0.0671817734837532 0.9728496074676514
0.2666774392127991 0.050280243158340454 0.9819154739379883
0.2606102526187897 0.06763151288032532 0.9685434699058533
0.25557875633239746 0.059484489262104034 0.9561980962753296
0.24218253791332245 -0.5966124534606934 0.9146586656570435
0.25243040919303894 -0.61972576379776 0.922906756401062
0.2397877424955368 -0.6222527623176575 0.9035460948944092
0.21606677770614624 -0.2899227440357208 0.8717383742332458
0.22517025470733643 -0.3105403780937195 0.8699134588241577
0.21053436398506165 -0.3303717076778412 0.8617380857467651
0.22138524055480957 -0.3239516615867615 0.8576569557189941
0.27428045868873596 0.04487758129835129 0.9838196635246277
0.2604740560054779 0.0716310366988182 0.962774395942688
0.2655901610851288 -0.4323515295982361 0.9450724720954895
0.2702353596687317 -0.43226686120033264 0.9461910724639893
0.2580546736717224 -0.45319846272468567 0.9441502690315247
0.2636353373527527 -0.472321480512619 0.941175639629364
0.21609537303447723 -0.24370050430297852 0.8679572343826294
0.2155575305223465 -0.2574181854724884 0.8625342845916748
0.2123371958732605 -0.2626936435699463 0.8666443228721619
0.27031925320625305 0.06693180650472641 0.966132402420044
0.2770644724369049 0.04268500953912735 0.9806239604949951
0.26493290066719055 0.04842192679643631 0.9545113444328308
0.19947132468223572 -0.1265779584646225 0.8284679055213928
0.19756627082824707 -0.1319379061460495 0.8213753700256348
0.20870795845985413 -0.1469508707523346 0.8438394665718079
0.20584484934806824 -0.1428263783454895 0.8322984576225281
0.1960446834564209 -0.13669198751449585 0.8331840634346008
0.22348308563232422 -0.3576691746711731 0.8471050262451172
0.2170630693435669 -0.33689767122268677 0.8483145236968994
0.21323558688163757 -0.3419385552406311 0.8346763849258423
0.20562204718589783 -0.3466626703739166 0.8337735533714294
0.2698308229446411 0.04589288681745529 0.9640978574752808
0.2626400291919708 -0.624822735786438 0.9228081703186035
0.24748678505420685 -0.6225101947784424 0.9030454158782959
0.26162660121917725 -0.6365900039672852 0.9154515862464905
0.25696009397506714 -0.6409001350402832 0.9205808043479919
0.24610112607479095 -0.6129307746887207 0.8935618996620178
0.24243704974651337 -0.14796565473079681 0.8780714869499207
0.2255820631980896 -0.16041740775108337 0.8652268648147583
0.2276046723127365 -0.5149801969528198 0.8572538495063782
0.22178040444850922 -0.5460660457611084 0.8624505400657654
0.23545826971530914 -0.5668272972106934 0.8731676936149597
0.2662266790866852 -0.25186777114868164 0.9263763427734375
0.2636164426803589 -0.27512696385383606 0.926419734954834
0.2639046311378479 -0.28123748302459717 0.9180052280426025
0.2716452479362488 -0.4233115613460541 0.9427367448806763
0.2665489912033081 -0.43310055136680603 0.936218798160553
0.27178147435188293 -0.4940083622932434 0.9358068704605103
0.2584707736968994 -0.3953835070133209 0.9350748658180237
0.2479066103696823 -0.48831433057785034 0.8756242394447327
0.2396923005580902 -0.525188148021698 0.8719433546066284
0.26663970947265625 -0.24922703206539154 0.9207891225814819
0.2613849341869354 -0.4016602039337158 0.9119448661804199
0.2719797194004059 -0.38323724269866943 0.9088090658187866
0.26956039667129517 -0.4173215329647064 0.9147405624389648
0.2520921230316162 -0.5836237668991089 0.8993474245071411
0.25338977575302124 -0.5681509375572205 0.8907470107078552
0.23501068353652954 -0.38165873289108276 0.8690178394317627
0.25501054525375366 -0.38586342334747314 0.8764877319335938
0.24618393182754517 -0.4103235900402069 0.8833905458450317
0.2573196291923523 -0.4117854833602905 0.8900890350341797
0.26502931118011475 -0.32653746008872986 0.9125255346298218
0.2581966817378998 -0.36711788177490234 0.9122618436813354
0.2633504569530487 -0.4854404330253601 0.9148683547973633
0.2650182843208313 -0.5127370357513428 0.9045525193214417
0.2623763978481293 -0.5165122747421265 0.9152675271034241
0.2599932849407196 -0.4723283648490906 0.8896955251693726
0.2580725848674774 -0.4826889634132385 0.88286292552948
0.24520742893218994 -0.34416359663009644 0.8765202760696411
0.24544143676757812 -0.36213499307632446 0.8739298582077026
0.24215465784072876 -0.32686060667037964 0.8652576804161072
0.23841172456741333 -0.353703111410141 0.8670618534088135
0.24032588303089142 -0.3731456398963928 0.8739029765129089
0.2546520233154297 -0.3162118196487427 0.8884103298187256
0.25806573033332825 -0.3031231164932251 0.8913936018943787
0.24179132282733917 -0.2918771505355835 0.8720483183860779
0.25273579359054565 -0.30362850427627563 0.8803529739379883
0.25101351737976074 -0.49328744411468506 0.8872714042663574
0.25902700424194336 -0.5168639421463013 0.8874677419662476
0.2534797787666321 -0.5032435059547424 0.8890294432640076
0.2724202871322632 -0.5063966512680054 0.8838813304901123
0.260832279920578 -0.17142944037914276 0.883400022983551
0.2201392650604248 -0.4653422236442566 0.931318998336792
0.21757100522518158 -0.4798021912574768 0.9206451773643494
0.2280522733926773 -0.38983142375946045 0.9250567555427551
0.22095555067062378 -0.3887566328048706 0.92190021276474
0.22305485606193542 -0.40907716751098633 0.9310553073883057
0.2134135365486145 -0.3948042690753937 0.9184268712997437
0.22262270748615265 -0.4101026654243469 0.925603985786438
0.22775816917419434 -0.3508000373840332 0.9065716862678528
0.22249267995357513 -0.3566321134567261 0.9057493209838867
0.22181008756160736 -0.322763592004776 0.9084533452987671
0.23101487755775452 -0.4105420708656311 0.9280752539634705
0.2198643535375595 -0.49394890666007996 0.8795038461685181
0.22349831461906433 -0.5121127963066101 0.9082129001617432
0.22312846779823303 -0.3894813358783722 0.896940290927887
0.2291329801082611 -0.5389635562896729 0.9116160273551941
0.2328811138868332 -0.564408540725708 0.9060068726539612
0.22536656260490417 -0.545688271522522 0.90245521068573
0.2307586818933487 -0.5842640399932861 0.9122711420059204
0.22948868572711945 -0.14447514712810516 0.909599244594574
0.2628158628940582 -0.20885580778121948 0.9636422991752625
0.25867077708244324 -0.21516573429107666 0.9580659866333008
0.2685472369194031 -0.21996912360191345 0.961898684501648
0.21931394934654236 -0.2360580563545227 0.8773910999298096
0.25004100799560547 0.04406297206878662 0.9492554664611816
0.2714141607284546 0.022571980953216553 0.9871017336845398
0.26685670018196106 0.007724262773990631 0.9770327806472778
0.25677233934402466 0.009980067610740662 0.9713024497032166
0.25668206810951233 -0.34712666273117065 0.9287863969802856
0.26321905851364136 -0.5088097453117371 0.9441961050033569
0.23110878467559814 -0.5882011651992798 0.8899807333946228
0.2412312924861908 -0.02747303992509842 0.9340236186981201
0.2442605197429657 -0.06211712583899498 0.916165828704834
0.2587158977985382 -0.32059144973754883 0.9382555484771729
0.2516705393791199 -0.32772648334503174 0.9316086173057556
0.25155502557754517 -0.37277618050575256 0.9301357865333557
0.23411545157432556 -0.5950642228126526 0.8861133456230164
0.25386032462120056 -0.6295597553253174 0.926963210105896
0.2519947290420532 -0.6442679166793823 0.9302310943603516
0.24361003935337067 -0.6309740543365479 0.9125337600708008
0.23718062043190002 -0.11710028350353241 0.9107630848884583
0.2427457869052887 -0.1385074406862259 0.9038733839988708
0.2591252624988556 -0.3735778331756592 0.9235048890113831
0.21931487321853638 -0.1457863301038742 0.8892342448234558
0.22717808187007904 -0.5670441389083862 0.8680044412612915
0.28265380859375 -0.16442705690860748 0.9848535060882568
0.28564029932022095 -0.15954288840293884 0.980047345161438
0.27631738781929016 -0.17212212085723877 0.9684311151504517
0.28127849102020264 -0.1831560879945755 0.9737197160720825
0.28558647632598877 -0.1967494785785675 0.9737710356712341
0.2574780285358429 -0.17223259806632996 0.9495509266853333
0.2716936469078064 -0.17183233797550201 0.9500653147697449
0.2560562789440155 -0.6459470391273499 0.9315761923789978
0.23215582966804504 -0.39795178174972534 0.8730007410049438
0.23227831721305847 -0.41470569372177124 0.8770171403884888
0.22980733215808868 -0.41828015446662903 0.8777464628219604
0.22464905679225922 -0.3752503991127014 0.8649091720581055
0.28801319003105164 -0.17731916904449463 0.9708370566368103
0.28920653462409973 -0.19501209259033203 0.9702222347259521
0.21866752207279205 -0.16522067785263062 0.8527378439903259
0.2882823050022125 -0.16989406943321228 0.9729645252227783
0.28399425745010376 -0.17295265197753906 0.9637128114700317
0.2651713788509369 -0.41052982211112976 0.9357682466506958
0.2099444419145584 -0.16864001750946045 0.8278138041496277
0.2068956345319748 -0.16362923383712769 0.8212820887565613
0.19435521960258484 -0.1721121072769165 0.8110435009002686
0.19830399751663208 -0.19006940722465515 0.8146194219589233
0.2565006613731384 -0.1471942961215973 0.8978116512298584
0.28084686398506165 -0.2057286649942398 0.9525452852249146
0.26212576031684875 -0.43695950508117676 0.920016884803772
0.2627530097961426 -0.46030017733573914 0.9209469556808472
0.2218712866306305 -0.17848733067512512 0.8459790945053101
0.22985528409481049 -0.19102735817432404 0.8443537950515747
0.2125120609998703 -0.18356429040431976 0.8336712718009949
0.2664870023727417 -0.4596075415611267 0.9122568368911743
0.2663443684577942 -0.4342074990272522 0.9046543836593628
0.26020318269729614 -0.438387393951416 0.890989363193512
0.2598048746585846 -0.4192454218864441 0.8924745321273804
0.23921920359134674 -0.5430341958999634 0.8784403204917908
0.25336623191833496 -0.5433638095855713 0.8814689517021179
0.23867686092853546 -0.18222421407699585 0.8593142628669739
0.26357507705688477 -0.19305726885795593 0.902134895324707
0.2639480233192444 -0.22139766812324524 0.8932336568832397
0.2568451166152954 -0.20543549954891205 0.888542652130127
0.2575407922267914 -0.23703184723854065 0.896034300327301
0.25334402918815613 -0.2455529272556305 0.8855421543121338
0.26162973046302795 -0.4637637734413147 0.8928164839744568
0.26723459362983704 -0.44956082105636597 0.8916024565696716
0.2700055241584778 -0.49579745531082153 0.8951994180679321
0.2793426811695099 -0.38081854581832886 0.8938376307487488
0.27451932430267334 -0.41379207372665405 0.9018644690513611
0.2666171193122864 -0.38435351848602295 0.8986240029335022
0.26058319211006165 -0.3942243754863739 0.886413037776947
0.26730814576148987 -0.40868163108825684 0.8920345902442932
0.2634223401546478 -0.3898159861564636 0.8992356061935425
0.27156639099121094 -0.41378796100616455 0.8939070105552673
0.2723158299922943 -0.5082016587257385 0.8917319774627686
0.2674384117126465 -0.49828892946243286 0.8825815916061401
0.2242920696735382 -0.4865046739578247 0.9319732189178467
0.2174694538116455 -0.5089164972305298 0.9301080703735352
0.2197728455066681 -0.4817860424518585 0.9147414565086365
0.2261989861726761 -0.5067654848098755 0.9183908104896545
0.24734391272068024 -0.20060545206069946 0.9549160599708557
0.21174950897693634 -0.17475028336048126 0.8955351114273071
0.20552469789981842 -0.19114406406879425 0.8866739273071289
0.2272280752658844 -0.16418758034706116 0.9355412721633911
0.2428995668888092 -0.47207504510879517 0.9266865253448486
0.22923198342323303 -0.44811028242111206 0.9084162712097168
0.2204638123512268 -0.23928982019424438 0.9055743217468262
0.21568652987480164 -0.24245253205299377 0.8907662034034729
0.24046450853347778 -0.21665632724761963 0.9449454545974731
0.2450646013021469 -0.23686331510543823 0.9370871782302856
0.23047317564487457 -0.436137855052948 0.9066097140312195
0.2478613406419754 -0.4884721040725708 0.9271979928016663
0.2290099412202835 -0.2732306718826294 0.8947983980178833
0.2229757010936737 -0.3121918737888336 0.9004989862442017
0.21904712915420532 -0.2968273162841797 0.8854844570159912
0.22355134785175323 -0.40977078676223755 0.9019920825958252
0.24455662071704865 -0.5700304508209229 0.9161254167556763
0.2427237182855606 -0.6067867279052734 0.914556086063385
0.23854702711105347 -0.6016674041748047 0.900015115737915
0.2641342878341675 -0.1961067020893097 0.9780353903770447
0.26806098222732544 -0.2338547557592392 0.9629839658737183
0.2480417937040329 -0.28364887833595276 0.9332979321479797
0.25415360927581787 -0.31116509437561035 0.9351926445960999
0.21671457588672638 -0.3108890652656555 0.8781707286834717
0.2734002470970154 -0.2503054738044739 0.9677124619483948
0.2532641887664795 -0.22774147987365723 0.941739559173584
0.2497512400150299 -0.24646872282028198 0.9359164237976074
0.25900566577911377 -0.5278423428535461 0.9367272257804871
0.2531872093677521 -0.5589337944984436 0.9230422973632812
0.22684615850448608 -0.42120885848999023 0.884128987789154
0.251867413520813 -0.08683477342128754 0.941386342048645
0.24930371344089508 -0.06823515892028809 0.9461932182312012
0.21078979969024658 -0.33749768137931824 0.8506371974945068
0.26199108362197876 -0.3029724657535553 0.9299702048301697
0.26892536878585815 -0.321195513010025 0.9381033182144165
0.2584303915500641 -0.5241853594779968 0.9389404058456421
0.26136481761932373 -0.5292173624038696 0.9362471699714661
0.25665950775146484 -0.545403003692627 0.9312596321105957
0.2111879587173462 -0.19754314422607422 0.8431963920593262
0.21408110857009888 -0.21519708633422852 0.83836829662323
0.20165736973285675 -0.2156330794095993 0.8413414359092712
0.20122317969799042 -0.1937037706375122 0.8414573073387146
0.20862078666687012 -0.18764805793762207 0.8355960249900818
0.1996399313211441 -0.18907952308654785 0.8189836144447327
0.21620768308639526 -0.23010283708572388 0.8596891760826111
0.19311529397964478 -0.18797186017036438 0.819603681564331
0.19065478444099426 -0.19805485010147095 0.8066521883010864
0.2551712393760681 -0.15022000670433044 0.9271248579025269
0.2643221616744995 -0.15950095653533936 0.9268361330032349
0.234455868601799 -0.146591454744339 0.8975754976272583
0.2727585732936859 -0.20532436668872833 0.9635151624679565
0.2699826955795288 -0.21325674653053284 0.9579160213470459
0.27579838037490845 -0.428705096244812 0.9569302201271057
0.27376532554626465 -0.42400023341178894 0.9584664702415466
0.2694392800331116 -0.4156516194343567 0.9486415982246399
0.19966629147529602 -0.19275492429733276 0.805359959602356
0.19072331488132477 -0.1750355362892151 0.8096092939376831
0.21703478693962097 -0.2307198941707611 0.8542036414146423
0.22939777374267578 -0.47023022174835205 0.8758277297019958
0.22623464465141296 -0.49187254905700684 0.8678920865058899
0.28141075372695923 -0.1790076494216919 0.943800151348114
0.2552187740802765 -0.133772075176239 0.9277438521385193
0.2599219083786011 -0.51064532995224 0.9200396537780762
0.21824194490909576 -0.3385921120643616 0.8507989048957825
0.263824462890625 0.008503563702106476 0.9352344274520874
0.26335209608078003 -0.006480872631072998 0.9311861991882324
0.22560648620128632 -0.3426273465156555 0.8548617362976074
0.26236405968666077 -0.12025869637727737 0.9134535193443298
0.2625594139099121 -0.14209426939487457 0.9149559140205383
0.25557613372802734 -0.13934721052646637 0.9050112962722778
0.26050427556037903 -0.45873337984085083 0.8927054405212402
0.2413107454776764 -0.1603436917066574 0.8699120879173279
0.24350079894065857 -0.3174108564853668 0.8713333606719971
0.2711946964263916 -0.16164302825927734 0.9102869033813477
0.26769018173217773 -0.18055737018585205 0.904922604560852
0.27465829253196716 -0.18513810634613037 0.9294388294219971
0.2743116319179535 -0.1989246904850006 0.9137356281280518
0.2644241154193878 -0.1482890248298645 0.8985357880592346
0.2529163658618927 -0.14874254167079926 0.8872260451316833
0.2717491686344147 -0.45997029542922974 0.8965783715248108
0.21983544528484344 -0.363616406917572 0.9305754899978638
0.21476204693317413 -0.36212143301963806 0.9259860515594482
0.22555288672447205 -0.37723323702812195 0.93092280626297
0.21938811242580414 -0.36092743277549744 0.9211037755012512
0.21425046026706696 -0.3784552216529846 0.9243002533912659
0.2294565588235855 -0.44506949186325073 0.9320889711380005
0.23249177634716034 -0.456714928150177 0.9324125647544861
0.22975175082683563 -0.3855437934398651 0.9159097075462341
0.21606558561325073 -0.3976558744907379 0.9045694470405579
0.22553719580173492 -0.4240341782569885 0.9192034006118774
0.23068144917488098 -0.4295405149459839 0.9280844926834106
0.21644075214862823 -0.22165699303150177 0.9073840379714966
0.2533275783061981 -0.20163941383361816 0.9652652740478516
0.25576072931289673 -0.18097692728042603 0.9540340900421143
0.2391316294670105 -0.12321721017360687 0.9325708150863647
0.2351275235414505 -0.11060237139463425 0.9263908863067627
0.21765480935573578 -0.37948843836784363 0.8754278421401978
0.21609653532505035 -0.3262268900871277 0.8792380094528198
0.20489592850208282 -0.3476901054382324 0.8469758033752441
0.21551692485809326 -0.3496898412704468 0.8789196014404297
0.26869043707847595 -0.001962624490261078 0.9752624034881592
0.2585081160068512 0.03508072346448898 0.9617627859115601
0.2565973997116089 0.01872452348470688 0.9639368057250977
0.25504815578460693 0.01899956911802292 0.9546611905097961
0.2397933304309845 0.008480474352836609 0.9492914080619812
0.24115730822086334 -0.06773270666599274 0.921014666557312
0.23651783168315887 -0.0890827625989914 0.9147870540618896
0.27681830525398254 -0.1653316468000412 0.9818294048309326
0.2682037949562073 -0.4324822425842285 0.9584042429924011
0.254993200302124 -0.47642192244529724 0.9429457187652588
0.22216756641864777 -0.5140734910964966 0.8625345826148987
0.2158786952495575 -0.5073577761650085 0.8660163283348083
0.19581829011440277 -0.16245883703231812 0.82213294506073
0.1894121915102005 -0.17546574771404266 0.8157740831375122
0.2642706036567688 -0.06913615763187408 0.9402627944946289
0.25609079003334045 -0.08496508002281189 0.9353888630867004
0.2675897479057312 -0.4243239462375641 0.9639173746109009
0.22821232676506042 -0.2916361689567566 0.8668066263198853
0.23499563336372375 -0.3061576187610626 0.8646124601364136
0.26413851976394653 -0.3122950494289398 0.9274875521659851
0.26025503873825073 -0.3275909423828125 0.9254767894744873
0.25744494795799255 -0.3522549867630005 0.9245790243148804
0.23908855020999908 -0.2183620035648346 0.8603341579437256
0.2711505591869354 -0.026226859539747238 0.9402562379837036
0.2614552080631256 -0.032483309507369995 0.9267537593841553
0.25567954778671265 -0.5587866902351379 0.888129711151123
0.26628005504608154 -0.24674151837825775 0.9113672375679016
0.26276710629463196 -0.2641473412513733 0.8986310362815857
0.2489902824163437 -0.22155219316482544 0.8763214349746704
0.23089435696601868 -0.21044310927391052 0.8516542911529541
0.2334681898355484 -0.2380555272102356 0.8672760725021362
0.2642497420310974 -0.20649206638336182 0.9041826128959656
0.2757249176502228 -0.20958581566810608 0.9243910312652588
0.2674506604671478 -0.22307074069976807 0.9189263582229614
