-0.33161234855651855 0.010975271463394165 1.1110533475875854
-0.3242264986038208 0.02057967707514763 1.1066399812698364
-0.3476913571357727 0.05064190924167633 1.3559905290603638
-0.3207801580429077 0.04529976844787598 1.2935194969177246
-0.2888764441013336 0.005789276212453842 1.4554684162139893
-0.2489669919013977 0.02465832233428955 1.102768898010254
-0.33162835240364075 0.039353419095277786 1.5412763357162476
-0.2183367908000946 -0.003609437495470047 1.4307178258895874
-0.2582051455974579 0.03735031560063362 1.428216814994812
-0.21346719563007355 -0.0022967644035816193 1.3624695539474487
-0.2004154920578003 0.030160386115312576 1.3607420921325684
-0.18498584628105164 0.025856278836727142 1.2710418701171875
-0.15988320112228394 0.012300992384552956 1.2345302104949951
0.1602141559123993 -0.04090388864278793 1.1764103174209595
0.14263932406902313 -0.05969984829425812 1.185329556465149
0.16429755091667175 -0.05255869776010513 1.136354923248291
0.21692514419555664 -0.0520949587225914 1.301925539970398
0.1690582036972046 -0.07440413534641266 1.2321854829788208
0.1831279993057251 -0.0509786382317543 1.244556188583374
0.2224464863538742 -0.048010386526584625 1.1884452104568481
0.22937247157096863 -0.07896486669778824 1.1699641942977905
0.21794992685317993 -0.04668577015399933 1.0952868461608887
0.2259182333946228 -0.04818503558635712 1.0645692348480225
0.2150038480758667 -0.061696816235780716 1.0940572023391724
0.22842438519001007 -0.06332295387983322 1.0696673393249512
0.25680282711982727 -0.05019121617078781 1.0750141143798828
0.2938476502895355 -0.06662233173847198 1.4324984550476074
0.2777293622493744 -0.09105192124843597 1.3910584449768066
0.2962503731250763 -0.054594915360212326 1.0477638244628906
0.2753714919090271 -0.07932896912097931 1.055077075958252
0.2553844749927521 -0.06119377166032791 1.078864574432373
0.2813661992549896 -0.06236749887466431 1.041317343711853
0.3102545440196991 -0.06207225099205971 1.0060447454452515
0.29000747203826904 -0.09477967023849487 1.2999049425125122
0.36085453629493713 -0.07179300487041473 1.1216895580291748
0.293117880821228 -0.09113012999296188 1.069140076637268
0.30358415842056274 -0.07148667424917221 1.0863696336746216
0.3645014762878418 -0.07579393684864044 1.2525566816329956
0.3370347321033478 -0.09320731461048126 1.1102057695388794
0.3706888258457184 -0.07670749723911285 1.0346107482910156
0.3648410737514496 -0.06832101941108704 1.0837316513061523
0.35814329981803894 -0.07988576591014862 1.050966739654541
0.36457088589668274 -0.1087261289358139 1.0717992782592773
0.38718605041503906 -0.07998882979154587 1.2914984226226807
0.3837261199951172 -0.08531956374645233 1.1790896654129028
0.36723792552948 -0.11139262467622757 1.196152687072754
0.4057735800743103 -0.11314546316862106 1.412616491317749
0.3950430154800415 -0.08340954035520554 1.0689350366592407
0.4307791590690613 -0.08580555021762848 1.3916856050491333
0.4308777451515198 -0.09806603193283081 1.3317476511001587
0.44807636737823486 -0.1177089512348175 1.372921347618103
0.4403592646121979 -0.1124303787946701 0.871310830116272
0.46132558584213257 -0.12497416883707047 1.3044323921203613
0.482791006565094 -0.1251748949289322 1.2619915008544922
0.45994332432746887 -0.09221086651086807 1.2252898216247559
0.45502185821533203 -0.1257653534412384 1.1247761249542236
0.4605734348297119 -0.09432489424943924 1.1292753219604492
0.4879494309425354 -0.09470459073781967 1.2310154438018799
0.4912951588630676 -0.09827607125043869 1.1690348386764526
0.5071991682052612 -0.10742825269699097 1.1063241958618164
0.5286300182342529 -0.09509899467229843 1.251656174659729
0.5264689326286316 -0.11644574999809265 1.2233604192733765
0.46409815549850464 -0.19789043068885803 0.7135756611824036
0.47257518768310547 -0.20196019113063812 0.5812324285507202
0.5036051273345947 -0.15354350209236145 0.57907634973526
0.4768134355545044 -0.15864412486553192 0.6093446612358093
0.5180318355560303 -0.14031539857387543 0.9136983752250671
0.5151252746582031 -0.1330374777317047 0.8749887943267822
0.550932765007019 -0.10619887709617615 1.0960652828216553
0.5441539287567139 -0.10102201998233795 0.6207955479621887
0.5386701822280884 -0.10785827040672302 0.6850338578224182
0.5919411778450012 -0.13232123851776123 0.8646585941314697
0.6012725830078125 -0.14698627591133118 0.7704147696495056
0.5530824661254883 -0.14318843185901642 0.7809557914733887
0.5846465229988098 -0.16234463453292847 0.7877950072288513
-0.5034159421920776 0.013135552406311035 0.7840137481689453
-0.4957728981971741 -0.004574596881866455 0.7917284965515137
-0.531294584274292 0.09329698979854584 1.1381354331970215
-0.527434229850769 0.10478926450014114 1.1520233154296875
-0.5110607743263245 0.08771507441997528 1.1015983819961548
-0.4787018895149231 0.052836813032627106 1.0033190250396729
-0.46522244811058044 0.043635159730911255 1.044898509979248
-0.4842647910118103 0.020373821258544922 0.9586341381072998
-0.4454547166824341 0.03139538690447807 0.9600814580917358
-0.46755945682525635 0.020156748592853546 1.0888702869415283
-0.49203261733055115 0.05579962953925133 1.2507879734039307
-0.4903287887573242 0.058026451617479324 1.2137562036514282
-0.36139753460884094 -0.003613431006669998 0.7713046669960022
-0.404788076877594 0.007848057895898819 0.728090763092041
-0.3653301000595093 6.978586316108704e-05 0.6599174737930298
-0.46799924969673157 0.07312284409999847 1.2547813653945923
-0.4991951286792755 0.05985574424266815 1.298689842224121
-0.40787363052368164 -0.0465717613697052 0.8369260430335999
-0.40201860666275024 -0.05479346588253975 0.8192566633224487
-0.37156611680984497 -0.0703289657831192 0.6627090573310852
-0.3616255521774292 -0.09181798994541168 0.6162021160125732
-0.40316927433013916 0.01795608177781105 0.9602019786834717
-0.5047573447227478 0.07145366072654724 1.3991878032684326
-0.4090624451637268 0.019703924655914307 1.0006029605865479
-0.3843916058540344 0.02668144181370735 0.9299359321594238
-0.42746633291244507 -0.009141694754362106 1.0250616073608398
-0.4234010577201843 -0.0129329152405262 1.0024795532226562
-0.3782604932785034 0.023047126829624176 1.0147602558135986
-0.429404079914093 0.007977120578289032 1.1117660999298096
-0.3653654456138611 0.005246739834547043 0.8831388354301453
-0.35290831327438354 -0.009660579264163971 0.8177322149276733
-0.44596946239471436 0.05507992208003998 1.1891204118728638
-0.3988219201564789 0.03289671614766121 1.1265701055526733
-0.4066380262374878 0.006449639797210693 1.0874881744384766
-0.45467519760131836 0.05346068739891052 1.4491868019104004
-0.45281532406806946 0.020778335630893707 1.260420560836792
-0.3855447471141815 0.0063530392944812775 1.165817141532898
-0.4334225356578827 0.03492236137390137 1.5015878677368164
-0.3829905390739441 0.059849806129932404 1.4055616855621338
-0.40666934847831726 0.021925747394561768 1.2934828996658325
-0.33303844928741455 0.024139489978551865 1.1062707901000977
-0.357311487197876 0.006341516971588135 1.1171619892120361
-0.3898371756076813 0.050647154450416565 1.2956339120864868
-0.3617580235004425 0.04764440283179283 1.2321553230285645
-0.3298811912536621 0.04617484658956528 1.4647326469421387
-0.3353608250617981 0.014779597520828247 1.291010856628418
-0.29827290773391724 0.004510607570409775 1.207038402557373
-0.2858946919441223 0.03134048730134964 1.2050095796585083
-0.27956750988960266 0.025129320099949837 1.141148328781128
-0.25868332386016846 -0.0017584003508090973 1.2348805665969849
-0.2560802698135376 0.028063930571079254 1.1497124433517456
-0.3097774386405945 0.045361798256635666 1.3783032894134521
-0.2747489809989929 0.011439166963100433 1.3381012678146362
-0.21507355570793152 0.020419899374246597 1.1395742893218994
-0.19500374794006348 0.02139464020729065 1.1620562076568604
-0.1821386218070984 0.019420988857746124 1.4326471090316772
-0.19503460824489594 -0.00547398254275322 1.2752971649169922
0.18684017658233643 -0.06368087977170944 1.1131726503372192
0.19444425404071808 -0.051574815064668655 1.3886618614196777
0.2566814422607422 -0.04699493199586868 1.1432576179504395
0.24331600964069366 -0.06834083795547485 1.1319830417633057
0.2387571781873703 -0.042096443474292755 1.079262614250183
0.3056771159172058 -0.0684497132897377 1.234378695487976
0.2937432825565338 -0.08990606665611267 1.1519267559051514
0.32105791568756104 -0.05493028461933136 1.01121187210083
0.37725943326950073 -0.07747805118560791 1.3639640808105469
0.3579641580581665 -0.10732918232679367 1.100165605545044
0.4514957666397095 -0.09560050815343857 1.2944836616516113
0.4455057382583618 -0.1097773015499115 0.7853472232818604
0.4596107006072998 -0.09840571880340576 0.7679438591003418
0.44863608479499817 -0.10094186663627625 0.6611414551734924
0.44779181480407715 -0.0960521325469017 0.5928329229354858
0.4408540427684784 -0.11501927673816681 0.6047270894050598
0.48026320338249207 -0.10029646754264832 1.047380805015564
0.4680310785770416 -0.09237663447856903 0.6688237190246582
0.45964041352272034 -0.08852840960025787 0.5964034199714661
0.44968560338020325 -0.15674994885921478 0.8304333686828613
0.45285335183143616 -0.17329034209251404 0.8781337738037109
0.4363015592098236 -0.18635693192481995 0.847135603427887
0.45307108759880066 -0.16500087082386017 0.7826975584030151
0.4986650347709656 -0.09955497086048126 0.6898890733718872
0.49343737959861755 -0.1039399653673172 0.611396074295044
0.5070767998695374 -0.11795229464769363 0.8454421758651733
0.4678156077861786 -0.1606597900390625 0.8240747451782227
0.4876188635826111 -0.17157556116580963 0.7707169651985168
0.4651157557964325 -0.1798316240310669 0.8275571465492249
0.4707087278366089 -0.2002105563879013 0.7567448616027832
0.4830418527126312 -0.15068691968917847 0.8964297771453857
0.5170412063598633 -0.15364621579647064 0.8431187272071838
0.49756595492362976 -0.16622909903526306 0.6141319274902344
0.47370320558547974 -0.1877909004688263 0.5585202574729919
0.5148332715034485 -0.12147964537143707 0.5733062028884888
0.5271233916282654 -0.12259308993816376 0.9166917204856873
0.5109940767288208 -0.1252511590719223 0.713209867477417
0.48801639676094055 -0.18943104147911072 0.6764026880264282
0.5110708475112915 -0.18099157512187958 0.6716393232345581
0.528067946434021 -0.1637883484363556 0.5954045057296753
0.5680957436561584 -0.12568612396717072 0.8491386771202087
0.5830324292182922 -0.12413181364536285 0.814275324344635
0.5677515268325806 -0.13792705535888672 0.6486469507217407
0.566460907459259 -0.15499716997146606 0.6686696410179138
0.5384106040000916 -0.11164554953575134 1.0116424560546875
0.6188956499099731 -0.10272745788097382 0.9640741348266602
0.583016574382782 -0.11996741592884064 0.9561001062393188
0.6112855076789856 -0.11113505065441132 1.140403389930725
0.600340723991394 -0.10579055547714233 1.099267601966858
0.5944812297821045 -0.10167840868234634 1.0956066846847534
0.5959862470626831 -0.11761299520730972 1.0807794332504272
0.619144082069397 -0.10552910715341568 1.0184189081192017
0.6111024022102356 -0.113559290766716 1.036124348640442
-0.5147413015365601 0.06768983602523804 0.946919322013855
-0.5101390480995178 0.045708067715168 0.9586074948310852
-0.5121238231658936 0.022367894649505615 0.9278473854064941
-0.3798414170742035 -0.045841898769140244 0.6409201622009277
-0.3778929114341736 -0.09014551341533661 0.6044580936431885
-0.39891359210014343 -0.05232078582048416 0.8169611096382141
-0.41314440965652466 -0.05597248673439026 0.7656515836715698
-0.41143426299095154 -0.08579523861408234 0.7995799779891968
-0.40780162811279297 -0.0816369503736496 0.6968456506729126
-0.3775789737701416 -0.06964592635631561 0.7048032879829407
-0.37250441312789917 -0.09334228932857513 0.6712179780006409
-0.4201197624206543 -0.027239803224802017 0.9524949789047241
-0.40805715322494507 -0.05354084447026253 0.904935896396637
-0.41795632243156433 -0.0363655649125576 0.9074646234512329
-0.38457322120666504 -0.0889899954199791 0.73479825258255
-0.3788623809814453 -0.06572136282920837 0.7399791479110718
-0.3958098888397217 -0.07450943440198898 0.8288990259170532
-0.3971834182739258 -0.05527980625629425 0.7887763977050781
-0.427823543548584 0.0433199442923069 1.0968140363693237
-0.3600330650806427 0.013989146798849106 0.9421191811561584
-0.3237970471382141 -0.0015652664005756378 0.9757636785507202
-0.32453978061676025 0.01854924112558365 0.9741345643997192
-0.38050752878189087 0.0014741383492946625 1.115057110786438
-0.33274251222610474 0.007810760289430618 1.0602232217788696
-0.3255414664745331 0.021891292184591293 1.0053232908248901
-0.3237508237361908 0.003462083637714386 0.9953473210334778
-0.3181285262107849 0.013932891190052032 1.3400832414627075
-0.2986101508140564 0.02363215759396553 1.0894062519073486
-0.2826635241508484 -0.0025461800396442413 1.1271371841430664
-0.2712753415107727 0.028801867738366127 1.0921730995178223
-0.22075149416923523 0.004786491394042969 1.1310540437698364
-0.23797571659088135 0.02273404598236084 1.1056486368179321
-0.1794309914112091 0.009994778782129288 1.1890628337860107
0.38594764471054077 -0.07808279991149902 0.9882814288139343
0.464194655418396 -0.10896697640419006 1.4447801113128662
0.45576146245002747 -0.10022153705358505 0.9423832893371582
0.4026729166507721 -0.07301931828260422 0.9318554997444153
0.42379674315452576 -0.10868219286203384 0.9213865399360657
0.4290503263473511 -0.09566403925418854 0.9162383675575256
0.43953990936279297 -0.09783104807138443 1.110902190208435
0.4365116357803345 -0.14233706891536713 0.9348425269126892
0.44473835825920105 -0.1473793089389801 0.8807453513145447
0.43453365564346313 -0.1720355600118637 0.9001024961471558
0.43577834963798523 -0.1660749316215515 0.8731850385665894
0.4435276687145233 -0.14844338595867157 0.82451331615448
0.451631098985672 -0.13942664861679077 0.6364636421203613
0.4566766023635864 -0.1385398507118225 0.589056670665741
0.4834196865558624 -0.12895424664020538 0.5759367942810059
0.48236605525016785 -0.12018448114395142 0.9179826378822327
0.48754310607910156 -0.11576694995164871 0.8848269581794739
0.4712986648082733 -0.16384874284267426 0.8514540791511536
0.4565145671367645 -0.16807152330875397 0.8147903084754944
0.444219172000885 -0.19004756212234497 0.7802644371986389
0.4952426552772522 -0.13407322764396667 1.209226369857788
0.5314794778823853 -0.12754477560520172 0.8473777770996094
0.5503419637680054 -0.136108860373497 0.8014345169067383
0.542155921459198 -0.13708195090293884 0.9666181206703186
0.5542537569999695 -0.17365361750125885 0.6286604404449463
0.5517151951789856 -0.13671699166297913 0.602367639541626
0.5515851974487305 -0.15274040400981903 0.8259913921356201
0.5516982674598694 -0.15924014151096344 0.7759689688682556
0.6509310007095337 -0.12551212310791016 0.9469888210296631
0.6024495363235474 -0.1582999974489212 0.9061105251312256
0.6168804168701172 -0.13838982582092285 0.9042116403579712
0.6132689714431763 -0.15127240121364594 0.776066780090332
0.6165708303451538 -0.14117331802845 0.791307806968689
-0.5232749581336975 0.09014181047677994 1.1075234413146973
-0.4022892713546753 -0.02897265926003456 0.5969820618629456
-0.44111719727516174 -0.023061024025082588 0.8967660069465637
-0.4270976781845093 -0.043099142611026764 0.8671897649765015
-0.451684832572937 0.0033508501946926117 0.943908154964447
-0.4732673466205597 0.0526432991027832 1.3802235126495361
-0.42818915843963623 0.03410003334283829 0.9807524681091309
-0.42294740676879883 0.01868317648768425 0.9501575231552124
-0.3440384864807129 -0.04944700747728348 0.6207728385925293
-0.3336401581764221 -0.02310251072049141 0.6196002960205078
-0.39481890201568604 -0.03924470394849777 0.9071125984191895
-0.3900569677352905 -0.05409489572048187 0.8543906211853027
-0.3938509225845337 -0.05674365162849426 0.8925244212150574
-0.4625157415866852 0.034617677330970764 1.3334157466888428
-0.4359106719493866 0.05357355624437332 1.2347116470336914
-0.23150447010993958 0.03164561837911606 1.2032850980758667
0.1275002360343933 -0.04824578016996384 1.219395399093628
0.11538491398096085 -0.06048663705587387 1.2253230810165405
0.2009764462709427 -0.07376061379909515 1.1438534259796143
0.1914096623659134 -0.04969058558344841 1.0828850269317627
0.2831467390060425 -0.05972062051296234 1.1744976043701172
0.3218911290168762 -0.06759104132652283 1.05220627784729
0.310865581035614 -0.07840277254581451 1.0374404191970825
0.4028782844543457 -0.11226116120815277 1.1593044996261597
0.44166308641433716 -0.12721525132656097 1.229326844215393
0.42936187982559204 -0.12401095777750015 1.053542137145996
0.4362233877182007 -0.1842731088399887 0.7869210839271545
0.46430638432502747 -0.17109309136867523 0.741266131401062
0.4502723217010498 -0.18904058635234833 0.6962153911590576
0.4626995325088501 -0.16793332993984222 0.6509292125701904
0.4959392249584198 -0.13937610387802124 0.9746089577674866
0.48515963554382324 -0.19766981899738312 0.5772647261619568
-0.4989147186279297 0.030706927180290222 0.9496423602104187
-0.3471493124961853 -0.032013725489377975 0.7679004669189453
-0.33424878120422363 -0.04017998278141022 0.7177525758743286
-0.46470406651496887 0.04592107981443405 1.479867935180664
-0.29783719778060913 0.021443352103233337 1.077125072479248
-0.2895433306694031 0.021795101463794708 1.0482714176177979
-0.2692359983921051 0.015411723405122757 1.0718823671340942
-0.22157008945941925 0.023661723360419273 1.1112911701202393
-0.14169219136238098 -0.0011413656175136566 1.255832552909851
-0.1457032859325409 -0.020267972722649574 1.2542630434036255
0.3693665862083435 -0.11031834781169891 1.293083906173706
0.4085630178451538 -0.11869452893733978 1.3319883346557617
0.4824918806552887 -0.11332331597805023 0.9472033381462097
0.4677245318889618 -0.10248541086912155 0.8795093297958374
0.45850369334220886 -0.13619700074195862 1.0465123653411865
0.4426954388618469 -0.14765723049640656 0.7725397348403931
0.5195668935775757 -0.13509055972099304 1.0111241340637207
0.5217881798744202 -0.1291559785604477 1.0971403121948242
0.5812379717826843 -0.14062601327896118 0.936040997505188
0.5731508135795593 -0.1466326117515564 0.8756750822067261
0.5603148937225342 -0.16972596943378448 0.7140406966209412
0.5027388334274292 -0.17791609466075897 0.6364673972129822
0.5695689916610718 -0.14745232462882996 0.7066226601600647
-0.39359021186828613 -0.051819320768117905 0.6133201718330383
-0.3575744926929474 -0.029309535399079323 0.6124794483184814
-0.4009678363800049 -0.052168894559144974 0.8114010095596313
-0.3785439431667328 -0.0606582835316658 0.6685458421707153
-0.3442022204399109 -0.05605876073241234 0.6601235866546631
-0.3709273040294647 -0.010332636535167694 0.9613420367240906
-0.2451094090938568 0.0048932358622550964 1.2097437381744385
-0.24246391654014587 0.01064031571149826 1.1577224731445312
-0.24812591075897217 0.020400986075401306 1.132272720336914
-0.21183088421821594 -0.0035614408552646637 1.200811743736267
-0.1964639127254486 -0.008402150124311447 1.134731411933899
-0.19680076837539673 0.009443430230021477 1.1254771947860718
0.1946398764848709 -0.03367839381098747 1.0899028778076172
0.42533349990844727 -0.12505735456943512 0.9852564930915833
0.46186578273773193 -0.15147632360458374 0.9731698036193848
0.4662799835205078 -0.15963909029960632 0.9296038746833801
0.5376279354095459 -0.17363691329956055 0.7632114291191101
-0.4381862282752991 -0.01889398694038391 0.694250226020813
-0.43353354930877686 -0.03876128047704697 0.658811628818512
-0.4298662543296814 -0.028365174308419228 0.6538962125778198
-0.4213540554046631 0.020696911960840225 0.8681681156158447
-0.3811490535736084 -0.03882904350757599 0.8284884691238403
-0.3850545883178711 -0.046497642993927 0.8744206428527832
-0.1757931411266327 -0.007815586403012276 1.217125654220581
-0.12390363216400146 -0.016521230340003967 1.3291699886322021
-0.11455848067998886 -0.010460939258337021 1.3192006349563599
0.1204671710729599 -0.0710258036851883 1.2340245246887207
0.2643108069896698 -0.08975191414356232 1.5536328554153442
0.4079355001449585 -0.08525009453296661 1.4773186445236206
0.4353741407394409 -0.10599256306886673 1.4859404563903809
0.46994173526763916 -0.1063213050365448 1.4120484590530396
0.5713942050933838 -0.11185820400714874 1.1661039590835571
0.6020921468734741 -0.10842277109622955 1.1967295408248901
0.5869033932685852 -0.08828596770763397 1.1456583738327026
0.5913466811180115 -0.11092174053192139 1.1253547668457031
0.6202609539031982 -0.0976031944155693 1.1429903507232666
-0.530552864074707 0.0781371220946312 1.04054856300354
-0.5152789354324341 0.09017723798751831 1.0291870832443237
-0.5305919647216797 0.09769202768802643 1.2767436504364014
-0.5148611068725586 0.09989120811223984 1.257956624031067
-0.3902629017829895 0.001336168497800827 0.6421335935592651
-0.38178762793540955 -0.009410656988620758 0.6027552485466003
-0.4007410407066345 -0.06395158916711807 0.7069711685180664
-0.4140568971633911 0.009369246661663055 0.8230900764465332
-0.43007808923721313 0.040633585304021835 1.0273535251617432
-0.45362138748168945 0.0487293116748333 1.5238475799560547
0.2059011161327362 -0.05038827657699585 1.1505812406539917
0.28163912892341614 -0.06437061727046967 1.351733922958374
0.3427254557609558 -0.0729726254940033 1.0616774559020996
0.35196611285209656 -0.06962497532367706 1.1862671375274658
0.3755149245262146 -0.08460180461406708 0.988568902015686
0.38865914940834045 -0.09220803529024124 0.9378112554550171
0.3931449055671692 -0.11748482286930084 1.010507583618164
0.45127594470977783 -0.12125423550605774 0.7349168062210083
0.4570402503013611 -0.13060948252677917 0.7242205739021301
0.477737694978714 -0.17836472392082214 0.7744160294532776
0.5627715587615967 -0.1272832304239273 0.9386028051376343
0.5562574863433838 -0.11840984970331192 0.7319213151931763
-0.41140496730804443 -0.04069335758686066 0.6243914365768433
-0.3773351311683655 -0.03536362573504448 0.5882756114006042
-0.27646124362945557 0.036251313984394073 1.0519486665725708
-0.226765438914299 0.03204350918531418 1.1314337253570557
-0.1887616515159607 -0.000207461416721344 1.1763137578964233
0.5361614227294922 -0.11813767999410629 0.7675727009773254
0.5314734578132629 -0.13822369277477264 0.5470544695854187
0.5396414399147034 -0.1434294730424881 0.5593824982643127
-0.42029136419296265 -0.04640781879425049 0.8473601937294006
-0.36652567982673645 -0.03229232132434845 0.779194712638855
-0.3592431843280792 -0.05161191523075104 0.7361615896224976
0.4865262508392334 -0.10832034796476364 1.3363217115402222
0.5435598492622375 -0.11901091784238815 0.555182933807373
0.5968812108039856 -0.15367992222309113 0.8391202688217163
-0.23421476781368256 0.0327911376953125 1.278262972831726
0.5937775373458862 -0.1366073340177536 0.9269139766693115
-0.35746192932128906 -0.015359826385974884 0.851909875869751
0.46040627360343933 -0.18464499711990356 0.5954017639160156
0.5798709392547607 -0.1306622326374054 0.9172977209091187
-0.4170990586280823 -0.0689147487282753 0.8139654397964478
-0.3406527042388916 -0.060865368694067 0.9197725653648376
-0.3478645980358124 -0.058454032987356186 0.9304590225219727
-0.33380788564682007 -0.08661972731351852 0.9250856637954712
-0.34630507230758667 -0.0834447517991066 0.9332696199417114
-0.3151994049549103 -0.05496954917907715 0.9929594397544861
-0.32319918274879456 -0.06295093148946762 0.9694454669952393
-0.307763010263443 -0.046768903732299805 0.9435662031173706
-0.30141761898994446 -0.02783285640180111 0.9818326830863953
-0.3177337050437927 -0.08473290503025055 0.9694050550460815
-0.32514700293540955 -0.10857363790273666 0.9527949094772339
-0.2944506108760834 -0.04291023686528206 1.0563771724700928
-0.30597159266471863 -0.11146250367164612 0.9568297266960144
-0.31232088804244995 -0.07413972169160843 0.9647617936134338
-0.3091481626033783 -0.10551103949546814 0.99434894323349
-0.3018372654914856 -0.07808783650398254 0.9955581426620483
-0.2784336805343628 -0.02546077035367489 1.0348409414291382
-0.2946837544441223 -0.06847943365573883 0.9956854581832886
-0.29626062512397766 -0.08423412591218948 1.0182214975357056
-0.2966358959674835 -0.06715258210897446 1.050358772277832
-0.30475273728370667 -0.03674740716814995 1.0907623767852783
-0.31117185950279236 -0.08787786960601807 1.0730642080307007
-0.25902414321899414 0.0043867588974535465 1.1289350986480713
-0.26451969146728516 0.002835286082699895 1.0872927904129028
-0.29679232835769653 -0.04823464900255203 1.1223721504211426
-0.23299190402030945 0.005154427606612444 1.080543041229248
-0.25346773862838745 -0.05099508911371231 1.1775981187820435
-0.283346563577652 -0.10111572593450546 1.1232460737228394
-0.23014289140701294 0.013774908147752285 1.124929428100586
-0.20233987271785736 -0.0022136736661195755 1.1376304626464844
-0.20730659365653992 -0.010567734017968178 1.19235098361969
-0.1829560399055481 -0.011502066627144814 1.1959192752838135
-0.19554369151592255 -0.08738221973180771 1.250600814819336
-0.24352936446666718 -0.09956543147563934 1.1751890182495117
-0.1777856945991516 -0.022002950310707092 1.2385197877883911
-0.21141363680362701 -0.0478411428630352 1.2333863973617554
-0.1726093590259552 -0.034851305186748505 1.2748003005981445
-0.1614222377538681 -0.04591163992881775 1.3108290433883667
-0.16171002388000488 -0.09412097185850143 1.307360053062439
-0.1961519569158554 -0.1205572634935379 1.202966332435608
-0.14344561100006104 -0.04219520464539528 1.6921477317810059
-0.09957926720380783 0.03781045228242874 1.403468132019043
-0.12941604852676392 0.06444162875413895 0.8484851121902466
-0.17442218959331512 0.01363398414105177 0.8471682071685791
-0.1476738601922989 -0.08097966015338898 0.8537794351577759
-0.19023069739341736 -0.10857298970222473 0.8421169519424438
-0.1292867809534073 -0.01923997886478901 1.6083550453186035
-0.1499914824962616 -0.05428038164973259 1.712149739265442
-0.11966487020254135 -0.04418881610035896 1.6662365198135376
-0.1024707704782486 -0.009761447086930275 1.626626968383789
-0.11406582593917847 -0.02510087564587593 1.573598861694336
-0.11731475591659546 -0.009647399187088013 1.03226900100708
-0.1585988700389862 -0.05209387093782425 0.9882656931877136
-0.1664489209651947 -0.11811533570289612 0.9708871245384216
-0.11790959537029266 -0.038347408175468445 1.5095422267913818
-0.21245859563350677 -0.08237256109714508 0.019502809271216393
-0.22179341316223145 -0.15567201375961304 0.005276817362755537
-0.22716759145259857 -0.1736590564250946 0.03099473938345909
-0.13097988069057465 -0.09059043228626251 1.3596068620681763
-0.12028297036886215 -0.04337528347969055 1.3195438385009766
-0.11713648587465286 -0.0651833638548851 1.295783281326294
-0.14102067053318024 -0.1016353890299797 1.3449013233184814
-0.12679913640022278 -0.13532841205596924 1.2944867610931396
-0.1695212870836258 -0.05341589078307152 0.44564661383628845
-0.16641871631145477 -0.08022835105657578 0.359380304813385
-0.1777925193309784 -0.027438249439001083 0.30090078711509705
-0.18442383408546448 -0.056025728583335876 0.32635101675987244
-0.11463063955307007 -0.03297477588057518 1.6370519399642944
-0.12124592810869217 -0.10020273923873901 1.2584327459335327
-0.12882687151432037 -0.10090763866901398 1.2198967933654785
-0.12998473644256592 -0.1297929584980011 1.2425246238708496
-0.1542745679616928 -0.14382129907608032 1.2364505529403687
-0.16872526705265045 -0.017711177468299866 0.22720414400100708
-0.11954035609960556 -0.09975266456604004 1.4959194660186768
-0.10404689610004425 -0.032406702637672424 1.5100998878479004
-0.11320030689239502 -0.06265629827976227 1.4993540048599243
-0.14533735811710358 -0.09067868441343307 0.5450608134269714
-0.06689676642417908 -0.05659247189760208 1.7212949991226196
-0.12065014243125916 -0.1389428973197937 1.1824724674224854
-0.11295810341835022 -0.06076550856232643 1.1496131420135498
-0.10840790718793869 -0.14035296440124512 0.7246994972229004
-0.0670362040400505 -0.005850855261087418 1.684333086013794
-0.10966569930315018 -0.12021908164024353 1.3647708892822266
-0.0939229428768158 -0.12428253889083862 0.8369691371917725
-0.1341046839952469 -0.1336413025856018 0.8560727834701538
-0.12338514626026154 -0.19667860865592957 0.9023940563201904
-0.1025354266166687 -0.2140263020992279 0.8432972431182861
-0.19982755184173584 -0.2040199637413025 0.0594417005777359
-0.03318268060684204 0.009675491601228714 1.6849786043167114
-0.06087247282266617 -0.04582482576370239 1.707087755203247
-0.12205744534730911 -0.07406961917877197 1.4152002334594727
-0.10377214103937149 -0.09970487654209137 1.4547135829925537
-0.1444302499294281 -0.007360316812992096 0.2966378927230835
-0.16401740908622742 -0.024966437369585037 0.1833290010690689
-0.19331583380699158 -0.1909467577934265 0.09710024297237396
-0.1633429080247879 -0.0013130586594343185 0.01996961236000061
-0.09243705868721008 -0.06217862665653229 1.3028578758239746
-0.12472725659608841 -0.11660822480916977 0.5195938348770142
-0.15318305790424347 -0.17878058552742004 -0.007481795735657215
-0.19334779679775238 -0.1834808737039566 -0.011668279767036438
-0.06977289915084839 -0.0421566516160965 1.5227837562561035
-0.07891574501991272 -0.0675743818283081 1.4785795211791992
-0.03247879445552826 -0.2150174230337143 0.902173638343811
-0.07974186539649963 0.0876937285065651 0.8548612594604492
-0.16582177579402924 -0.13348889350891113 0.2353413701057434
-0.14021708071231842 -0.12135203182697296 0.1573210507631302
-0.14263972640037537 -0.006207972764968872 0.07061673700809479
-0.08133819699287415 -0.05602357164025307 1.272708535194397
-0.0924672856926918 -0.06913864612579346 1.2319083213806152
-0.0656256452202797 -0.17594751715660095 1.2713110446929932
-0.10653311759233475 -0.04401884227991104 0.641873836517334
-0.09000085294246674 -0.1425979733467102 0.7199894189834595
-0.05862925201654434 -0.12644314765930176 0.8025843501091003
-0.12860147655010223 -0.12391550838947296 0.12316044420003891
-0.14353404939174652 -0.18922434747219086 0.062167927622795105
-0.09906615316867828 -0.1473114788532257 1.443856120109558
-0.0748845785856247 -0.05787840485572815 1.3365291357040405
-0.05074257776141167 -0.053630340844392776 1.2808305025100708
-0.09452603757381439 -0.11750824004411697 0.5431599617004395
-0.0754767581820488 -0.0984107106924057 0.5436294674873352
-0.10996218025684357 -0.001987709663808346 0.48551100492477417
-0.07719457149505615 -0.13363534212112427 1.4159090518951416
-0.050794731825590134 -0.09676498919725418 1.4027557373046875
-0.07921545207500458 -0.04855647683143616 1.378321886062622
-0.08461150527000427 -0.0392850823700428 0.4928407669067383
-0.019070997834205627 -0.03525765985250473 1.7148793935775757
-0.09164491295814514 -0.19561952352523804 1.5634467601776123
-0.040087971836328506 -0.18942975997924805 0.9706475734710693
-0.05452391877770424 -0.10677661746740341 1.4159605503082275
-0.037829525768756866 -0.13468855619430542 1.398005723953247
-0.057382982224226 -0.11846120655536652 1.3906999826431274
-0.0435449555516243 -0.19019731879234314 1.5003303289413452
-0.07976898550987244 -0.17660486698150635 1.4527556896209717
-0.028234949335455894 -0.0802137553691864 1.4305503368377686
-0.06454019993543625 -0.0597013384103775 0.6176738739013672
0.019379494711756706 -0.07932041585445404 1.7249834537506104
0.009795904159545898 0.023333780467510223 1.6608076095581055
-0.03677350655198097 -0.2030348777770996 1.4494320154190063
-0.05032609403133392 -0.17662128806114197 1.4089069366455078
-0.01559261791408062 -0.08686839044094086 1.4044110774993896
-0.026336107403039932 -0.18378379940986633 1.410668969154358
0.013121580705046654 -0.06852781772613525 1.3860905170440674
-0.01396164484322071 -0.06582432240247726 1.271144986152649
0.024059880524873734 -0.02715696021914482 1.7118022441864014
0.00467701256275177 -0.09039398282766342 1.4310407638549805
-0.004533706232905388 -0.13290852308273315 1.4128985404968262
0.05343322455883026 -0.012950150296092033 1.679131269454956
0.030109763145446777 -0.06874947249889374 1.7099506855010986
-0.005068007856607437 -0.1262800395488739 1.4024925231933594
0.03293988108634949 -0.15386968851089478 1.4334670305252075
0.005546418018639088 -0.10756375640630722 1.4092092514038086
0.04827580600976944 -0.09236179292201996 0.5673593282699585
0.038335543125867844 -0.0687016099691391 1.4663598537445068
0.08104032278060913 -0.11732766032218933 0.48277735710144043
-0.005955896340310574 -0.2116120159626007 1.2291691303253174
0.05096817761659622 -0.0974496454000473 1.2417514324188232
0.045655056834220886 -0.0966818630695343 1.1369974613189697
0.10567725449800491 -0.21992701292037964 0.056917548179626465
0.12768197059631348 -0.22337259352207184 0.029977548867464066
0.09705193340778351 -0.05059867352247238 0.024851102381944656
0.007093479856848717 -0.19471070170402527 1.2200522422790527
-0.0016241353005170822 -0.21376800537109375 1.1418925523757935
0.04792919009923935 -0.1412164568901062 0.7061591744422913
0.09153500199317932 -0.1254253387451172 -0.0033035501837730408
0.07376112788915634 -0.07338622212409973 1.6701841354370117
0.022003687918186188 -0.20538248121738434 1.5664401054382324
0.018518997356295586 -0.18373329937458038 1.4905143976211548
0.015496412292122841 -0.18223516643047333 1.4476739168167114
0.08762553334236145 -0.16072264313697815 0.8554309606552124
0.12238182127475739 -0.08576148748397827 1.6957130432128906
0.04585554078221321 -0.07196858525276184 1.510727047920227
0.041705913841724396 -0.09107217192649841 1.481773018836975
0.10174030065536499 -0.044791944324970245 0.29206469655036926
0.09519948065280914 -0.038477566093206406 0.22916723787784576
0.11257622390985489 -0.04799224063754082 0.0009563714265823364
0.0700349286198616 -0.09375371038913727 1.7475786209106445
0.06853107362985611 -0.09496306627988815 1.3774250745773315
0.09040427207946777 -0.2191123068332672 0.8458513021469116
0.07379470765590668 -0.13187533617019653 0.838935136795044
0.11895428597927094 -0.19509369134902954 0.8395678997039795
0.07701978087425232 -0.039870887994766235 0.7281537055969238
0.14979857206344604 -0.22387997806072235 0.045634400099515915
0.0870627909898758 -0.08309445530176163 1.6803510189056396
0.031059058383107185 -0.18292737007141113 1.1167694330215454
0.03161301091313362 -0.19592033326625824 1.2355377674102783
0.03038601204752922 -0.21400946378707886 1.2319315671920776
0.12708011269569397 -0.19209221005439758 0.9078419208526611
0.06406797468662262 -0.1425427794456482 1.5137312412261963
0.07456067949533463 -0.07026079297065735 1.5241941213607788
0.07042248547077179 -0.09407809376716614 1.5055341720581055
0.0742490291595459 -0.10827065259218216 1.5006556510925293
0.0771605372428894 -0.12152990698814392 1.4766864776611328
0.11087384074926376 -0.0671214684844017 0.6238598823547363
0.10776430368423462 -0.13333538174629211 0.6421258449554443
0.07211107015609741 -0.147359237074852 1.3561174869537354
0.08088365197181702 -0.10538952052593231 1.3025658130645752
0.05109742283821106 -0.10180733352899551 1.325176477432251
0.054756321012973785 -0.11438839137554169 1.298187255859375
0.1063368022441864 -0.1196153461933136 0.8045405745506287
0.1572626680135727 -0.08296419680118561 0.003342296928167343
0.16880987584590912 -0.11478614807128906 0.0030330047011375427
0.08948509395122528 -0.08793089538812637 1.6363691091537476
0.08997732400894165 -0.10555315017700195 1.3511625528335571
0.16320785880088806 -0.09533119946718216 0.27682965993881226
0.11511662602424622 -0.07037967443466187 1.6159021854400635
0.09383338689804077 -0.04547113552689552 1.6244115829467773
0.10137081146240234 -0.06995976716279984 1.5858023166656494
0.17106623947620392 -0.10687556862831116 0.08789738267660141
0.17638348042964935 -0.18867361545562744 0.03260953724384308
0.1578628569841385 -0.2091841697692871 0.07420565187931061
0.16073806583881378 -0.020207662135362625 0.9443157911300659
0.14038440585136414 -0.018131030723452568 0.8406404256820679
0.11897111684083939 -0.09955956786870956 1.6888347864151
0.16188374161720276 0.03458492085337639 0.8472274541854858
0.18195927143096924 -0.003237407887354493 0.9062689542770386
0.1016700267791748 -0.12135963141918182 1.293008804321289
0.10496445000171661 -0.14915019273757935 1.2759032249450684
0.07906290888786316 -0.1530214548110962 1.3278377056121826
0.10361508280038834 -0.13721297681331635 1.2369797229766846
0.09175079315900803 -0.13717517256736755 1.2177809476852417
0.09070941805839539 -0.217107892036438 1.2042113542556763
0.11110395938158035 -0.1758410930633545 1.2344874143600464
0.11943726241588593 -0.1558687686920166 1.1661237478256226
0.11781550198793411 -0.16137146949768066 1.0878040790557861
0.14372166991233826 -0.17152468860149384 1.0969659090042114
0.14344565570354462 -0.1848035454750061 1.1501290798187256
0.12075171619653702 -0.21757373213768005 1.1734328269958496
0.14089766144752502 -0.1960858404636383 1.0459238290786743
0.17041540145874023 -0.24778619408607483 1.095837950706482
0.17228803038597107 -0.2290864735841751 1.0757802724838257
0.15859581530094147 -0.20668548345565796 1.0513484477996826
0.12961825728416443 -0.2860904633998871 1.0869306325912476
0.1456746608018875 -0.256204754114151 1.0545027256011963
0.14284665882587433 -0.23829077184200287 1.039157748222351
0.17657023668289185 -0.3069624602794647 0.9461084604263306
0.12751182913780212 -0.2719574570655823 1.0550493001937866
0.129769966006279 -0.29028645157814026 1.0282689332962036
0.1619843691587448 -0.26388800144195557 0.9726877808570862
0.12950612604618073 -0.276486873626709 1.0040838718414307
0.12662529945373535 -0.30241623520851135 1.005878210067749
0.14613144099712372 -0.2961723804473877 0.9787024259567261
0.16068163514137268 -0.2973683774471283 0.9750845432281494
0.1254032701253891 -0.3184734880924225 0.983770489692688
0.14272727072238922 -0.3121557831764221 0.9754524827003479
0.13384199142456055 -0.3136335015296936 0.983167290687561
0.17139138281345367 -0.310666561126709 0.9274964332580566
0.13907259702682495 -0.3273371160030365 0.9705520868301392
0.1557360589504242 -0.2970757782459259 0.942903995513916
0.16073065996170044 -0.32716625928878784 0.9399842619895935
0.17296075820922852 -0.32079362869262695 0.943042516708374
-0.2770247757434845 -0.023237187415361404 1.0580220222473145
-0.2827610969543457 -0.07765761762857437 1.035201907157898
-0.26247143745422363 -0.061259977519512177 1.0371862649917603
-0.2938302457332611 -0.10377039015293121 1.0632729530334473
-0.22261734306812286 -0.028037957847118378 1.061086893081665
-0.26857131719589233 -0.10720827430486679 1.0503342151641846
-0.1677277833223343 -0.04242100566625595 1.2152996063232422
-0.18026702105998993 -0.09351026266813278 1.1792048215866089
-0.17943023145198822 -0.09502233564853668 0.9437568187713623
-0.18326103687286377 -0.014070221222937107 0.9186356067657471
-0.1322198212146759 0.051397811621427536 0.9138409495353699
-0.0698496550321579 0.0872548371553421 1.2892764806747437
-0.0686550885438919 0.09150569140911102 1.2347865104675293
-0.06394678354263306 0.11753213405609131 1.2164945602416992
-0.15901845693588257 -0.009657096117734909 0.9464676380157471
-0.15477879345417023 -0.056052375584840775 1.6813149452209473
-0.12833271920681 -0.057348620146512985 1.3360981941223145
-0.14591437578201294 -0.04327696934342384 1.2709641456604004
-0.007535997778177261 0.12324418127536774 1.128377914428711
-0.030983474105596542 0.13244210183620453 1.0573923587799072
-0.21725833415985107 -0.08189577609300613 0.08234858512878418
-0.23064076900482178 -0.14996588230133057 0.04971643537282944
-0.13326680660247803 -0.06817599385976791 1.6650588512420654
-0.12104767560958862 -0.0513254851102829 1.6145811080932617
-0.14366234838962555 -0.1611100137233734 1.2102105617523193
-0.1437426209449768 -0.1712382435798645 1.183450698852539
-0.1502636820077896 -0.19081735610961914 1.1742538213729858
-0.074165940284729 0.04142448306083679 1.3836090564727783
-0.06417976319789886 0.036274731159210205 1.3805983066558838
-0.12584640085697174 -0.16719383001327515 1.2266716957092285
-0.13613319396972656 -0.0893583744764328 1.1916289329528809
-0.19145405292510986 -0.10979616641998291 0.14690406620502472
-0.1992924064397812 -0.06437917053699493 0.16185885667800903
-0.025139879435300827 0.07132529467344284 1.2811630964279175
-0.12869825959205627 -0.08803294599056244 1.4247246980667114
-0.12834513187408447 -0.08097062259912491 1.4048748016357422
-0.11673299968242645 -0.08083119988441467 1.3859552145004272
-0.1312798708677292 -0.0762728825211525 1.3847748041152954
-0.13382269442081451 -0.09042318165302277 1.3702051639556885
-0.1302051544189453 -0.1217540055513382 0.7696919441223145
-0.14385630190372467 -0.08363813906908035 0.7602683305740356
0.005356965586543083 0.1717909574508667 1.1463003158569336
0.004121578298509121 0.16412152349948883 1.1907570362091064
-0.11695709079504013 -0.16063901782035828 1.224114179611206
-0.11933191865682602 -0.11495073139667511 0.8462876081466675
-0.19082188606262207 -0.015451334416866302 0.0744081437587738
-0.19509513676166534 -0.02062559500336647 0.03096868470311165
-0.13400615751743317 -0.18690785765647888 0.8396424055099487
-0.024358214810490608 0.12849362194538116 1.2748281955718994
-0.12562914192676544 -0.1661776304244995 1.5649526119232178
-0.0957350879907608 -0.056071702390909195 1.5034596920013428
-0.05859527736902237 0.026025045663118362 1.4963710308074951
-0.05917365849018097 -0.01145133562386036 1.538628339767456
-0.08102856576442719 -0.010692007839679718 1.5148801803588867
-0.06982330977916718 0.016781575977802277 1.446973204612732
-0.014924075454473495 0.04401165992021561 1.5411505699157715
-0.09132170677185059 -0.08585221320390701 1.4539682865142822
-0.09023264050483704 0.04479999840259552 0.9671474099159241
-0.09456244111061096 -0.06783916056156158 1.756653070449829
-0.10172818601131439 -0.0732206255197525 1.7491984367370605
-0.11073584109544754 -0.08136941492557526 1.735917329788208
0.00862920843064785 0.002852523699402809 1.4428852796554565
-0.040437277406454086 0.05158693343400955 1.426619052886963
-0.1294316202402115 -0.10006401687860489 0.00805177167057991
0.007264599669724703 0.09329426288604736 1.3825032711029053
-0.09686462581157684 -0.16103440523147583 1.4815901517868042
-0.11836700886487961 -0.08019818365573883 0.36524420976638794
-0.029824107885360718 -0.0064160823822021484 1.4891561269760132
-0.055119868367910385 -0.04834102839231491 1.461002230644226
0.002907724119722843 0.058969609439373016 1.4714255332946777
-0.03284035995602608 0.04971633478999138 0.8522039651870728
-0.12538893520832062 -0.017729002982378006 0.31725773215293884
0.04656338691711426 0.14839495718479156 1.0634297132492065
-0.02923818677663803 0.027446163818240166 1.037602424621582
-0.10032933205366135 -0.18693940341472626 1.2185088396072388
-0.10360416769981384 -0.17308612167835236 1.1280397176742554
-0.11154397577047348 -0.046495720744132996 0.2947326898574829
-0.09464704990386963 -0.06001952290534973 0.23327989876270294
-0.12619242072105408 -0.013099662959575653 0.2291124016046524
-0.03434399887919426 -0.026235708966851234 1.499024748802185
-0.055095139890909195 -0.11959722638130188 0.672001302242279
-0.08143101632595062 -0.046727437525987625 0.6366275548934937
0.05425558239221573 0.17009121179580688 1.1836758852005005
0.05575700104236603 0.17450827360153198 1.1097952127456665
-0.05873970314860344 -0.2094278484582901 1.145293951034546
-0.11490349471569061 -0.07019414752721786 0.09334277361631393
0.04403674229979515 0.1296326220035553 1.0921529531478882
0.034266870468854904 0.10315917432308197 1.1227446794509888
0.028778623789548874 -0.026923395693302155 1.495471477508545
-0.07433116436004639 -0.14778244495391846 1.3564635515213013
0.05743913725018501 0.0979001373052597 1.3688337802886963
0.051482006907463074 -0.0018271449953317642 1.4322757720947266
0.019292494282126427 -0.03510157763957977 1.4897569417953491
0.0896625816822052 0.1217603087425232 1.1010164022445679
0.10455340147018433 0.11610886454582214 1.0578100681304932
-0.018921533599495888 -0.16567856073379517 1.3503196239471436
0.018455982208251953 0.02477278932929039 1.0350830554962158
-0.03530506044626236 -0.2153748869895935 1.0823825597763062
0.11468835175037384 0.07265300303697586 1.3859426975250244
0.021486319601535797 -0.06790398061275482 1.2845513820648193
0.08613757789134979 0.034064289182424545 1.4728795289993286
0.051694899797439575 -0.006052866578102112 1.4684525728225708
0.028656702488660812 -0.07019327580928802 1.2011773586273193
0.04769372195005417 0.09155920147895813 0.9169917106628418
0.022799598053097725 -0.10893557965755463 1.688276767730713
0.0816250592470169 -0.1738882064819336 0.05151108279824257
0.08239855617284775 -0.197993203997612 0.02166413888335228
0.07729807496070862 -0.0975525826215744 0.0497918501496315
-0.018246810883283615 -0.20687657594680786 1.5620174407958984
0.0463615283370018 -0.06300834566354752 0.6919379234313965
0.10378765314817429 -0.01615394465625286 1.4390047788619995
0.04210686311125755 -0.12133224308490753 1.44598388671875
0.07577167451381683 -0.1164047122001648 1.3914507627487183
0.03729750216007233 -0.08714859187602997 1.380892038345337
0.08175405114889145 -0.05352124571800232 0.3608330488204956
0.09255519509315491 -0.15152035653591156 0.21116197109222412
0.10295235365629196 -0.06136856600642204 0.162244513630867
0.1468726247549057 0.1116427630186081 1.1046397686004639
0.14401252567768097 0.13709686696529388 1.0806993246078491
0.082681804895401 -0.1465516835451126 0.7171447277069092
0.08635269105434418 -0.05263030529022217 0.6339395046234131
0.018901288509368896 -0.15273983776569366 1.6676812171936035
0.057870008051395416 -0.16049477458000183 1.6259922981262207
0.09686900675296783 -0.13417497277259827 0.528016209602356
0.04537469893693924 -0.10273388028144836 1.7007403373718262
0.06800936162471771 -0.1132100522518158 1.6516977548599243
0.05696868151426315 -0.12227129936218262 1.1270354986190796
0.06405618786811829 -0.10728934407234192 1.1048721075057983
0.05329994112253189 -0.17583602666854858 1.0790774822235107
0.036757878959178925 -0.1903970092535019 1.5595126152038574
0.05722394958138466 -0.1209370493888855 1.4761680364608765
0.047582611441612244 -0.16139590740203857 1.4674931764602661
0.18303419649600983 0.09850844740867615 1.0694644451141357
0.04937196150422096 -0.17231613397598267 1.2675318717956543
0.04770362377166748 -0.2272292822599411 1.2245632410049438
0.06143099069595337 -0.1539410650730133 1.2120811939239502
0.14321397244930267 -0.062877357006073 0.10726900398731232
0.14169588685035706 -0.15652352571487427 0.14074179530143738
0.15599752962589264 -0.14839871227741241 0.12367795407772064
0.08225934207439423 -0.0981907844543457 1.677903413772583
0.05515500158071518 -0.1894574761390686 1.2701137065887451
0.15765158832073212 -0.055674534291028976 0.40036675333976746
0.13615790009498596 -0.1045418381690979 0.45885416865348816
0.16265618801116943 -0.07651624083518982 0.3431740701198578
0.0854029431939125 -0.13528019189834595 1.3799821138381958
0.071462482213974 -0.132827490568161 1.3794574737548828
0.08845943212509155 -0.11666463315486908 1.341761589050293
0.12224068492650986 0.06023107469081879 0.9078417420387268
0.11529307067394257 -0.11734133958816528 0.8370569944381714
0.16980315744876862 -0.07256877422332764 0.2125622034072876
0.1817987710237503 -0.10260362923145294 0.22341376543045044
0.09424088895320892 -0.1118057444691658 1.3357259035110474
0.1710614114999771 0.02274157665669918 1.3009841442108154
0.18130965530872345 0.051400478929281235 1.2856438159942627
0.04031188040971756 -0.2836732864379883 1.1166588068008423
0.15711206197738647 -0.07230545580387115 0.9763568639755249
0.15851077437400818 -0.12857183814048767 0.9635406732559204
0.089673712849617 -0.13831478357315063 1.1627006530761719
0.08367159962654114 -0.2473544031381607 1.057730793952942
0.09702632576227188 -0.21102061867713928 1.0340995788574219
0.10118658095598221 -0.27403712272644043 1.1228269338607788
-0.26329147815704346 -0.032330431044101715 1.0324381589889526
-0.28656360507011414 -0.08462495356798172 1.0048569440841675
-0.22504223883152008 -0.10456645488739014 1.1029554605484009
-0.2413526177406311 -0.11573801189661026 1.144575595855713
-0.19132110476493835 -0.07813400775194168 1.124319314956665
-0.17746305465698242 -0.04012720286846161 1.1511602401733398
-0.18646429479122162 -0.153170645236969 0.8576124310493469
-0.05739334225654602 0.13592538237571716 1.0943909883499146
