-0.2136932760477066 -0.017165236175060272 1.4362800121307373
-0.2549309730529785 0.0232078917324543 1.4350606203079224
-0.21100099384784698 -0.014453466981649399 1.3676984310150146
-0.1987130045890808 0.018547501415014267 1.3665900230407715
-0.186133474111557 0.016526933759450912 1.2761497497558594
-0.161942720413208 0.00447843037545681 1.2386053800582886
0.15649156272411346 -0.044027455151081085 1.1753878593444824
0.13965731859207153 -0.06346018612384796 1.1841599941253662
0.1596517413854599 -0.054711271077394485 1.1344630718231201
0.21859696507453918 -0.05751943215727806 1.2990168333053589
0.16827404499053955 -0.07894699275493622 1.229563593864441
0.1823299378156662 -0.055196791887283325 1.2427773475646973
0.22012567520141602 -0.050594501197338104 1.184973955154419
0.22754183411598206 -0.0812402218580246 1.1651910543441772
0.21226781606674194 -0.046425312757492065 1.092296838760376
0.21953049302101135 -0.04696442559361458 1.0612664222717285
0.2098289281129837 -0.061529938131570816 1.0905814170837402
0.22254382073879242 -0.062421880662441254 1.0657038688659668
0.2512241005897522 -0.04867102950811386 1.0707261562347412
0.3025031089782715 -0.07506394386291504 1.4263657331466675
0.2853478491306305 -0.09878700226545334 1.3839517831802368
0.29042136669158936 -0.05182645842432976 1.0422192811965942
0.27068403363227844 -0.07740122079849243 1.0490398406982422
0.250057190656662 -0.05996790528297424 1.0741066932678223
0.27571022510528564 -0.059678852558135986 1.0359766483306885
0.30398398637771606 -0.057550281286239624 1.0000226497650146
0.294120192527771 -0.09961435198783875 1.292683482170105
0.35911768674850464 -0.07020355761051178 1.1136208772659302
0.2898547053337097 -0.08948010206222534 1.0620213747024536
0.2999838888645172 -0.07000534236431122 1.0799827575683594
0.3672631084918976 -0.07749998569488525 1.2442941665649414
0.3359902501106262 -0.0921994298696518 1.1015418767929077
0.367369681596756 -0.07242493331432343 1.0263490676879883
0.3621152937412262 -0.06554003804922104 1.0758275985717773
0.3555632531642914 -0.07670355588197708 1.0425965785980225
0.36400699615478516 -0.1061880886554718 1.062125325202942
0.39231276512145996 -0.08259250223636627 1.2824056148529053
0.3848898410797119 -0.08490607142448425 1.1697882413864136
0.3700994849205017 -0.11179151386022568 1.1862010955810547
0.4169404208660126 -0.11927411705255508 1.40110445022583
0.39393875002861023 -0.07988382130861282 1.0594385862350464
0.4403824210166931 -0.09066139161586761 1.3810203075408936
0.4386119842529297 -0.10031186044216156 1.3212335109710693
0.4580729603767395 -0.12144050002098083 1.3606889247894287
0.4367430806159973 -0.10111324489116669 0.8615924119949341
0.46941444277763367 -0.12630251049995422 1.2916669845581055
0.4899110496044159 -0.12492173165082932 1.2493038177490234
0.4642660617828369 -0.0914958044886589 1.2138187885284424
0.45851457118988037 -0.12210443615913391 1.1131401062011719
0.46240681409835815 -0.09022589027881622 1.1182875633239746
0.49258100986480713 -0.0933341234922409 1.2194074392318726
0.4947133958339691 -0.09496786445379257 1.1575757265090942
0.5096886157989502 -0.10159344971179962 1.0946123600006104
0.5340379476547241 -0.0933261588215828 1.2393181324005127
0.5325081944465637 -0.11339835822582245 1.2105904817581177
0.4615950286388397 -0.18177691102027893 0.7015801668167114
0.4670911729335785 -0.18204273283481598 0.5699164271354675
0.49582672119140625 -0.1323886513710022 0.5690916180610657
0.47013193368911743 -0.1394367516040802 0.5992614030838013
0.51784348487854 -0.12854735553264618 0.9018433690071106
0.5137487649917603 -0.12041774392127991 0.8634738922119141
0.5532920360565186 -0.09876134246587753 1.0841721296310425
0.534896969795227 -0.08089947700500488 0.6118758320808411
0.5310240983963013 -0.08958294987678528 0.6755970120429993
0.5907343626022339 -0.1174730435013771 0.8524240255355835
0.5980029702186584 -0.1291942000389099 0.7585209012031555
0.5500545501708984 -0.12673227488994598 0.769191324710846
0.5833691358566284 -0.1456252932548523 0.7748376131057739
-0.5335761308670044 0.011018391698598862 0.8028685450553894
-0.52531898021698 -0.007067084312438965 0.8096506595611572
-0.5448975563049316 0.08249317109584808 1.1580791473388672
-0.5410966873168945 0.09435700625181198 1.1720647811889648
-0.5268349647521973 0.07815830409526825 1.1207562685012817
-0.49880677461624146 0.04551277309656143 1.0204851627349854
-0.482488751411438 0.03518908470869064 1.0607545375823975
-0.5055939555168152 0.01329398900270462 0.9751750826835632
-0.4668389558792114 0.024885613471269608 0.9758291244506836
-0.4821091294288635 0.010144338011741638 1.103704810142517
-0.4992499351501465 0.04205166921019554 1.2664282321929932
-0.49903589487075806 0.045428063720464706 1.2297831773757935
-0.3916918635368347 -0.005369063466787338 0.7837278842926025
-0.43806397914886475 0.007613722234964371 0.7436820268630981
-0.4014769494533539 0.0013118460774421692 0.6737400889396667
-0.4750392436981201 0.05979256331920624 1.2694003582000732
-0.5039194822311401 0.04500526189804077 1.314022421836853
-0.433588445186615 -0.05091351643204689 0.8494096994400024
-0.4283093810081482 -0.05902250111103058 0.8307826519012451
-0.40618181228637695 -0.07032814621925354 0.6744766235351562
-0.39830416440963745 -0.09063305705785751 0.6269614100456238
-0.42425698041915894 0.011511337012052536 0.9732788801193237
-0.5057226419448853 0.054450470954179764 1.4141372442245483
-0.4281155467033386 0.012328866869211197 1.0136874914169312
-0.40687835216522217 0.0209038145840168 0.9428429007530212
-0.44423115253448486 -0.017781561240553856 1.0376176834106445
-0.4412778615951538 -0.021155118942260742 1.0149869918823242
-0.39671194553375244 0.01540975272655487 1.0263432264328003
-0.44217848777770996 -0.002641819417476654 1.1239924430847168
-0.3899190425872803 0.00047194212675094604 0.8949189782142639
-0.38029250502586365 -0.012565474957227707 0.8293724060058594
-0.45583420991897583 0.04329071193933487 1.2027480602264404
-0.4110797047615051 0.022575847804546356 1.138148546218872
-0.42024803161621094 -0.003644552081823349 1.0988309383392334
-0.4531579613685608 0.03552013635635376 1.4614200592041016
-0.4581368565559387 0.0066709741950035095 1.2728071212768555
-0.39471301436424255 -0.005240369588136673 1.1756107807159424
-0.4290577471256256 0.01614052802324295 1.5124435424804688
-0.38318538665771484 0.04400250315666199 1.4161186218261719
-0.4103550612926483 0.007632449269294739 1.304161548614502
-0.34511256217956543 0.014691703021526337 1.1150317192077637
-0.3683772087097168 -0.0040954239666461945 1.1256976127624512
-0.3936833143234253 0.03679356724023819 1.3067477941513062
-0.36800044775009155 0.03512507304549217 1.2419472932815552
-0.32617294788360596 0.030098676681518555 1.4729098081588745
-0.3381213843822479 0.001497458666563034 1.2988520860671997
-0.3039093017578125 -0.00685635581612587 1.2134188413619995
-0.29167258739471436 0.020739823579788208 1.2117763757705688
-0.28824320435523987 0.015713786706328392 1.1479499340057373
-0.26200342178344727 -0.012505140155553818 1.2403969764709473
-0.26401710510253906 0.019347991794347763 1.1559265851974487
-0.30921828746795654 0.030984017997980118 1.3864153623580933
-0.2743246555328369 -0.0017965510487556458 1.344498634338379
-0.22234880924224854 0.012765251100063324 1.1445136070251465
-0.20099559426307678 0.013659115880727768 1.1665012836456299
-0.17802102863788605 0.007112264633178711 1.4381834268569946
-0.19553491473197937 -0.015318972989916801 1.2799351215362549
0.18214617669582367 -0.06487853825092316 1.1100165843963623
0.19993039965629578 -0.05927333980798721 1.3866713047027588
0.2530754506587982 -0.04764898866415024 1.1390916109085083
0.24013246595859528 -0.06920395791530609 1.126983642578125
0.23269371688365936 -0.04110218212008476 1.0756839513778687
0.30667078495025635 -0.07090889662504196 1.2279025316238403
0.29298457503318787 -0.09093798696994781 1.1446855068206787
0.3147360682487488 -0.05046709254384041 1.0053008794784546
0.384824275970459 -0.08257132023572922 1.3550622463226318
0.35832658410072327 -0.10555869340896606 1.0904868841171265
0.4579092860221863 -0.09681038558483124 1.2833220958709717
0.43977710604667664 -0.09649872034788132 0.7760723829269409
0.4533166289329529 -0.08434877544641495 0.7589410543441772
0.43976402282714844 -0.08407603949308395 0.652934193611145
0.43712592124938965 -0.07733576744794846 0.5851259231567383
0.43146389722824097 -0.09667147696018219 0.5964877009391785
0.4808606803417206 -0.09334952384233475 1.0365492105484009
0.458638995885849 -0.07499313354492188 0.6606045365333557
0.4489849805831909 -0.06953047215938568 0.5887278318405151
0.4478578269481659 -0.14441899955272675 0.8194911479949951
0.4529220461845398 -0.16202999651432037 0.8661056160926819
0.43618863821029663 -0.1742909550666809 0.8351908326148987
0.4505218267440796 -0.15086042881011963 0.7715755105018616
0.4902028739452362 -0.08184176683425903 0.6810588836669922
0.4836653172969818 -0.08445070683956146 0.6029694080352783
0.503567099571228 -0.10436756163835526 0.834665060043335
0.4657701551914215 -0.1472584307193756 0.8127536177635193
0.4851815402507782 -0.1562504917383194 0.7591012120246887
0.4644746482372284 -0.16664497554302216 0.8156509399414062
0.46931079030036926 -0.1848679482936859 0.7445995211601257
0.48240745067596436 -0.13931944966316223 0.8847572803497314
0.5157389640808105 -0.13970914483070374 0.8310073018074036
0.49132415652275085 -0.14640337228775024 0.6037114262580872
0.46717941761016846 -0.1670123189687729 0.5478019118309021
0.5055753588676453 -0.10069549828767776 0.5642614960670471
0.5257115960121155 -0.11052900552749634 0.9054399132728577
0.5050230026245117 -0.10829325765371323 0.7030767202377319
0.48476335406303406 -0.17175431549549103 0.664603590965271
0.5068100690841675 -0.1624392718076706 0.6600315570831299
0.5208698511123657 -0.1426851898431778 0.5847381949424744
0.5658072233200073 -0.11050955206155777 0.8375126719474792
0.5799798369407654 -0.10835579037666321 0.8029448986053467
0.5614492297172546 -0.11815334856510162 0.6378239989280701
0.5608488917350769 -0.1354350596666336 0.6575020551681519
0.5394145250320435 -0.10217653214931488 0.999914288520813
0.6184149980545044 -0.09006348997354507 0.9520085453987122
0.5831541419029236 -0.1075514703989029 0.944077730178833
0.6151453852653503 -0.10350020229816437 1.1272755861282349
0.6032986640930176 -0.09730340540409088 1.0865898132324219
0.5970755219459534 -0.09303982555866241 1.0830714702606201
0.598910927772522 -0.10853713005781174 1.0676352977752686
0.6201900839805603 -0.09437529742717743 1.0059092044830322
0.6130330562591553 -0.10290196537971497 1.0233551263809204
-0.537510097026825 0.06152234598994255 0.9670003652572632
-0.5322602391242981 0.03938182443380356 0.9775726795196533
-0.5350263714790344 0.016526781022548676 0.9462856650352478
-0.41606348752975464 -0.04501112550497055 0.6538251042366028
-0.4156997799873352 -0.08870156109333038 0.6160321831703186
-0.42556196451187134 -0.05604744702577591 0.8290321826934814
-0.44239652156829834 -0.058817777782678604 0.7784737348556519
-0.43808576464653015 -0.08999992907047272 0.8107131123542786
-0.4403282701969147 -0.08286940306425095 0.7093799114227295
-0.4101346433162689 -0.07053503394126892 0.7168123722076416
-0.4063124656677246 -0.0940161719918251 0.6818746328353882
-0.4401538074016571 -0.034748099744319916 0.9645483493804932
-0.42993026971817017 -0.059914931654930115 0.9160446524620056
-0.44031232595443726 -0.042464666068553925 0.9199703931808472
-0.41470256447792053 -0.09145797789096832 0.7455242276191711
-0.40933459997177124 -0.06764035671949387 0.7514520883560181
-0.4212445020675659 -0.07928868383169174 0.8396409749984741
-0.42507725954055786 -0.05857526510953903 0.8004637956619263
-0.44191974401474 0.03346994146704674 1.1103261709213257
-0.38181817531585693 0.008327048271894455 0.9536528587341309
-0.34355244040489197 -0.008161086589097977 0.9846857786178589
-0.34456896781921387 0.012002602219581604 0.9838075041770935
-0.3918638229370117 -0.009100906550884247 1.124701976776123
-0.347309947013855 -0.0007288865745067596 1.0687562227249146
-0.3436650037765503 0.014809004962444305 1.0145708322525024
-0.3420152962207794 -0.003376416862010956 1.003890037536621
-0.3185141384601593 -0.00025676190853118896 1.3474833965301514
-0.31061527132987976 0.015122223645448685 1.097075343132019
-0.2915551960468292 -0.01196577399969101 1.1330006122589111
-0.2824717164039612 0.02070372737944126 1.0987625122070312
-0.22803370654582977 -0.002788584679365158 1.1357076168060303
-0.2472221851348877 0.015112191438674927 1.1113003492355347
-0.18378227949142456 0.0023891106247901917 1.193039059638977
0.38246631622314453 -0.0724855288863182 0.9796034693717957
0.47677677869796753 -0.11523886024951935 1.4322845935821533
0.45300307869911194 -0.09081259369850159 0.9326130151748657
0.3979853093624115 -0.06533289700746536 0.9233667850494385
0.4207889139652252 -0.09990603476762772 0.9118176102638245
0.4253491163253784 -0.08639928698539734 0.9068856835365295
0.4408091902732849 -0.0940338671207428 1.100457787513733
0.43600279092788696 -0.1331864595413208 0.9240440726280212
0.44339874386787415 -0.1364363580942154 0.8700034618377686
0.43473827838897705 -0.1618541181087494 0.8884820938110352
0.43503448367118835 -0.15512096881866455 0.8617494702339172
0.4408867359161377 -0.13603341579437256 0.813827633857727
0.4439876079559326 -0.12144427001476288 0.6270862817764282
0.44784921407699585 -0.11884504556655884 0.5802266001701355
0.4740116596221924 -0.10899104923009872 0.5671238303184509
0.48060697317123413 -0.10936855524778366 0.9072549939155579
0.48494887351989746 -0.10381626337766647 0.8742464780807495
0.4704400897026062 -0.15158706903457642 0.8398338556289673
0.45473554730415344 -0.15468792617321014 0.8034420609474182
0.44294318556785583 -0.17652654647827148 0.7684564590454102
0.5012593865394592 -0.1314883530139923 1.196371078491211
0.5290721654891968 -0.11403129249811172 0.8360246419906616
0.5471050143241882 -0.12022861838340759 0.7901206016540527
0.5431336164474487 -0.12622594833374023 0.9543218612670898
0.5493525862693787 -0.1528664082288742 0.6172863245010376
0.5438527464866638 -0.1157815083861351 0.5924463272094727
0.5499314665794373 -0.13758297264575958 0.8139288425445557
0.5491132140159607 -0.14271214604377747 0.7639671564102173
0.6514807343482971 -0.11174052953720093 0.934074878692627
0.603230893611908 -0.14410416781902313 0.8930038213729858
0.6168397665023804 -0.12370751798152924 0.8914988040924072
0.6111732721328735 -0.13362209498882294 0.763476550579071
0.6135072708129883 -0.12417726218700409 0.7791407108306885
-0.538421630859375 0.08012358844280243 1.1268047094345093
-0.4416743516921997 -0.026597272604703903 0.6119017004966736
-0.4642088711261749 -0.028819117695093155 0.910622239112854
-0.4514155387878418 -0.04834447428584099 0.8800979852676392
-0.47312813997268677 -0.0034128352999687195 0.958878755569458
-0.4743543565273285 0.03628527373075485 1.3938956260681152
-0.448708176612854 0.027016833424568176 0.9955083131790161
-0.4443759620189667 0.012425828725099564 0.963890552520752
-0.38162219524383545 -0.04777010530233383 0.6323270201683044
-0.3711036443710327 -0.021013526245951653 0.6317826509475708
-0.4169594347476959 -0.0453210175037384 0.9182647466659546
-0.41468140482902527 -0.05887185037136078 0.8656643033027649
-0.4161841869354248 -0.06285563111305237 0.9032884836196899
-0.4649883806705475 0.01912776380777359 1.3465611934661865
-0.44354918599128723 0.0404951348900795 1.2475155591964722
-0.2364179790019989 0.022580161690711975 1.209026575088501
0.12517115473747253 -0.052778974175453186 1.2195088863372803
0.11372490972280502 -0.06552285701036453 1.2252531051635742
0.1978399008512497 -0.07571236044168472 1.1400738954544067
0.1850910782814026 -0.0496491864323616 1.0805197954177856
0.28145071864128113 -0.06101565435528755 1.16902494430542
0.3174401819705963 -0.06474395096302032 1.0454448461532593
0.30641019344329834 -0.07529009133577347 1.0305067300796509
0.4053918719291687 -0.11090229451656342 1.1487544775009155
0.4475468397140503 -0.12714430689811707 1.2171480655670166
0.43055009841918945 -0.11869575083255768 1.0427281856536865
0.4346688985824585 -0.17078851163387299 0.7753186821937561
0.46055853366851807 -0.1553802192211151 0.7302977442741394
0.447022408246994 -0.17257872223854065 0.6848392486572266
0.4569515585899353 -0.15017487108707428 0.640440046787262
0.49686864018440247 -0.1294948160648346 0.962701678276062
0.47979965806007385 -0.17718379199504852 0.5660529136657715
-0.520868182182312 0.024525701999664307 0.9675720930099487
-0.37693482637405396 -0.03379300236701965 0.7789700031280518
-0.3668729066848755 -0.040536776185035706 0.7284328937530518
-0.46196243166923523 0.02790038287639618 1.4925259351730347
-0.30998021364212036 0.0129493847489357 1.0845227241516113
-0.3026006519794464 0.014020029455423355 1.0556455850601196
-0.28071093559265137 0.0072931088507175446 1.0783462524414062
-0.23025140166282654 0.016230208799242973 1.1164404153823853
-0.14243662357330322 -0.008908698335289955 1.2595720291137695
-0.14605310559272766 -0.028240274637937546 1.257861614227295
0.3752211034297943 -0.11324213445186615 1.2831124067306519
0.41671955585479736 -0.12186402082443237 1.3208448886871338
0.4811458885669708 -0.10339780896902084 0.9363974928855896
0.4638504087924957 -0.09100059419870377 0.8697612285614014
0.46057015657424927 -0.12986966967582703 1.034963846206665
0.4387568235397339 -0.1334412842988968 0.7620741724967957
0.5214354991912842 -0.12624460458755493 0.9989731311798096
0.5254384279251099 -0.12230363488197327 1.0846716165542603
0.5818691253662109 -0.1278398185968399 0.9235230088233948
0.5724091529846191 -0.13257275521755219 0.8633012175559998
0.5568132400512695 -0.15138189494609833 0.7023020386695862
0.49740150570869446 -0.1584831327199936 0.6252315640449524
0.5652645826339722 -0.12907542288303375 0.6953859925270081
-0.4313623607158661 -0.0504491850733757 0.6269515752792358
-0.3956955075263977 -0.02723798342049122 0.6253191232681274
-0.42798787355422974 -0.05602515861392021 0.8235152959823608
-0.41292157769203186 -0.06082603335380554 0.6806845664978027
-0.379280149936676 -0.05591834709048271 0.6707820296287537
-0.3912050724029541 -0.017038393765687943 0.9723348021507263
-0.24943429231643677 -0.004978325217962265 1.214967966079712
-0.2490762174129486 0.0016053617000579834 1.1628894805908203
-0.256321519613266 0.011772267520427704 1.1379773616790771
-0.21553614735603333 -0.012347865849733353 1.2050893306732178
-0.20310504734516144 -0.015659073367714882 1.1386921405792236
-0.20421844720840454 0.002306262031197548 1.1297943592071533
0.18836110830307007 -0.03392307460308075 1.0879123210906982
0.4252430200576782 -0.11791431158781052 0.9744886755943298
0.46301212906837463 -0.14258752763271332 0.9616806507110596
0.46659398078918457 -0.1494319885969162 0.9177618622779846
0.5353824496269226 -0.15704932808876038 0.7510823607444763
-0.47261226177215576 -0.01893669366836548 0.7101952433586121
-0.4692836403846741 -0.03825034573674202 0.6741166710853577
-0.4660326838493347 -0.027563050389289856 0.6695117354393005
-0.446921169757843 0.01611495390534401 0.8831796646118164
-0.4074068069458008 -0.043000854551792145 0.8399569392204285
-0.4086458086967468 -0.051828548312187195 0.8851096630096436
-0.17819508910179138 -0.01573077216744423 1.2209086418151855
-0.1212986558675766 -0.025676103308796883 1.3336949348449707
-0.11224818229675293 -0.018823765218257904 1.3239699602127075
0.11945882439613342 -0.07629717886447906 1.233480453491211
0.27851760387420654 -0.10353605449199677 1.5458989143371582
0.42050302028656006 -0.09371183067560196 1.4668610095977783
0.4490959048271179 -0.1142348200082779 1.474103331565857
0.4814150929450989 -0.11130444705486298 1.399769902229309
0.5756677389144897 -0.10613304376602173 1.153458595275879
0.6075873970985413 -0.1030537486076355 1.183479905128479
0.5901316404342651 -0.08144944161176682 1.1333694458007812
0.5950976014137268 -0.1033293828368187 1.1125354766845703
0.623736560344696 -0.08994955569505692 1.1299757957458496
-0.5486636757850647 0.06989969313144684 1.0606073141098022
-0.534946084022522 0.08227109909057617 1.0491037368774414
-0.5372981429100037 0.08408726751804352 1.294879674911499
-0.5222174525260925 0.08612019568681717 1.275719165802002
-0.4276775121688843 0.0028471723198890686 0.6572818756103516
-0.4211214780807495 -0.006874771788716316 0.6174282431602478
-0.4332500100135803 -0.0651305615901947 0.7194957733154297
-0.44176191091537476 0.005892906337976456 0.8376228213310242
-0.44796323776245117 0.032540906220674515 1.041799545288086
-0.44876712560653687 0.029798325151205063 1.5355886220932007
0.20198452472686768 -0.05196354538202286 1.1476727724075317
0.28653672337532043 -0.07013611495494843 1.3460745811462402
0.33970582485198975 -0.07026922702789307 1.0537781715393066
0.35199666023254395 -0.06992413103580475 1.1781446933746338
0.3721998929977417 -0.07911048084497452 0.9797288775444031
0.384950190782547 -0.08495450019836426 0.9289308786392212
0.3922571837902069 -0.11227332055568695 1.000486135482788
0.44475752115249634 -0.1063656285405159 0.7256103754043579
0.45104607939720154 -0.115117147564888 0.7143908143043518
0.4755658507347107 -0.16326318681240082 0.7627544403076172
0.5624555945396423 -0.11472228914499283 0.9268205165863037
0.5507516264915466 -0.10104462504386902 0.7213561534881592
-0.44876420497894287 -0.039227455854415894 0.6391630172729492
-0.41704463958740234 -0.03280625492334366 0.6020204424858093
-0.2898638844490051 0.028428081423044205 1.0593125820159912
-0.23513102531433105 0.024221554398536682 1.1368775367736816
-0.19363874197006226 -0.007970590144395828 1.1801073551177979
0.5312491059303284 -0.10212495923042297 0.7568956613540649
0.522090494632721 -0.11613114178180695 0.5374245047569275
0.5313000082969666 -0.12155061215162277 0.5494951009750366
-0.44528037309646606 -0.051592595875263214 0.8597329258918762
-0.3953748941421509 -0.03504382073879242 0.7907856702804565
-0.3903460204601288 -0.053387146443128586 0.7472602128982544
0.49551454186439514 -0.11022078990936279 1.3237568140029907
0.534109354019165 -0.09710044413805008 0.5458843111991882
0.5957757830619812 -0.1375359147787094 0.8264387845993042
-0.2361232191324234 0.022002674639225006 1.2841544151306152
0.5935871601104736 -0.12330012023448944 0.9145611524581909
-0.3833128809928894 -0.019597556442022324 0.8632321357727051
0.45439037680625916 -0.16560830175876617 0.5846725106239319
0.5798735618591309 -0.11767652630805969 0.9048498868942261
-0.4437788724899292 -0.07317104935646057 0.8258949518203735
-0.33870089054107666 -0.05279185250401497 0.9139750599861145
-0.3458184003829956 -0.050648726522922516 0.9248595833778381
-0.3327322006225586 -0.07963063567876816 0.918776273727417
-0.34513503313064575 -0.07675927132368088 0.926880955696106
-0.3129991888999939 -0.05060169845819473 0.9882751107215881
-0.321122407913208 -0.05763093754649162 0.9643438458442688
-0.3048345148563385 -0.03967737406492233 0.9394002556800842
-0.29787519574165344 -0.02259986288845539 0.9786316752433777
-0.31616780161857605 -0.08011598140001297 0.9640594720840454
-0.32454901933670044 -0.10386446118354797 0.9464014768600464
-0.29143649339675903 -0.04125852882862091 1.0530904531478882
-0.30514422059059143 -0.10719631612300873 0.9507670998573303
-0.3103863596916199 -0.06884795427322388 0.9596582651138306
-0.3080478012561798 -0.10282287746667862 0.9888927936553955
-0.2997620105743408 -0.07457403838634491 0.9907869100570679
-0.27446669340133667 -0.02244582027196884 1.0326111316680908
-0.29219359159469604 -0.06490692496299744 0.9915134906768799
-0.2945656478404999 -0.08219840377569199 1.0134162902832031
-0.2946402430534363 -0.06596767157316208 1.0462030172348022
-0.30169492959976196 -0.03600335493683815 1.0877554416656494
-0.3099331259727478 -0.08788886666297913 1.0682488679885864
-0.25401604175567627 0.0037637031637132168 1.1282048225402832
-0.2593625783920288 0.004620753228664398 1.0863680839538574
-0.29427847266197205 -0.049521319568157196 1.119024395942688
-0.2272873967885971 0.006630427669733763 1.0804029703140259
-0.25044718384742737 -0.05547422170639038 1.1755335330963135
-0.28224876523017883 -0.10422910749912262 1.1188288927078247
-0.22427314519882202 0.01359646301716566 1.1250288486480713
-0.196249321103096 -0.0035459683276712894 1.1382229328155518
-0.20202863216400146 -0.014501440338790417 1.192705750465393
-0.17723049223423004 -0.01568390429019928 1.1971015930175781
-0.1924028992652893 -0.09579388797283173 1.2493494749069214
-0.24150815606117249 -0.10489831864833832 1.1723144054412842
-0.17296966910362244 -0.028539692983031273 1.2396517992019653
-0.20743122696876526 -0.05457558482885361 1.23272705078125
-0.16865244507789612 -0.0427892729640007 1.2757587432861328
-0.1580156683921814 -0.055465664714574814 1.3119553327560425
-0.1587318778038025 -0.10401827096939087 1.3072168827056885
-0.19334444403648376 -0.1279435008764267 1.2007365226745605
-0.1363019198179245 -0.057007234543561935 1.6941052675247192
-0.09665877372026443 0.02776440978050232 1.409104585647583
-0.13006117939949036 0.06430044770240784 0.8473951816558838
-0.17488127946853638 0.013373256660997868 0.8442872762680054
-0.14767353236675262 -0.08151903748512268 0.8515037298202515
-0.19009265303611755 -0.1092168539762497 0.8391658067703247
-0.12323760986328125 -0.03321576863527298 1.6106913089752197
-0.14232678711414337 -0.06980334222316742 1.713884711265564
-0.1127157211303711 -0.05865316838026047 1.6680241823196411
-0.09617186337709427 -0.02361329272389412 1.6289787292480469
-0.10835321992635727 -0.03824106976389885 1.5761268138885498
-0.11778777092695236 -0.01087510772049427 1.034132719039917
-0.15950611233711243 -0.05287414416670799 0.9888061285018921
-0.16732385754585266 -0.11875772476196289 0.9707943797111511
-0.11266205459833145 -0.05084717273712158 1.512042760848999
-0.19977012276649475 -0.08485987037420273 0.012927727773785591
-0.2081112414598465 -0.16027414798736572 0.001832297770306468
-0.21322117745876312 -0.17742852866649628 0.028688136488199234
-0.12704375386238098 -0.10135990381240845 1.360232949256897
-0.11670555174350739 -0.05275237560272217 1.3219473361968994
-0.11363740265369415 -0.07382947206497192 1.2976272106170654
-0.1373613178730011 -0.11234042048454285 1.3450778722763062
-0.12358666956424713 -0.1444067358970642 1.2939770221710205
-0.1608780175447464 -0.057342857122421265 0.4414688050746918
-0.15700867772102356 -0.08389198780059814 0.3550434112548828
-0.1679028570652008 -0.031177716329693794 0.2963951528072357
-0.17456194758415222 -0.05971292406320572 0.32194674015045166
-0.10813886672258377 -0.047193463891744614 1.6391135454177856
-0.1181236058473587 -0.10809636116027832 1.2593928575515747
-0.1263008862733841 -0.10748551785945892 1.2211823463439941
-0.12694746255874634 -0.13751988112926483 1.242458462715149
-0.1514156460762024 -0.1518479585647583 1.2354607582092285
-0.15804633498191833 -0.021217195317149162 0.22319146990776062
-0.1138918325304985 -0.11225222051143646 1.4973222017288208
-0.09908224642276764 -0.04487078636884689 1.5126168727874756
-0.10799621045589447 -0.07508771866559982 1.5014426708221436
-0.1375662386417389 -0.09459514915943146 0.5411563515663147
-0.059300828725099564 -0.07119966298341751 1.7224475145339966
-0.118861623108387 -0.1445152312517166 1.182665467262268
-0.11223657429218292 -0.06498359143733978 1.1523151397705078
-0.10440166294574738 -0.142513707280159 0.7229607701301575
-0.06019289046525955 -0.020169900730252266 1.686373233795166
-0.10552934557199478 -0.1311749517917633 1.3646042346954346
-0.09277048707008362 -0.12485113739967346 0.8361562490463257
-0.13391615450382233 -0.13402041792869568 0.854998767375946
-0.12362103909254074 -0.1971215307712555 0.9024723768234253
-0.10233449935913086 -0.214527428150177 0.8435623645782471
-0.18582096695899963 -0.20630893111228943 0.059200771152973175
-0.026250561699271202 -0.004224080592393875 1.6871998310089111
-0.05341855436563492 -0.060257479548454285 1.7085165977478027
-0.11748067289590836 -0.08599556982517242 1.416932463645935
-0.0985911563038826 -0.11188532412052155 1.4561642408370972
-0.13431978225708008 -0.01083233393728733 0.29271024465560913
-0.15261860191822052 -0.02713535726070404 0.17989888787269592
-0.17996476590633392 -0.1915486454963684 0.09578041732311249
-0.1509944349527359 -0.0005438728258013725 0.012826614081859589
-0.08905720710754395 -0.07084959745407104 1.3047202825546265
-0.11661917716264725 -0.12050925195217133 0.515895664691925
-0.13890913128852844 -0.18343603610992432 -0.00910672266036272
-0.17914658784866333 -0.18897609412670135 -0.013669781386852264
-0.06448668241500854 -0.05422487109899521 1.524906873703003
-0.07357744127511978 -0.07945047318935394 1.4803211688995361
-0.03225351870059967 -0.21540632843971252 0.9033227562904358
-0.08048948645591736 0.08759423345327377 0.8549506068229675
-0.1548718363046646 -0.13700594007968903 0.23043358325958252
-0.12864108383655548 -0.12328863143920898 0.1519405096769333
-0.1306038647890091 -0.004968687891960144 0.06488634645938873
-0.07854241132736206 -0.06348250061273575 1.2752485275268555
-0.09010056406259537 -0.07557055354118347 1.2342643737792969
-0.06284648180007935 -0.18379327654838562 1.2700562477111816
-0.10137089341878891 -0.04697394743561745 0.6387702822685242
-0.08564126491546631 -0.14477846026420593 0.7185088396072388
-0.056467339396476746 -0.1273522824048996 0.8022996783256531
-0.11667943000793457 -0.12472189962863922 0.1179262101650238
-0.12984402477741241 -0.19061367213726044 0.061534881591796875
-0.0937386155128479 -0.15903571248054504 1.444724202156067
-0.0711653083562851 -0.06712134927511215 1.338393211364746
-0.04792916774749756 -0.06103281304240227 1.2832491397857666
-0.08652366697788239 -0.12147238850593567 0.5397343635559082
-0.06749256700277328 -0.1022973507642746 0.5405685901641846
-0.1018524020910263 -0.005780170671641827 0.4819176197052002
-0.072361059486866 -0.14508582651615143 1.416854739189148
-0.046480320394039154 -0.1076018214225769 1.403563380241394
-0.07514090090990067 -0.059051573276519775 1.3806896209716797
-0.0762508362531662 -0.04296243563294411 0.48952144384384155
-0.01159953698515892 -0.0491928793489933 1.7161411046981812
-0.08498117327690125 -0.20823225378990173 1.5634560585021973
-0.03966445475816727 -0.18987977504730225 0.9709346294403076
-0.049706194549798965 -0.11780642718076706 1.4168620109558105
-0.03342727571725845 -0.1454445719718933 1.3984262943267822
-0.05289886146783829 -0.12922154366970062 1.3910696506500244
-0.037375740706920624 -0.20166325569152832 1.500404953956604
-0.07427442073822021 -0.18826793134212494 1.4531831741333008
-0.023491429165005684 -0.09135779738426208 1.4320204257965088
-0.058216217905282974 -0.06297976523637772 0.6155250072479248
0.027222584933042526 -0.09282474219799042 1.725319504737854
0.016103778034448624 0.010236002504825592 1.6633572578430176
-0.031099863350391388 -0.2139730155467987 1.4494520425796509
-0.045271191745996475 -0.1877603828907013 1.4092071056365967
-0.011403178796172142 -0.09740044176578522 1.4055020809173584
-0.021429456770420074 -0.19456394016742706 1.4107189178466797
0.017338214442133904 -0.0784795880317688 1.3874059915542603
-0.011614235118031502 -0.07248353213071823 1.2732455730438232
0.031597331166267395 -0.04058048129081726 1.7129642963409424
0.009684734977781773 -0.10142570734024048 1.4322372674942017
-6.500072777271271e-05 -0.14425724744796753 1.4134472608566284
0.06054513156414032 -0.02544785663485527 1.6803700923919678
0.03796454519033432 -0.08185470104217529 1.7102456092834473
-0.0013414490967988968 -0.1379791796207428 1.402698278427124
0.03811384737491608 -0.16479957103729248 1.4335981607437134
0.009766969829797745 -0.11898727715015411 1.4099030494689941
0.043654512614011765 -0.09260126948356628 0.5644853711128235
0.04348265752196312 -0.07911613583564758 1.4675986766815186
0.07562265545129776 -0.1184421256184578 0.4797293543815613
-0.004409377463161945 -0.21907202899456024 1.2271276712417603
0.05306825041770935 -0.1038292944431305 1.2424962520599365
0.04656200855970383 -0.09937234222888947 1.13796865940094
0.09862177819013596 -0.23113514482975006 0.055905915796756744
0.1219940185546875 -0.23663917183876038 0.028514187783002853
0.0913778766989708 -0.05633670836687088 0.01725560426712036
0.008637083694338799 -0.20167049765586853 1.2185183763504028
-0.0003555845469236374 -0.21759730577468872 1.139775037765503
0.04446515813469887 -0.14146724343299866 0.7036889791488647
0.08538606017827988 -0.1347334384918213 -0.0112953782081604
0.08120962977409363 -0.08542270958423615 1.6703481674194336
0.0291006937623024 -0.21674630045890808 1.5656126737594604
0.024469450116157532 -0.19454622268676758 1.4903943538665771
0.021131295710802078 -0.19304129481315613 1.4475196599960327
0.08643652498722076 -0.160368874669075 0.8530632257461548
0.1300230324268341 -0.09757298976182938 1.6951501369476318
0.05157667398452759 -0.08288536965847015 1.511749267578125
0.04716740548610687 -0.10142073035240173 1.4826918840408325
0.09609410166740417 -0.0479394905269146 0.28772085905075073
0.08961880952119827 -0.0415533185005188 0.22479991614818573
0.10731500387191772 -0.05459599196910858 -0.007559124380350113
0.07841383665800095 -0.1069539412856102 1.7470855712890625
0.0728350281715393 -0.10559366643428802 1.377790093421936
0.08968079090118408 -0.21899822354316711 0.8441563844680786
0.07184581458568573 -0.13174250721931458 0.8362404108047485
0.11765573173761368 -0.19479092955589294 0.8365308046340942
0.07429523766040802 -0.04009900614619255 0.725496232509613
0.1436980962753296 -0.2367817759513855 0.044672105461359024
0.09440647065639496 -0.0951714813709259 1.6802455186843872
0.03184639289975166 -0.18570464849472046 1.1155800819396973
0.03271949291229248 -0.20496664941310883 1.2342205047607422
0.03140144422650337 -0.22331517934799194 1.230259656906128
0.12784962356090546 -0.19215331971645355 0.9051044583320618
0.07016123086214066 -0.15310022234916687 1.5138170719146729
0.08028678596019745 -0.08076365292072296 1.524925708770752
0.07615593820810318 -0.10442453622817993 1.506152629852295
0.08000780642032623 -0.1184452474117279 1.5010372400283813
0.08293686807155609 -0.13152994215488434 1.476881742477417
0.10703489184379578 -0.06743503361940384 0.6207119226455688
0.10381785035133362 -0.1338094025850296 0.6389939188957214
0.07589688152074814 -0.1609797477722168 1.355368733406067
0.08482372760772705 -0.11892245709896088 1.3028013706207275
0.054684240370988846 -0.11448264122009277 1.325767993927002
0.05776761472225189 -0.12607073783874512 1.2985306978225708
0.1038282960653305 -0.11966860294342041 0.8014876246452332
0.15186400711536407 -0.091801218688488 -0.004962757229804993
0.16358457505702972 -0.125450998544693 -0.004975650459527969
0.09662733972072601 -0.09950963407754898 1.6363900899887085
0.09394490718841553 -0.11598441004753113 1.3509013652801514
0.15727916359901428 -0.09894697368144989 0.27244529128074646
0.12183572351932526 -0.081387959420681 1.6160378456115723
0.10046134144067764 -0.05686323344707489 1.6249929666519165
0.10782885551452637 -0.08072035014629364 1.586153268814087
0.16557592153549194 -0.11543222516775131 0.08154995739459991
0.1707274317741394 -0.20161576569080353 0.02934373915195465
0.15036334097385406 -0.22051416337490082 0.0731816291809082
0.16243357956409454 -0.020297851413488388 0.9410606622695923
0.13916324079036713 -0.018015176057815552 0.8365902900695801
0.12674500048160553 -0.11152137070894241 1.6882003545761108
0.16127631068229675 0.03469078242778778 0.8432866930961609
0.182760089635849 -0.003329012542963028 0.9017530679702759
0.10575473308563232 -0.13554540276527405 1.2923693656921387
0.10854345560073853 -0.16429466009140015 1.274542212486267
0.08234898746013641 -0.16741615533828735 1.3270459175109863
0.10655853897333145 -0.1518632173538208 1.235835075378418
0.09403316676616669 -0.15168318152427673 1.2168747186660767
0.09273591637611389 -0.23299762606620789 1.2018247842788696
0.11382800340652466 -0.19131819903850555 1.2324450016021729
0.11999207735061646 -0.17034631967544556 1.163726568222046
0.11627735942602158 -0.17505723237991333 1.0847208499908447
0.1426052749156952 -0.18428921699523926 1.0933363437652588
0.144209623336792 -0.19828948378562927 1.1464436054229736
0.12333299964666367 -0.23193641006946564 1.170280933380127
0.1390799880027771 -0.20774883031845093 1.0420998334884644
0.17158082127571106 -0.2591801881790161 1.0907552242279053
0.17240802943706512 -0.23999948799610138 1.0707885026931763
0.1576857715845108 -0.2179703712463379 1.0467349290847778
0.13241374492645264 -0.2984256446361542 1.0823527574539185
0.14649154245853424 -0.2676667273044586 1.0501837730407715
0.14305804669857025 -0.24948209524154663 1.035125732421875
0.17834874987602234 -0.31449946761131287 0.9416295289993286
0.1291298121213913 -0.28396403789520264 1.0505532026290894
0.131483793258667 -0.3016737401485443 1.0239851474761963
0.16263382136821747 -0.2732583284378052 0.9687002301216125
0.1308242529630661 -0.2874385118484497 1.0000673532485962
0.12895220518112183 -0.31333741545677185 1.001442313194275
0.14798220992088318 -0.3057701587677002 0.9742696285247803
0.16267365217208862 -0.3063473701477051 0.9704794883728027
0.12859702110290527 -0.32920995354652405 0.9791058897972107
0.14540733397006989 -0.3214973211288452 0.9708371758460999
0.13687199354171753 -0.32375794649124146 0.978469729423523
0.1734910011291504 -0.31818729639053345 0.9230997562408447
0.14223656058311462 -0.33713299036026 0.9658024311065674
0.15754736959934235 -0.30560821294784546 0.938736081123352
0.16354155540466309 -0.33537447452545166 0.935397207736969
0.17560073733329773 -0.3286237120628357 0.9385466575622559
-0.27331218123435974 -0.021179284900426865 1.0558233261108398
-0.280655175447464 -0.07636363804340363 1.0312491655349731
-0.2596758306026459 -0.05968008190393448 1.0339864492416382
-0.2930656969547272 -0.10440360754728317 1.0580861568450928
-0.21788759529590607 -0.02652789279818535 1.060093879699707
-0.2672120928764343 -0.10743875056505203 1.046088695526123
-0.1626577228307724 -0.04840574413537979 1.216202974319458
-0.1768331080675125 -0.09964853525161743 1.1780977249145508
-0.1807401329278946 -0.09530885517597198 0.942375898361206
-0.18466457724571228 -0.014181404374539852 0.9160046577453613
-0.1334148347377777 0.0514213964343071 0.9128784537315369
-0.06953079998493195 0.0795508548617363 1.2970178127288818
-0.06909391283988953 0.08483084291219711 1.2431883811950684
-0.06495934724807739 0.11116521805524826 1.225301742553711
-0.16060766577720642 -0.009721041657030582 0.9453778266906738
-0.14795587956905365 -0.07117139548063278 1.683168649673462
-0.12460149079561234 -0.06729155778884888 1.338014006614685
-0.1419801115989685 -0.05110149830579758 1.2726514339447021
-0.009210927411913872 0.11978159844875336 1.137634038925171
-0.03367151692509651 0.13009974360466003 1.0676807165145874
-0.20511583983898163 -0.0817616879940033 0.076368547976017
-0.21722842752933502 -0.15238051116466522 0.04647501930594444
-0.1262822300195694 -0.08243725448846817 1.6665570735931396
-0.11464161425828934 -0.06534159928560257 1.6164896488189697
-0.14084894955158234 -0.16823792457580566 1.2090942859649658
-0.14094296097755432 -0.1777941882610321 1.1818326711654663
-0.1476743370294571 -0.1973056197166443 1.172123908996582
-0.0719519704580307 0.032259874045848846 1.389635682106018
-0.06188736483454704 0.027348704636096954 1.3864035606384277
-0.12308740615844727 -0.1744551956653595 1.2256578207015991
-0.1345508098602295 -0.09504010528326035 1.1934857368469238
-0.18000125885009766 -0.11130435764789581 0.1412641406059265
-0.18758077919483185 -0.06601105630397797 0.15690189599990845
-0.024678438901901245 0.06462928652763367 1.288286805152893
-0.1238320991396904 -0.10003645718097687 1.4261971712112427
-0.12384869903326035 -0.09276531636714935 1.4063420295715332
-0.11256270110607147 -0.09229278564453125 1.3870899677276611
-0.1269141137599945 -0.08767016232013702 1.3861520290374756
-0.12972187995910645 -0.10164682567119598 1.3710025548934937
-0.12763160467147827 -0.12339040637016296 0.767376184463501
-0.1413804441690445 -0.0854310616850853 0.75726318359375
0.003405710682272911 0.16784927248954773 1.1562755107879639
0.0026497086510062218 0.1593203991651535 1.2002766132354736
-0.11430054903030396 -0.16768783330917358 1.2237292528152466
-0.11874595284461975 -0.11547721922397614 0.844760537147522
-0.1788807064294815 -0.014481138437986374 0.06807748973369598
-0.18294581770896912 -0.020390305668115616 0.023649148643016815
-0.1337374746799469 -0.18745946884155273 0.8392601013183594
-0.024442989379167557 0.12153367698192596 1.283322811126709
-0.11917371302843094 -0.17920257151126862 1.5656672716140747
-0.0905250683426857 -0.06825673580169678 1.5055335760116577
-0.054251134395599365 0.014530692249536514 1.500535488128662
-0.05415122210979462 -0.023717563599348068 1.541346788406372
-0.07605843991041183 -0.023050211369991302 1.5178802013397217
-0.06598986685276031 0.006131850183010101 1.4514646530151367
-0.010315142571926117 0.03265833109617233 1.5451223850250244
-0.08630826324224472 -0.09776175022125244 1.4555552005767822
-0.09151144325733185 0.04485268145799637 0.9677587151527405
-0.08662386238574982 -0.08314216136932373 1.757604956626892
-0.09408167749643326 -0.08860146999359131 1.7501792907714844
-0.10277604311704636 -0.09659206867218018 1.7367850542068481
0.012274062260985374 -0.006112389266490936 1.446822166442871
-0.03759129345417023 0.04199498891830444 1.4322460889816284
-0.11651568114757538 -0.10228928923606873 0.0027619898319244385
0.009210066869854927 0.08492198586463928 1.3888983726501465
-0.09092828631401062 -0.17297601699829102 1.482409119606018
-0.10886970162391663 -0.08388477563858032 0.36137130856513977
-0.025224808603525162 -0.017386287450790405 1.4923814535140991
-0.050330162048339844 -0.059829458594322205 1.4630138874053955
0.0064115156419575214 0.04898005351424217 1.4761931896209717
-0.033151160925626755 0.049863286316394806 0.8528423309326172
-0.1154651865363121 -0.0211805310100317 0.313327431678772
0.043814875185489655 0.14734163880348206 1.0732073783874512
-0.02942509762942791 0.02645948715507984 1.0398720502853394
-0.09786486625671387 -0.19344261288642883 1.2171669006347656
-0.10266625136137009 -0.1769438087940216 1.127359390258789
-0.10127604752779007 -0.04992371052503586 0.2909223735332489
-0.08377736061811447 -0.06335864216089249 0.2295701652765274
-0.11540544033050537 -0.01650252938270569 0.22543126344680786
-0.029436051845550537 -0.0375669002532959 1.5014885663986206
-0.04949468746781349 -0.12223918735980988 0.6708035469055176
-0.07577203959226608 -0.049539245665073395 0.6340945959091187
0.05279648303985596 0.16639822721481323 1.1929173469543457
0.05344584584236145 0.17232730984687805 1.1195859909057617
-0.0574648343026638 -0.21348115801811218 1.1435015201568604
-0.10256004333496094 -0.069853276014328 0.08880281448364258
0.04184361547231674 0.1277836263179779 1.1014705896377563
0.03260032460093498 0.10080333054065704 1.1313120126724243
0.03353339806199074 -0.036978431046009064 1.4979256391525269
-0.07013045251369476 -0.157863587141037 1.3558697700500488
0.05929514393210411 0.09074796736240387 1.3749749660491943
0.05495423451066017 -0.009899902157485485 1.4358820915222168
0.02430126443505287 -0.04579666629433632 1.491609811782837
0.0878913477063179 0.12094638496637344 1.1095356941223145
0.10224395990371704 0.11621187627315521 1.0666122436523438
-0.01543118990957737 -0.17589786648750305 1.3494529724121094
0.019014954566955566 0.023990288376808167 1.0372314453125
-0.03459371626377106 -0.21771882474422455 1.0812898874282837
0.11726081371307373 0.06634324043989182 1.39061439037323
0.024012576788663864 -0.07496215403079987 1.2861826419830322
0.09004348516464233 0.025537945330142975 1.476550579071045
0.05570652335882187 -0.014920912683010101 1.4715572595596313
0.030263859778642654 -0.07449491322040558 1.2029656171798706
0.04772452637553215 0.09181355684995651 0.9175820350646973
0.030639324337244034 -0.12185808271169662 1.6881426572799683
0.07407891005277634 -0.18287403881549835 0.048323024064302444
0.07609071582555771 -0.20906466245651245 0.01815718412399292
0.06995253264904022 -0.10366645455360413 0.044225458055734634
-0.01134178414940834 -0.21885783970355988 1.5614348649978638
0.04297966510057449 -0.06309957057237625 0.6894747018814087
0.10763272643089294 -0.023299885913729668 1.4417551755905151
0.0474693737924099 -0.1320638656616211 1.4466352462768555
0.08020935952663422 -0.12835806608200073 1.3907550573349
0.04147631675004959 -0.09866055846214294 1.3817585706710815
0.07631238549947739 -0.05580510199069977 0.3568374514579773
0.08539940416812897 -0.15520510077476501 0.20781508088111877
0.09791986644268036 -0.06430647522211075 0.15783558785915375
0.14526872336864471 0.11173263192176819 1.1124777793884277
0.142071932554245 0.13755109906196594 1.089323878288269
0.07935410737991333 -0.14684996008872986 0.7144219875335693
0.08247008174657822 -0.05284975469112396 0.6308749914169312
0.026798181235790253 -0.16550803184509277 1.667061686515808
0.06521505117416382 -0.17216339707374573 1.6251498460769653
0.09175445884466171 -0.13499903678894043 0.5251253843307495
0.052974168211221695 -0.1157541498541832 1.70038640499115
0.07521137595176697 -0.1252918541431427 1.6514356136322021
0.05771632492542267 -0.12499268352985382 1.1273282766342163
0.06504985690116882 -0.10929831862449646 1.1055983304977417
0.05433215945959091 -0.17764416337013245 1.0786525011062622
0.043884579092264175 -0.2015976905822754 1.55880868434906
0.06292261183261871 -0.13118398189544678 1.4764798879623413
0.053206123411655426 -0.17162209749221802 1.4675276279449463
0.1809496134519577 0.10000119358301163 1.076899528503418
0.05132133141160011 -0.18361741304397583 1.266723871231079
0.04831888526678085 -0.23787428438663483 1.2224397659301758
0.06318642199039459 -0.1606493890285492 1.2113317251205444
0.13876135647296906 -0.06869275867938995 0.10140661150217056
0.13378940522670746 -0.16356220841407776 0.1362297236919403
0.1484927535057068 -0.15660306811332703 0.1186315193772316
0.08989962935447693 -0.11025415360927582 1.677517294883728
0.05678986757993698 -0.20207272469997406 1.2690184116363525
0.1525000035762787 -0.058166902512311935 0.39586594700813293
0.1308542788028717 -0.10612933337688446 0.45508864521980286
0.1571054756641388 -0.07967584580183029 0.3388270139694214
0.08964722603559494 -0.1473737359046936 1.3787175416946411
0.07570615410804749 -0.1446758210659027 1.3786119222640991
0.09219299256801605 -0.12726572155952454 1.3411091566085815
0.12293955683708191 0.06040029600262642 0.9059376120567322
0.1134558916091919 -0.1173647940158844 0.8333089351654053
0.16504134237766266 -0.0768306776881218 0.20740781724452972
0.17601880431175232 -0.10702870786190033 0.21866771578788757
0.0986146628856659 -0.12423426657915115 1.3355903625488281
0.1730668693780899 0.019717292860150337 1.304797649383545
0.18272557854652405 0.04880063980817795 1.2900069952011108
0.03898807615041733 -0.2921347916126251 1.113336205482483
0.1589594930410385 -0.07257308065891266 0.9740467071533203
0.16045744717121124 -0.12882936000823975 0.9603822231292725
0.0902673602104187 -0.15307831764221191 1.1613560914993286
0.0842025876045227 -0.26082706451416016 1.0549038648605347
0.09595053642988205 -0.22428110241889954 1.0311601161956787
0.10414300113916397 -0.28772708773612976 1.119322419166565
-0.25954902172088623 -0.02968118153512478 1.0302337408065796
-0.28465136885643005 -0.08180245012044907 1.0002717971801758
-0.22293461859226227 -0.10745683312416077 1.0999512672424316
-0.24009811878204346 -0.120550736784935 1.1409013271331787
-0.187452495098114 -0.08104413747787476 1.122988224029541
-0.17222976684570312 -0.043075934052467346 1.1515138149261475
-0.18653792142868042 -0.15375182032585144 0.8556188941001892
-0.05986975133419037 0.132156640291214 1.1044889688491821
-0.06916733831167221 0.10901474952697754 1.1916742324829102
-0.16148032248020172 -0.24003258347511292 1.0744425058364868
-0.1451200693845749 -0.15841740369796753 0.9397737979888916
-0.19890639185905457 -0.06953888386487961 0.24379131197929382
-0.1777321994304657 -0.11806787550449371 0.2583175301551819
-0.14021140336990356 -0.013953782618045807 0.46517249941825867
