-0.1357513815164566 0.04353586211800575 1.5125961303710938
-0.1448507159948349 0.01449749618768692 1.5045486688613892
-0.19472454488277435 -0.06580539792776108 0.5759451389312744
-0.10923600196838379 0.03479535132646561 1.7367349863052368
-0.1296623796224594 -0.10768315196037292 1.1950874328613281
-0.11736084520816803 -0.03621100261807442 1.1448311805725098
-0.13567480444908142 -0.12439267337322235 0.7439143657684326
-0.10964588075876236 0.08444410562515259 1.6896815299987793
-0.13244661688804626 -0.05722646415233612 1.3819174766540527
-0.10381123423576355 -0.11864572763442993 0.848676323890686
-0.1385210156440735 -0.13046704232692719 0.8702555298805237
-0.1226121187210083 -0.19697895646095276 0.9089101552963257
-0.10604992508888245 -0.21274906396865845 0.8469520807266235
-0.2818502187728882 -0.18761515617370605 0.06289029121398926
-0.07289600372314453 0.1017029732465744 1.6893370151519775
-0.10285953432321548 0.04467656463384628 1.7218677997589111
-0.15054257214069366 -0.0020911432802677155 1.420441746711731
-0.13378670811653137 -0.027296364307403564 1.464884638786316
-0.20436598360538483 0.016909422352910042 0.32674551010131836
-0.23264186084270477 -0.008043198846280575 0.20939165353775024
-0.27110329270362854 -0.18480288982391357 0.1061738133430481
-0.2379150092601776 -0.002827521413564682 0.06829766929149628
-0.1121024340391159 -0.00982164591550827 1.3040364980697632
-0.17566969990730286 -0.0922173261642456 0.5485936403274536
-0.23719622194766998 -0.14672914147377014 0.0053948042914271355
-0.2776961922645569 -0.14710462093353271 0.002107559237629175
-0.10232879221439362 0.034083668142557144 1.5278112888336182
-0.10877659171819687 0.00572715699672699 1.485302448272705
-0.03289662301540375 -0.21493014693260193 0.9008854627609253
-0.07795640826225281 0.08879557251930237 0.8604654669761658
-0.23190312087535858 -0.10992878675460815 0.270152747631073
-0.20942381024360657 -0.10748383402824402 0.1943453699350357
-0.21647487580776215 -0.01164567843079567 0.11038508266210556
-0.09683345258235931 -0.009753279387950897 1.269603967666626
-0.10563280433416367 -0.02921091392636299 1.2295408248901367
-0.07949406653642654 -0.12792976200580597 1.296078085899353
-0.14066743850708008 -0.02576432377099991 0.6682770252227783
-0.1190464049577713 -0.12640619277954102 0.736076295375824
-0.0746263936161995 -0.11795923858880997 0.8099786043167114
-0.2006315439939499 -0.11595191806554794 0.1605786234140396
-0.22480161488056183 -0.17865490913391113 0.07047387957572937
-0.12870511412620544 -0.07851782441139221 1.4573346376419067
-0.096207395195961 -0.0005680136382579803 1.3383899927139282
-0.06697748601436615 -0.006703287363052368 1.2758536338806152
-0.14520470798015594 -0.09413240849971771 0.5710350275039673
-0.12323807924985886 -0.07473987340927124 0.5707744359970093
-0.16167378425598145 0.02153044193983078 0.5139490365982056
-0.10145337134599686 -0.0660741925239563 1.4286096096038818
-0.07448704540729523 -0.029341191053390503 1.4141075611114502
-0.10286548733711243 0.01381004974246025 1.3778388500213623
-0.1348816603422165 -0.016024149954319 0.5191390514373779
-0.06094669923186302 0.055465757846832275 1.7272169589996338
-0.12486357986927032 -0.11918949335813522 1.586151123046875
-0.03829572722315788 -0.18802393972873688 0.9785412549972534
-0.07997623085975647 -0.03950737789273262 1.4269258975982666
-0.060056306421756744 -0.06835272163152695 1.4118324518203735
-0.07985091209411621 -0.052232466638088226 1.4058369398117065
-0.07349716126918793 -0.11912445724010468 1.5203598737716675
-0.10949106514453888 -0.10921879857778549 1.4689431190490723
-0.05432561784982681 -0.01006811112165451 1.43740713596344
-0.10463336855173111 -0.04025528207421303 0.6381043195724487
-0.021517295390367508 0.009316481649875641 1.7460472583770752
-0.029226038604974747 0.10995333641767502 1.6610572338104248
-0.0628337413072586 -0.13558626174926758 1.4712615013122559
-0.0752277672290802 -0.1107446625828743 1.427343726158142
-0.037962280213832855 -0.02032388746738434 1.413718342781067
-0.04937036707997322 -0.11577828973531723 1.428653597831726
-0.009587869048118591 -0.002703234553337097 1.3917042016983032
-0.02768476866185665 -0.02130594477057457 1.268685221672058
-0.016207266598939896 0.06165296584367752 1.7250688076019287
-0.019968220964074135 -0.02164427936077118 1.4408420324325562
-0.025423265993595123 -0.06282389909029007 1.4264421463012695
0.013273779302835464 0.07472020387649536 1.6890103816986084
-0.009250447154045105 0.018631301820278168 1.7301068305969238
-0.020726073533296585 -0.05466827005147934 1.4159352779388428
0.00747792050242424 -0.08528410643339157 1.4501854181289673
-0.014632266014814377 -0.03556627035140991 1.4207499027252197
0.07783911377191544 -0.09134984016418457 0.5910131931304932
0.011890202760696411 0.0009265691041946411 1.4723438024520874
0.11419219523668289 -0.1117863729596138 0.5078622102737427
-0.007456579245626926 -0.16665956377983093 1.255719542503357
0.04335223510861397 -0.05197031795978546 1.2479941844940186
0.04570603370666504 -0.07572205364704132 1.138914704322815
0.1474621295928955 -0.1438475400209427 0.07174862921237946
0.16273854672908783 -0.1372365951538086 0.050823874771595
0.13352398574352264 -0.009807251393795013 0.07857583463191986
0.0070297978818416595 -0.15127065777778625 1.242004156112671
-0.0023744218051433563 -0.19016620516777039 1.1676701307296753
0.07213778793811798 -0.1407647579908371 0.7304153442382812
0.12999358773231506 -0.06305669248104095 0.05306734889745712
0.03811267763376236 0.008751682937145233 1.690178632736206
-0.008087493479251862 -0.13226142525672913 1.5940699577331543
-0.009886275976896286 -0.11523247510194778 1.5110564231872559
-0.009056057780981064 -0.11538106948137283 1.4684017896652222
0.09682245552539825 -0.16215461492538452 0.8766722083091736
0.08531466126441956 -0.0017089024186134338 1.7185230255126953
0.01717255637049675 -0.0004528425633907318 1.5229414701461792
0.015138469636440277 -0.02102699875831604 1.4938338994979858
0.13672560453414917 -0.024051688611507416 0.3268345892429352
0.12899531424045563 -0.016443472355604172 0.2644386291503906
0.14587706327438354 -0.0013677701354026794 0.06028981879353523
0.029736578464508057 -0.004945863038301468 1.7727103233337402
0.048281121999025345 -0.02293655276298523 1.392124056816101
0.0976254865527153 -0.2194761335849762 0.8631889820098877
0.08784511685371399 -0.13270515203475952 0.8635513782501221
0.12849055230617523 -0.19619500637054443 0.8652050495147705
0.09642046689987183 -0.04001207277178764 0.7514325380325317
0.18906663358211517 -0.1372596025466919 0.0631561130285263
0.048246972262859344 -0.0023286044597625732 1.7009994983673096
0.032731957733631134 -0.16279709339141846 1.1357958316802979
0.03484732657670975 -0.139007568359375 1.2584773302078247
0.034793008118867874 -0.15540650486946106 1.2560242414474487
0.12425008416175842 -0.19015558063983917 0.9320641756057739
0.03471362218260765 -0.07335555553436279 1.5330243110656738
0.045921921730041504 -0.0009847916662693024 1.5346693992614746
0.041366614401340485 -0.026120714843273163 1.5202364921569824
0.046729717403650284 -0.0418052151799202 1.5155999660491943
0.053507085889577866 -0.05405091494321823 1.4924569129943848
0.13717694580554962 -0.06596383452415466 0.6496383547782898
0.13516557216644287 -0.13125057518482208 0.6689860820770264
0.058711010962724686 -0.05868792533874512 1.3755342960357666
0.06449958682060242 -0.015028968453407288 1.3151254653930664
0.034023258835077286 -0.016475573182106018 1.3333659172058105
0.042786143720149994 -0.036682456731796265 1.308953046798706
0.12441863119602203 -0.11936429888010025 0.8316026926040649
0.19062915444374084 -0.020184963941574097 0.06328203529119492
0.20326781272888184 -0.04472268372774124 0.05928918346762657
0.05670452490448952 -0.010140709578990936 1.6555994749069214
0.0722547173500061 -0.03542859107255936 1.367411732673645
0.1996985375881195 -0.07090047001838684 0.31237825751304626
0.08201224356889725 0.005736690014600754 1.6324623823165894
0.060714367777109146 0.03275134041905403 1.637506127357483
0.06830555200576782 0.0034614242613315582 1.6014151573181152
0.20638662576675415 -0.04972704499959946 0.13601237535476685
0.2133151888847351 -0.10429046303033829 0.0638570785522461
0.2024148851633072 -0.1330416202545166 0.09126363694667816
0.15080216526985168 -0.01639329269528389 0.9718161821365356
0.14985767006874084 -0.016889378428459167 0.8733354806900024
0.08227811753749847 -0.018494125455617905 1.7138936519622803
0.16685426235198975 0.03642437979578972 0.8798055052757263
0.17866212129592896 -0.00011047534644603729 0.9429815411567688
0.08738864213228226 -0.025724537670612335 1.3100477457046509
0.09667012095451355 -0.04634562134742737 1.2975395917892456
0.06924054026603699 -0.060964442789554596 1.3451180458068848
0.0977625623345375 -0.03651059418916702 1.256309151649475
0.08778084814548492 -0.0389695018529892 1.2363523244857788
0.09758247435092926 -0.11276735365390778 1.2265511751174927
0.11124955862760544 -0.07007921487092972 1.2586710453033447
0.13221091032028198 -0.05125364661216736 1.1923727989196777
0.14600735902786255 -0.06154438853263855 1.1176033020019531
0.16984376311302185 -0.07639462500810623 1.1318200826644897
0.15645653009414673 -0.08793803304433823 1.1833006143569946
0.1271536648273468 -0.1198418140411377 1.2038259506225586
0.17253224551677704 -0.10171927511692047 1.0812739133834839
0.18565025925636292 -0.16159681975841522 1.1366983652114868
0.19476735591888428 -0.14256519079208374 1.1162018775939941
0.1874057501554489 -0.11779189854860306 1.0888702869415283
0.14068633317947388 -0.19502243399620056 1.122449517250061
0.16564767062664032 -0.1685793697834015 1.0886338949203491
0.16749779880046844 -0.15097741782665253 1.0738271474838257
0.19689369201660156 -0.23634886741638184 0.9781485795974731
0.14397430419921875 -0.18283198773860931 1.0897282361984253
0.14387646317481995 -0.20208019018173218 1.0615582466125488
0.18369551002979279 -0.18704017996788025 1.0064654350280762
0.14875590801239014 -0.192801371216774 1.0358418226242065
0.14087215065956116 -0.21849241852760315 1.0407428741455078
0.16427092254161835 -0.2173462212085724 1.0112861394882202
0.18090978264808655 -0.22386318445205688 1.0070630311965942
0.13567675650119781 -0.239513099193573 1.0159918069839478
0.15878331661224365 -0.23638764023780823 1.006783127784729
0.1467939019203186 -0.23573794960975647 1.015815019607544
0.18951508402824402 -0.2417689859867096 0.9589535593986511
0.1523386836051941 -0.25056231021881104 1.0039336681365967
0.17442691326141357 -0.2245216965675354 0.9722121953964233
0.17366600036621094 -0.2564910054206848 0.9724685549736023
0.18910014629364014 -0.2515277862548828 0.9749568104743958
-0.30704551935195923 -0.04340653866529465 1.0831509828567505
-0.2986603379249573 -0.09710468351840973 1.0714898109436035
-0.28568094968795776 -0.08150578290224075 1.0684559345245361
-0.3025699257850647 -0.11318252980709076 1.107613444328308
-0.2549912631511688 -0.042960964143276215 1.078076958656311
-0.2781354486942291 -0.11534572392702103 1.09064781665802
-0.20107491314411163 -0.010244935750961304 1.2218554019927979
-0.20032978057861328 -0.061979617923498154 1.1995580196380615
-0.1714884340763092 -0.09638014435768127 0.9610697031021118
-0.17555716633796692 -0.01470551360398531 0.9425555467605591
-0.12565571069717407 0.05104949697852135 0.9271410703659058
-0.08653131127357483 0.14054641127586365 1.2512643337249756
-0.07963033020496368 0.13833479583263397 1.1935296058654785
-0.07594399154186249 0.1617252081632614 1.168567419052124
-0.15019500255584717 -0.011094092391431332 0.9622067213058472
-0.1969631463289261 0.03442412614822388 1.6934220790863037
-0.151651993393898 0.003477342426776886 1.338033676147461
-0.17171698808670044 0.003714166581630707 1.2734858989715576
-0.01262789685279131 0.15135234594345093 1.0752098560333252
-0.03395650535821915 0.15536153316497803 0.9971246719360352
-0.29024529457092285 -0.08063875883817673 0.12161198258399963
-0.3091652989387512 -0.13280464708805084 0.07317835837602615
-0.17499637603759766 0.022033989429473877 1.6772722005844116
-0.15990164875984192 0.035030294209718704 1.6239433288574219
-0.1572715789079666 -0.12217152863740921 1.232975721359253
-0.15728217363357544 -0.13769200444221497 1.2079018354415894
-0.16186736524105072 -0.1571187525987625 1.203045129776001
-0.09644561260938644 0.10270684212446213 1.3600735664367676
-0.08842198550701141 0.09500846266746521 1.3564014434814453
-0.13825970888137817 -0.12542039155960083 1.2484756708145142
-0.1463070511817932 -0.05583314970135689 1.1926872730255127
-0.2612423002719879 -0.09777173399925232 0.18583489954471588
-0.2691654562950134 -0.05288548022508621 0.1944582760334015
-0.0400078147649765 0.11770415306091309 1.2459173202514648
-0.15741312503814697 -0.014274735003709793 1.432223916053772
-0.15559595823287964 -0.008623935282230377 1.4119398593902588
-0.14245636761188507 -0.011506453156471252 1.3949636220932007
-0.15694162249565125 -0.007037416100502014 1.3921066522598267
-0.15710066258907318 -0.024295136332511902 1.3820244073867798
-0.1483783721923828 -0.10889831185340881 0.7906885147094727
-0.1607765555381775 -0.07013049721717834 0.7861595153808594
-0.0015772022306919098 0.20650631189346313 1.0866986513137817
-0.004822620190680027 0.20407013595104218 1.1353293657302856
-0.12926934659481049 -0.11874938011169434 1.2431162595748901
-0.12677225470542908 -0.10936876386404037 0.8627402782440186
-0.2629235088825226 -0.017987187951803207 0.11772815883159637
-0.2681351602077484 -0.018557924777269363 0.08029341697692871
-0.13810721039772034 -0.18467479944229126 0.8488026261329651
-0.03671824187040329 0.17653289437294006 1.2297561168670654
-0.1601073294878006 -0.08783674240112305 1.5839450359344482
-0.12695050239562988 0.02024345099925995 1.509082555770874
-0.09032604098320007 0.10063646733760834 1.4839069843292236
-0.09282144904136658 0.06645861268043518 1.5381603240966797
-0.11321631073951721 0.06698805838823318 1.5125141143798828
-0.09741213917732239 0.0838223248720169 1.431477427482605
-0.04618937894701958 0.1194491907954216 1.5281498432159424
-0.12008194625377655 -0.013776645064353943 1.4611941576004028
-0.08378999680280685 0.043645888566970825 0.9707478880882263
-0.1374167650938034 0.027620024979114532 1.7745780944824219
-0.14585083723068237 0.022228069603443146 1.7682530879974365
-0.15216445922851562 0.011841177940368652 1.7549338340759277
-0.016629239544272423 0.06340675055980682 1.4271711111068726
-0.06673135608434677 0.11480524390935898 1.403516411781311
-0.20726394653320312 -0.08224496990442276 0.043369777500629425
-0.015180027112364769 0.14985446631908417 1.3535510301589966
-0.12672023475170135 -0.08932581543922424 1.4988267421722412
-0.1780298501253128 -0.05841945856809616 0.3959721326828003
-0.05837195739150047 0.06338872015476227 1.4832942485809326
-0.08337756991386414 0.025491863489151 1.4639571905136108
-0.023903992027044296 0.12458369880914688 1.4519774913787842
-0.03239376097917557 0.05047575756907463 0.8543442487716675
-0.18689727783203125 0.0037473251577466726 0.3470463752746582
0.04302775114774704 0.16582034528255463 1.0013104677200317
-0.030713234096765518 0.03457696735858917 1.0293055772781372
-0.11134600639343262 -0.15017300844192505 1.2424198389053345
-0.10465510189533234 -0.15210957825183868 1.1452107429504395
-0.17553287744522095 -0.02431841939687729 0.3243364095687866
-0.16091860830783844 -0.03880587965250015 0.2620188295841217
-0.19135557115077972 0.010388633236289024 0.25745561718940735
-0.06473316997289658 0.04645608738064766 1.4992178678512573
-0.09097352623939514 -0.10187359154224396 0.68645179271698
-0.11671646684408188 -0.027891060337424278 0.6595265865325928
0.046901680529117584 0.20576247572898865 1.1280059814453125
0.053528741002082825 0.1982678472995758 1.0475976467132568
-0.06013285741209984 -0.18571393191814423 1.1702055931091309
-0.1895046830177307 -0.06735560297966003 0.12657760083675385
0.041431162506341934 0.15057140588760376 1.0369969606399536
0.03068033792078495 0.12938037514686584 1.0718622207641602
0.0010137557983398438 0.04159913212060928 1.4930505752563477
-0.09328637272119522 -0.0855647400021553 1.3752713203430176
0.036495622247457504 0.152243509888649 1.3371632099151611
0.027870703488588333 0.053220488131046295 1.4179468154907227
-0.009019128978252411 0.03477439656853676 1.4925352334976196
0.08772190660238266 0.13933290541172028 1.0477550029754639
0.10555043816566467 0.1273946762084961 1.0039209127426147
-0.03188801556825638 -0.10264388471841812 1.371171236038208
0.013438807800412178 0.03237222880125046 1.0276659727096558
-0.0332142598927021 -0.201107919216156 1.1001042127609253
0.09426355361938477 0.12171311676502228 1.3618125915527344
0.008664151653647423 -0.020451318472623825 1.2852047681808472
0.062222063541412354 0.09707997739315033 1.45891535282135
0.027833983302116394 0.054018281400203705 1.4586472511291504
0.02222401276230812 -0.03867105394601822 1.199030876159668
0.04566759988665581 0.09234842658042908 0.9185830354690552
-0.014363862574100494 -0.02486661821603775 1.711156964302063
0.12854133546352386 -0.11324327439069748 0.08168666064739227
0.12016381323337555 -0.1241733580827713 0.055770426988601685
0.12258149683475494 -0.054944343864917755 0.09315557777881622
-0.051297951489686966 -0.13460496068000793 1.587409496307373
0.06869244575500488 -0.06233062595129013 0.7148345708847046
0.08236020058393478 0.037770919501781464 1.4288080930709839
0.018163204193115234 -0.05318469554185867 1.4598042964935303
0.05583260580897331 -0.03966090828180313 1.4104233980178833
0.017352087423205376 -0.010845351964235306 1.3885364532470703
0.11595417559146881 -0.037679556757211685 0.39453965425491333
0.13793537020683289 -0.12513065338134766 0.23857682943344116
0.13401994109153748 -0.03884480893611908 0.1991662234067917
0.1485164314508438 0.12492991983890533 1.0554704666137695
0.14468538761138916 0.1502334028482437 1.02573561668396
0.10559993982315063 -0.14581790566444397 0.7422528266906738
0.11184734106063843 -0.05216839164495468 0.6591311097145081
-0.0176197849214077 -0.07112205773591995 1.695547342300415
0.022914547473192215 -0.08360143005847931 1.6538759469985962
0.12853436172008514 -0.1301974356174469 0.551764190196991
0.007428452372550964 -0.01879914104938507 1.7250515222549438
0.030793942511081696 -0.03575344383716583 1.6753597259521484
0.05716946721076965 -0.10200351476669312 1.1342631578445435
0.06274943053722382 -0.09092938899993896 1.1085503101348877
0.052587464451789856 -0.1616191864013672 1.0907760858535767
0.005437448620796204 -0.11959987133741379 1.586604118347168
0.031414587050676346 -0.05412762612104416 1.489974021911621
0.020238962024450302 -0.09344383329153061 1.486277461051941
0.18606090545654297 0.10292702913284302 1.0192477703094482
0.048813097178936005 -0.09854394942522049 1.2846875190734863
0.05725808069109917 -0.16018903255462646 1.2482616901397705
0.0602148212492466 -0.10855954140424728 1.230461835861206
0.17420826852321625 -0.023753758519887924 0.15219096839427948
0.18917319178581238 -0.10656581073999405 0.17537833750247955
0.20357520878314972 -0.09378205239772797 0.16085383296012878
0.045663438737392426 -0.01631026715040207 1.7000223398208618
0.05662332475185394 -0.10745819658041 1.2872668504714966
0.1893874853849411 -0.04035010188817978 0.43567097187042236
0.16915175318717957 -0.09505119174718857 0.4889407753944397
0.1974802315235138 -0.055269524455070496 0.3784061372280121
0.06758420169353485 -0.05615224689245224 1.403549075126648
0.05458748713135719 -0.05358695983886719 1.4002069234848022
0.07420093566179276 -0.04557346552610397 1.3602312803268433
0.11781167984008789 0.062264345586299896 0.9263724684715271
0.12885867059230804 -0.11727496981620789 0.8671700954437256
0.2022794783115387 -0.0421174056828022 0.25264406204223633
0.218917116522789 -0.0726361870765686 0.2603614926338196
0.07697879523038864 -0.02762022614479065 1.3525151014328003
0.15832535922527313 0.056987419724464417 1.280989170074463
0.170538529753685 0.08141661435365677 1.259886622428894
0.06309065967798233 -0.23100198805332184 1.1479336023330688
0.14672796428203583 -0.06741008162498474 0.9975227117538452
0.148484468460083 -0.12448645383119583 0.9911508560180664
0.09893171489238739 -0.03517289459705353 1.1819796562194824
0.10437112301588058 -0.14948642253875732 1.0839439630508423
0.1251346468925476 -0.11465072631835938 1.0632598400115967
0.10739049315452576 -0.17681443691253662 1.151252031326294
-0.29145631194114685 -0.05741953104734421 1.058345079421997
-0.3018311858177185 -0.11264939606189728 1.0431954860687256
-0.23692987859249115 -0.09586335718631744 1.1344704627990723
-0.24839189648628235 -0.0954970121383667 1.1806538105010986
-0.2152712196111679 -0.06524866074323654 1.1438578367233276
-0.2125757932662964 -0.026971040293574333 1.162052869796753
-0.1893560290336609 -0.15077650547027588 0.8758944869041443
-0.06230780482292175 0.1647910475730896 1.035386085510254
-0.07512272894382477 0.15458938479423523 1.1316794157028198
-0.1716793179512024 -0.22064173221588135 1.1139678955078125
-0.13880705833435059 -0.15860246121883392 0.952695369720459
-0.2741023600101471 -0.041135139763355255 0.28232479095458984
-0.2523067593574524 -0.09034321457147598 0.2968551516532898
-0.2000018209218979 0.012994775548577309 0.5007264614105225
-0.148962140083313 -0.19078117609024048 0.8544813990592957
-0.17837370932102203 -0.0466582253575325 0.6427679061889648
-0.1677103042602539 -0.09052184224128723 0.6947513818740845
-0.14939093589782715 -0.03430260345339775 0.7020151615142822
-0.10237477719783783 -0.021024614572525024 1.0898417234420776
-0.11586210131645203 -0.07738448679447174 1.1119682788848877
0.004483979195356369 0.19396203756332397 1.2023444175720215
-0.11221817135810852 -0.01944807730615139 0.8583847880363464
-0.20852030813694 -0.10224103182554245 0.30886608362197876
-0.11739878356456757 -0.02556256204843521 1.1916759014129639
-0.09489832818508148 -0.041205354034900665 1.1219477653503418
-0.1917971819639206 -0.07995039969682693 0.44879254698753357
-0.14117614924907684 0.007294643670320511 1.6941297054290771
-0.1487092226743698 -0.026603437960147858 1.6800602674484253
-0.11390571296215057 -0.06338249146938324 1.6884124279022217
-0.13343007862567902 -0.09687018394470215 1.6470590829849243
-0.1467653065919876 -0.08988437801599503 1.5495991706848145
-0.18571710586547852 -0.06002539396286011 0.3411416709423065
-0.08323025703430176 -0.11545255780220032 0.7358226180076599
-0.1643141508102417 -0.06889885663986206 0.26976314187049866
-0.18262320756912231 -0.09770701080560684 0.2759953439235687
-0.19980354607105255 -0.017451785504817963 0.2050228714942932
-0.045194774866104126 0.06385566294193268 0.9602086544036865
-0.09726019948720932 0.015112053602933884 1.7379494905471802
-0.11504025757312775 0.005609478801488876 1.7248753309249878
0.06864891201257706 0.1151345819234848 1.1884666681289673
-0.009389514103531837 0.1348707228899002 1.1828374862670898
0.04320738837122917 0.10722296684980392 1.2394895553588867
-0.009020723402500153 -0.038138311356306076 1.2351882457733154
0.06649710983037949 0.177962526679039 1.2358332872390747
0.07298895716667175 0.12773627042770386 1.0773961544036865
0.12740027904510498 0.1814996749162674 1.1636323928833008
0.01309632882475853 0.09747765958309174 1.6356008052825928
0.10195564478635788 0.11119358986616135 1.087813138961792
0.038604576140642166 -0.21782244741916656 0.9040501713752747
0.10361596196889877 -0.0874289870262146 0.2568776309490204
0.1342405378818512 -0.09940561652183533 0.19690129160881042
0.06713032722473145 -0.12968894839286804 0.6975648403167725
0.03182682394981384 0.0032574720680713654 1.0645968914031982
0.09358536452054977 -0.0483674481511116 0.5681061744689941
0.09759746491909027 0.0749964565038681 1.303939700126648
0.0375407412648201 -0.06489752978086472 1.3945657014846802
0.04299750551581383 0.08080641180276871 1.6002391576766968
0.030357345938682556 0.01686849445104599 1.565119743347168
0.03592900186777115 0.03266540914773941 1.5438814163208008
0.0013122260570526123 -0.013334382325410843 1.770958423614502
0.03678205609321594 -0.08732511848211288 1.3327620029449463
0.158415287733078 -0.01847563311457634 0.5007058382034302
0.1260261833667755 -0.005881110206246376 0.4962235987186432
0.15426120162010193 -0.014088202267885208 0.3459010720252991
0.1767580509185791 -0.018365565687417984 0.3171738386154175
0.055086664855480194 -0.052145108580589294 1.4810116291046143
0.04246117174625397 -0.06072409451007843 1.4902660846710205
0.055371370166540146 -0.05562964081764221 1.4747170209884644
0.1305646002292633 -0.052148088812828064 0.7668061256408691
0.15068067610263824 -0.09529703110456467 0.6370424628257751
0.11699001491069794 0.022291913628578186 0.9670345783233643
0.0937776267528534 -0.08157045394182205 1.088645339012146
0.08587843179702759 -0.13499820232391357 1.0768619775772095
0.09663663804531097 -0.15866900980472565 1.0268312692642212
0.05775105953216553 -0.018582217395305634 1.6008684635162354
0.06965139508247375 -0.02322230115532875 1.5209273099899292
0.052173979580402374 -0.15306061506271362 1.229517936706543
0.09382401406764984 0.0448799654841423 1.5114299058914185
0.0792536810040474 0.017326921224594116 1.5500820875167847
0.20457535982131958 -0.02372145652770996 0.08754751086235046
0.2181740403175354 -0.06845040619373322 0.07469174265861511
0.1022399440407753 0.023502711206674576 1.4778752326965332
0.11077181249856949 0.03566637262701988 1.4480305910110474
0.12105206400156021 0.024368952959775925 1.4161672592163086
0.124140165746212 0.036089785397052765 1.4024015665054321
0.060590893030166626 -0.23243048787117004 1.1665914058685303
0.17486876249313354 -0.1585800051689148 0.8813057541847229
0.0733446255326271 -0.2091643363237381 1.1780718564987183
0.06991378962993622 -0.2348538041114807 1.1673688888549805
0.20195861160755157 -0.11403962969779968 0.9012562036514282
0.20435841381549835 -0.09110962599515915 0.8819165229797363
0.2132948637008667 -0.05621306598186493 0.8922032117843628
-0.2206246256828308 -0.0882791057229042 1.1869990825653076
-0.18113826215267181 -0.08845070004463196 1.2504708766937256
-0.18918517231941223 -0.08854900300502777 1.2350002527236938
-0.18092046678066254 -0.08047191798686981 1.240342617034912
-0.17541131377220154 -0.08029397577047348 1.2573719024658203
-0.1946733146905899 0.002199002541601658 0.8837435245513916
-0.15003390610218048 -0.04824338108301163 1.2749478816986084
-0.14592185616493225 -0.06428387761116028 1.0626296997070312
-0.1304701417684555 0.09552572667598724 1.5175187587738037
-0.14857661724090576 -0.08268272876739502 1.1833914518356323
-0.147886723279953 -0.07734504342079163 1.1295874118804932
-0.09826894104480743 0.09666232019662857 1.415499210357666
-0.08170910179615021 0.08975479751825333 1.379407525062561
-0.1352418065071106 -0.1397167146205902 1.0258986949920654
-0.10114229470491409 -0.16497540473937988 0.9877310991287231
-0.13713867962360382 -0.027500230818986893 0.787193775177002
-0.00588875450193882 0.17228290438652039 1.2673135995864868
-0.07383114099502563 0.11685395240783691 1.6106327772140503
-0.1952395886182785 -0.03412143886089325 0.07084254920482635
-0.20903538167476654 -0.01879187859594822 0.06205394119024277
-0.08095404505729675 0.024700308218598366 0.8641393184661865
0.0015285629779100418 0.09385406970977783 0.8510428667068481
-0.06647107005119324 -0.0216861292719841 0.8430874347686768
0.030884183943271637 0.07782602310180664 1.3266799449920654
-0.05268765240907669 -0.08038449287414551 0.761588454246521
-0.084244504570961 -0.121832937002182 1.562837839126587
-0.006995542906224728 0.01415221020579338 0.8698544502258301
-0.005926948972046375 -0.027404531836509705 0.8487074375152588
0.01677623763680458 -0.1193784773349762 0.8537701964378357
-0.07811367511749268 -0.16258157789707184 0.8539714217185974
-0.008646739646792412 -0.2236398160457611 0.8465088605880737
0.03614620119333267 -0.11137011647224426 0.8332843780517578
-0.009696909226477146 -0.15978699922561646 0.8579094409942627
-0.018517814576625824 0.01851259544491768 1.4613703489303589
0.028640685603022575 -0.03807066008448601 0.8459898829460144
0.03343598172068596 -0.05071242153644562 0.8290545344352722
-0.005391888320446014 0.02469450980424881 1.5391104221343994
-0.0005189068615436554 0.03162818402051926 1.5151450634002686
0.044792693108320236 -0.125022292137146 0.8492292165756226
0.13068823516368866 0.05592392757534981 0.8611583113670349
0.10465487092733383 -0.059012316167354584 0.2554178237915039
0.054392363876104355 -0.03585274890065193 0.8188017010688782
0.10295840352773666 0.1063280701637268 1.2171361446380615
0.13322444260120392 -0.08727799355983734 0.38109874725341797
0.13036540150642395 -0.07007279247045517 0.31987327337265015
0.14656822383403778 -0.09165307134389877 0.3363316059112549
0.14438742399215698 -0.13027650117874146 0.2798621654510498
0.08173395693302155 0.060184527188539505 1.4808536767959595
0.08145293593406677 -0.017508897930383682 0.85311359167099
0.108313649892807 -0.036368679255247116 0.8337006568908691
0.06135540083050728 -0.08141595870256424 1.2337844371795654
0.16424743831157684 -0.10149641335010529 0.430043488740921
0.06464900076389313 0.03534674271941185 1.585235595703125
0.04786458611488342 -0.03794211149215698 1.2806315422058105
0.17732714116573334 -0.09087423980236053 0.3371616005897522
0.13204172253608704 0.16155114769935608 1.219306468963623
0.07068245112895966 -0.06496743857860565 1.2072081565856934
0.16346898674964905 -0.02880609780550003 0.2103104591369629
0.17611771821975708 0.1473969668149948 1.1417028903961182
0.16130486130714417 -0.01833184063434601 0.24653303623199463
0.18841731548309326 -0.1308383196592331 0.25646325945854187
0.13273268938064575 0.05321606993675232 1.326181411743164
0.06373143196105957 -0.03847937285900116 1.437848448753357
0.07097046077251434 -0.03824062645435333 1.406698226928711
0.061855968087911606 -0.03633994609117508 1.4385106563568115
0.08567647635936737 -0.036979902535676956 1.3866157531738281
0.06829017400741577 -0.17551162838935852 1.216811180114746
0.054034650325775146 -0.1858033686876297 1.2110412120819092
0.16350843012332916 0.0703052431344986 1.2397162914276123
0.1932261735200882 0.09964235126972198 1.1838589906692505
0.18843162059783936 0.09506847709417343 1.150783658027649
0.07462230324745178 -0.05293705314397812 1.2375386953353882
0.06518508493900299 -0.08306020498275757 1.253082275390625
0.15839193761348724 -0.18365240097045898 0.89076828956604
0.07273537665605545 -0.09226640313863754 1.2647840976715088
0.0664273127913475 -0.12143826484680176 1.1650173664093018
0.09000074863433838 -0.06649082154035568 1.1416082382202148
0.07543352991342545 -0.10494149476289749 1.132103443145752
0.11971117556095123 -0.15328209102153778 1.1823890209197998
0.14635537564754486 -0.15150514245033264 1.0536720752716064
0.11579787731170654 -0.18795789778232574 1.108455777168274
-0.17431886494159698 -0.20597431063652039 1.1514840126037598
-0.16763246059417725 -0.1406676471233368 1.1979966163635254
-0.17480696737766266 -0.12658925354480743 1.2179999351501465
-0.16362394392490387 -0.1937331259250641 1.1537060737609863
-0.11549536883831024 0.10239546000957489 1.444724202156067
-0.12010253965854645 0.09064803272485733 1.4286446571350098
-0.11537623405456543 0.10619618743658066 1.3865382671356201
-0.1635829210281372 0.009854227304458618 1.6579902172088623
-0.16792261600494385 -0.023027978837490082 1.5744255781173706
-0.24346932768821716 -0.057260580360889435 0.3395019471645355
-0.1324276626110077 -0.06791536509990692 0.8549313545227051
-0.13543006777763367 -0.0922924131155014 0.8361543416976929
-0.04784143716096878 0.1759980469942093 1.0151026248931885
-0.11791853606700897 -0.11691449582576752 1.2363884449005127
-0.11904262751340866 -0.02989540807902813 0.8321856260299683
-0.11916475743055344 -0.009945228695869446 1.7035623788833618
-0.10985903441905975 -0.12075972557067871 1.1184178590774536
-0.07877808809280396 -0.18182237446308136 1.1144827604293823
-0.004066610708832741 0.15020933747291565 1.1156072616577148
0.06428130716085434 0.13003863394260406 1.1159074306488037
-0.07239573448896408 -0.028213288635015488 1.1371959447860718
-0.05474039539694786 -0.11482742428779602 0.8473020195960999
-0.06508038938045502 -0.18800705671310425 1.0478014945983887
-0.05156666040420532 0.014741238206624985 1.0492243766784668
-0.07439382374286652 -0.11031720042228699 1.6598858833312988
0.03592658042907715 -0.10235367715358734 0.7688266038894653
-0.013079396449029446 0.09817834198474884 1.2953404188156128
0.11740025877952576 -0.08397772908210754 0.05115816742181778
0.1671028882265091 0.1626587212085724 1.083477258682251
0.12454169988632202 0.119818776845932 1.1371873617172241
0.12204308807849884 0.1892654001712799 1.092341661453247
0.09941969811916351 0.08514153957366943 0.8620045185089111
0.17576240003108978 0.0028946176171302795 0.07563555985689163
0.12307892739772797 -0.03867825120687485 0.8604906797409058
0.16694578528404236 -0.09252353012561798 0.3887934684753418
0.06673779338598251 -0.05981258302927017 1.375551700592041
0.05920936539769173 -0.08424226194620132 1.3021483421325684
0.19838593900203705 -0.002016107551753521 0.882862389087677
0.19459962844848633 -0.05300988256931305 0.9473785161972046
0.13374705612659454 -0.177357017993927 1.0725648403167725
-0.2574846148490906 -0.10938891768455505 1.1507364511489868
-0.19303596019744873 -0.08230776339769363 0.936782717704773
-0.2109173834323883 -0.07239816337823868 0.8858219385147095
-0.11832663416862488 0.09197960793972015 1.3814539909362793
-0.08873171359300613 0.11996373534202576 1.2519726753234863
-0.14624136686325073 0.022558104246854782 1.4989454746246338
-0.13929542899131775 -0.05557578429579735 1.0306873321533203
-0.14623215794563293 -0.08532106876373291 1.068297028541565
-0.1452033519744873 0.025427114218473434 1.4993773698806763
-0.14514677226543427 0.012314528226852417 1.4863390922546387
-0.14684279263019562 0.019085470587015152 1.494857668876648
-0.1476723849773407 0.015845775604248047 1.4966959953308105
-0.15376712381839752 0.005160801112651825 1.486549735069275
-0.2372007966041565 -0.11719594895839691 0.18925264477729797
-0.16910552978515625 -0.058031126856803894 1.62273108959198
-0.04603289067745209 -0.01950957626104355 1.1912766695022583
-0.2010938823223114 -0.13333237171173096 0.06425950676202774
-0.06450258940458298 -0.023958735167980194 1.2318953275680542
-0.019204918295145035 -0.0341690368950367 1.149300456047058
-0.03490094467997551 0.09220943599939346 0.9229621887207031
-0.06351305544376373 -0.025433287024497986 1.7196587324142456
-0.07460947334766388 -0.06615860760211945 0.7011919617652893
0.01189302559942007 0.09860450029373169 1.2649112939834595
-0.0052789077162742615 -0.19251859188079834 0.998757004737854
-0.06125999987125397 -0.1804323047399521 1.2143373489379883
0.06686283648014069 0.117703877389431 1.1562365293502808
0.12396758794784546 -0.06298902630805969 0.18558938801288605
0.05085813254117966 -0.18053241074085236 0.9891355037689209
0.10296052694320679 -0.17481684684753418 0.9774923920631409
0.05484841763973236 0.03405392915010452 1.5116231441497803
0.03632155805826187 -0.16909772157669067 1.1640534400939941
0.019004717469215393 -0.044065527617931366 1.1497929096221924
0.07812418043613434 -0.036335259675979614 1.0823132991790771
0.0781165212392807 0.0557861328125 0.9581537842750549
0.16576224565505981 -0.11236324161291122 0.022027088329195976
0.14199897646903992 -0.10639700293540955 0.020542006939649582
0.1944555938243866 -0.0879250168800354 0.030611399561166763
0.2059212177991867 -0.10785644501447678 0.2413446009159088
0.061568014323711395 -0.0373353436589241 1.4350972175598145
0.06165744364261627 -0.03792227804660797 1.4374065399169922
0.05030412971973419 -0.05511126667261124 1.3035473823547363
0.058108456432819366 -0.07963676005601883 1.289250135421753
0.20937281847000122 0.11376723647117615 1.0892177820205688
0.20739421248435974 0.09372557699680328 1.045615315437317
0.2163064032793045 0.09606710076332092 1.0420265197753906
0.15811914205551147 -0.14544296264648438 1.0571699142456055
0.13077764213085175 -0.20002315938472748 1.054455280303955
0.13520142436027527 -0.22587622702121735 1.0490286350250244
-0.25351881980895996 -0.07470876723527908 1.0792179107666016
-0.17980922758579254 -0.16662153601646423 1.1887485980987549
-0.21168707311153412 -0.0618145726621151 0.36919018626213074
-0.013924481347203255 0.15289756655693054 0.992142915725708
-0.11611234396696091 -0.1408081352710724 1.0663957595825195
-0.036297958344221115 -0.04386584833264351 0.8411707282066345
-0.06163803115487099 -0.030862867832183838 0.8070750832557678
-0.05737479031085968 -0.08365035802125931 0.8085588216781616
-0.011158392764627934 0.001711878925561905 1.094887137413025
0.02285853587090969 -0.2070094645023346 0.8364042639732361
0.09698452055454254 0.01305404957383871 0.8690005540847778
0.14016172289848328 0.11535359174013138 1.1063207387924194
0.06882376223802567 -0.0036501921713352203 1.5247055292129517
0.08185669779777527 0.016040459275245667 1.5056108236312866
0.18208938837051392 -0.12154705077409744 0.9469392895698547
-0.18391619622707367 -0.18036264181137085 1.1591191291809082
-0.13951903581619263 0.06645678728818893 1.5326452255249023
0.011415532790124416 0.1602870225906372 1.0371649265289307
-0.11886418610811234 0.0886872410774231 1.5643879175186157
-0.09926731139421463 0.053590986877679825 1.5517712831497192
-0.07057619094848633 0.041517533361911774 1.5318900346755981
0.013474751263856888 -0.1967802345752716 1.0573747158050537
0.022662296891212463 -0.14061982929706573 1.2492119073867798
0.1646023392677307 -0.11301971226930618 0.1594596952199936
0.06122998893260956 -0.13452565670013428 1.208702802658081
0.07633374631404877 -0.12700819969177246 1.1569981575012207
0.10777300596237183 0.04369732365012169 1.413926362991333
0.09784075617790222 0.07326090335845947 1.4275619983673096
0.08312410861253738 -0.08668546378612518 1.1630243062973022
0.12774032354354858 -0.07586796581745148 0.8442803621292114
0.040776848793029785 -0.1681230068206787 1.2367405891418457
0.13604208827018738 0.06743508577346802 1.3451875448226929
-0.08877603709697723 0.11466867476701736 1.3320941925048828
-0.2033814787864685 0.013424279168248177 0.3760721981525421
0.050404928624629974 -0.10279405117034912 0.7278767228126526
-0.02484283223748207 -0.12013771384954453 1.6422064304351807
-0.06257522851228714 0.17679563164710999 1.0779316425323486
-0.16925279796123505 -0.08125387877225876 1.260158658027649
-0.16085600852966309 -0.02686953730881214 0.408145546913147
0.022778354585170746 0.11713412404060364 1.4567980766296387
0.1245780661702156 -0.11440053582191467 0.029398608952760696
0.0585695318877697 -0.056086465716362 1.4728047847747803
0.056847721338272095 -0.05520123615860939 1.4717133045196533
0.05875946581363678 -0.04414498060941696 1.3945269584655762
0.19886642694473267 -0.09300993382930756 0.2114347517490387
0.1958756446838379 -0.058211952447891235 0.19707447290420532
0.07589477300643921 -0.11716975271701813 1.2128362655639648
-0.1710435301065445 -0.15520289540290833 0.9322441220283508
-0.0993984043598175 0.10256801545619965 1.358625888824463
-0.0999990850687027 0.09945382177829742 1.3595219850540161
-0.10461734980344772 0.099178746342659 1.3597173690795898
-0.18110352754592896 -0.058020640164613724 0.2074967622756958
-0.034855473786592484 -0.09768445789813995 0.8429925441741943
0.13488389551639557 -0.0917435958981514 0.1487174928188324
0.08187884837388992 -0.14698973298072815 1.1761314868927002
0.038123976439237595 -0.08135249465703964 1.603135347366333
0.14462998509407043 -0.09725861251354218 0.7954984903335571
0.12473975121974945 0.034141905605793 1.3848387002944946
0.1304362565279007 0.05040500685572624 1.354775309562683
0.12487272173166275 -0.03236953914165497 0.05920269340276718
-0.08251414448022842 -0.4591732919216156 1.1259957551956177
-0.07245520502328873 -0.43568146228790283 1.0958377122879028
-0.07682338356971741 -0.4443839192390442 1.1011359691619873
-0.08237458765506744 -0.4347606897354126 1.1070834398269653
-0.08705680072307587 -0.4566461741924286 1.113452672958374
-0.07744590938091278 -0.45079493522644043 1.1254814863204956
0.008031417615711689 -0.34544456005096436 1.0812668800354004
-0.003631281666457653 -0.34625235199928284 1.0785242319107056
-0.006337570026516914 -0.3660166561603546 1.0881119966506958
-0.015099737793207169 -0.3717377185821533 1.0921339988708496
0.07934655994176865 -0.23743519186973572 0.9944053888320923
0.07374033331871033 -0.2434706687927246 1.013724684715271
0.07582221925258636 -0.2486998736858368 0.9890892505645752
-0.017499184235930443 -0.36090588569641113 1.0468008518218994
-0.022954316809773445 -0.37244677543640137 1.0629808902740479
-0.017419902607798576 -0.38951778411865234 1.1160409450531006
-0.015050116926431656 -0.38136738538742065 1.1039695739746094
0.05245018005371094 -0.2734163701534271 0.9774847030639648
0.04645536467432976 -0.2784671187400818 0.9996007680892944
0.050058409571647644 -0.3013354539871216 1.069079041481018
0.048593465238809586 -0.29459619522094727 1.0617642402648926
-0.05727674812078476 -0.43987947702407837 1.133855938911438
-0.06150377169251442 -0.4294610321521759 1.0884467363357544
0.07742154598236084 -0.25139138102531433 0.9790074229240417
0.06966755539178848 -0.25505876541137695 0.9749796986579895
0.2086566984653473 -0.1223887950181961 1.035478115081787
0.20213042199611664 -0.13007119297981262 1.0351771116256714
0.20634734630584717 -0.1229509711265564 1.0149472951889038
-0.03768082708120346 -0.408646821975708 1.1142905950546265
-0.04955608397722244 -0.4247184693813324 1.1203244924545288
0.07552877813577652 -0.25369367003440857 0.9731737375259399
0.07337481528520584 -0.2553507089614868 0.9638248682022095
-0.10028253495693207 -0.4793877601623535 1.0774192810058594
-0.10259497165679932 -0.4883929193019867 1.0904223918914795
0.221734881401062 -0.11324384063482285 1.027901291847229
0.21604861319065094 -0.12006361782550812 1.041006326675415
0.21649526059627533 -0.11353603005409241 1.0209341049194336
0.20995426177978516 -0.12093913555145264 1.0128848552703857
-0.11198855191469193 -0.5088352560997009 1.1454293727874756
-0.11882858723402023 -0.524053692817688 1.1594998836517334
-0.12200465798377991 -0.5234390497207642 1.1415510177612305
0.014947311952710152 -0.3253243565559387 1.016239047050476
0.010019246488809586 -0.33941465616226196 1.0194591283798218
-0.006186208687722683 -0.3536134362220764 1.013366460800171
0.00247070100158453 -0.35192424058914185 1.0134254693984985
0.215096116065979 -0.1282653510570526 1.0452879667282104
0.22025790810585022 -0.11606135219335556 1.0153793096542358
-0.0231278408318758 -0.4061964750289917 1.1293456554412842
-0.016447095200419426 -0.40742480754852295 1.1316128969192505
-0.03374060243368149 -0.41535282135009766 1.1325390338897705
-0.04179113358259201 -0.4320300817489624 1.1399013996124268
0.04006688669323921 -0.3002943992614746 0.9980176687240601
0.03080180287361145 -0.31282496452331543 0.9958526492118835
0.027282023802399635 -0.3110566735267639 1.0023746490478516
0.2229175865650177 -0.11839581280946732 1.020857334136963
0.21550755202770233 -0.12805065512657166 1.043505072593689
0.21218261122703552 -0.12773069739341736 1.0158361196517944
0.0832340270280838 -0.2384791523218155 0.9313052296638489
0.07971307635307312 -0.2425146847963333 0.9251075983047485
0.07979557663202286 -0.24729430675506592 0.9499683380126953
0.08038743585348129 -0.24919557571411133 0.9396346807479858
0.07896367460489273 -0.24352481961250305 0.9347684979438782
-0.009580545127391815 -0.3729400634765625 1.0101219415664673
-0.009789896197617054 -0.36190158128738403 1.0038504600524902
-0.011600160039961338 -0.3664741516113281 0.9933854341506958
-0.016818491742014885 -0.368038147687912 0.9960449934005737
0.21302099525928497 -0.12868472933769226 1.025420904159546
-0.11542001366615295 -0.5313389897346497 1.165990948677063
-0.12045538425445557 -0.5287345051765442 1.149222731590271
-0.11978990584611893 -0.5408779382705688 1.164873719215393
-0.1286575347185135 -0.5393655896186829 1.1690173149108887
-0.12365078926086426 -0.5233545899391174 1.1335644721984863
0.10073152929544449 -0.2525799572467804 0.9902733564376831
0.08340086042881012 -0.2579396665096283 0.9786657691001892
-0.08415867388248444 -0.47176018357276917 1.070298671722412
-0.10248831659555435 -0.48958638310432434 1.0822540521621704
-0.10746156424283981 -0.5031623840332031 1.0992382764816284
0.06633579730987549 -0.3029012680053711 1.0664786100387573
0.05478337034583092 -0.31407493352890015 1.0705586671829224
0.05133473128080368 -0.3263069987297058 1.067610502243042
-0.014291025698184967 -0.40734732151031494 1.1319975852966309
-0.018671633675694466 -0.4135645925998688 1.1244986057281494
-0.0466613806784153 -0.44769102334976196 1.1398979425430298
-0.005264425650238991 -0.3849397301673889 1.112561821937561
-0.059760890901088715 -0.45271769165992737 1.0828453302383423
-0.08289500325918198 -0.4758562445640564 1.0865126848220825
0.06925038248300552 -0.30261799693107605 1.062092900276184
-0.006889140233397484 -0.4010365605354309 1.0969223976135254
0.004963969811797142 -0.3866419196128845 1.0881959199905396
-0.014193285256624222 -0.4108893573284149 1.1044682264328003
-0.10211054235696793 -0.5112001299858093 1.1341361999511719
-0.09621849656105042 -0.5030634999275208 1.1210951805114746
-0.016120877116918564 -0.38861584663391113 1.0458297729492188
-0.012239063158631325 -0.39326104521751404 1.0595512390136719
-0.02401003986597061 -0.40375736355781555 1.0662990808486938
-0.017540931701660156 -0.40823400020599365 1.075357437133789
0.02972855046391487 -0.35098201036453247 1.0732753276824951
0.002898912876844406 -0.3741297423839569 1.0864264965057373
-0.04846019670367241 -0.44820302724838257 1.1215102672576904
-0.05854358524084091 -0.4665827751159668 1.1200075149536133
-0.06942783296108246 -0.46574169397354126 1.1261223554611206
-0.0480617918074131 -0.44517502188682556 1.094855546951294
-0.05318254604935646 -0.45198601484298706 1.0912864208221436
0.014225032180547714 -0.3675819933414459 1.0415222644805908
0.0013492610305547714 -0.37918710708618164 1.047238826751709
0.009074834175407887 -0.35758310556411743 1.0254299640655518
0.0017779171466827393 -0.3761191964149475 1.036784291267395
-0.009287262335419655 -0.3824273347854614 1.0482816696166992
0.025252655148506165 -0.3533799946308136 1.048978328704834
0.03609534353017807 -0.345366895198822 1.0505741834640503
0.03244289010763168 -0.3325309157371521 1.0216635465621948
0.03309527412056923 -0.34218019247055054 1.0383387804031372
-0.05837657302618027 -0.4592793583869934 1.0978602170944214
-0.06569280475378036 -0.4725797176361084 1.1080132722854614
-0.06617395579814911 -0.4648936092853546 1.0997068881988525
-0.055497802793979645 -0.4718135595321655 1.1039578914642334
0.10042410343885422 -0.26472046971321106 1.0057088136672974
-0.06098073720932007 -0.4172922968864441 1.1111444234848022
-0.07350390404462814 -0.42673414945602417 1.1051424741744995
-0.026446718722581863 -0.37463322281837463 1.0872528553009033
-0.026757624000310898 -0.3733280301094055 1.0828604698181152
-0.037298157811164856 -0.38294655084609985 1.0935951471328735
-0.03191250562667847 -0.37827980518341064 1.0825060606002808
-0.03520254045724869 -0.38594675064086914 1.0921365022659302
-0.004625681787729263 -0.35385197401046753 1.0608141422271729
-0.014986196532845497 -0.3596826493740082 1.0638618469238281
0.004173154942691326 -0.34093785285949707 1.053837537765503
-0.03270159661769867 -0.3865523040294647 1.098423957824707
-0.07660744339227676 -0.4485973119735718 1.0794371366500854
-0.0852155014872551 -0.45734307169914246 1.1050618886947632
-0.030234485864639282 -0.37867945432662964 1.0602178573608398
-0.09875241667032242 -0.4701562523841858 1.122275948524475
-0.10822055488824844 -0.4898112714290619 1.1233723163604736
-0.09566157311201096 -0.478534996509552 1.111810564994812
-0.1130789965391159 -0.5011979937553406 1.137016773223877
0.09541294723749161 -0.23581819236278534 1.0109492540359497
0.08856318891048431 -0.2684277892112732 1.0844330787658691
0.0770845040678978 -0.2701296806335449 1.0783448219299316
0.08323155343532562 -0.2730199694633484 1.08568274974823
0.041130512952804565 -0.29363784193992615 1.003239631652832
