-0.5003452301025391 0.14825160801410675 1.4267796277999878
-0.243076354265213 0.06646332144737244 1.0451027154922485
-0.22922585904598236 0.06292204558849335 1.0158270597457886
-0.2185811549425125 0.0564105249941349 1.047586441040039
-0.18218299746513367 0.06424588710069656 1.0911203622817993
-0.1434890329837799 0.045317888259887695 1.2452514171600342
-0.15171778202056885 0.028213411569595337 1.2462620735168457
0.35317713022232056 -0.07253159582614899 1.3743000030517578
0.37698137760162354 -0.07923057675361633 1.4236127138137817
0.5224318504333496 -0.15016581118106842 1.0305413007736206
0.520861029624939 -0.14922663569450378 0.955029308795929
0.47584035992622375 -0.152821347117424 1.1367690563201904
0.5030705332756042 -0.2133284956216812 0.8499839901924133
0.5397719740867615 -0.16565881669521332 1.1062207221984863
0.529771625995636 -0.14685788750648499 1.1931405067443848
0.6110258102416992 -0.19363181293010712 1.0295219421386719
0.6099803447723389 -0.20907407999038696 0.966545581817627
0.6185221076011658 -0.25737622380256653 0.8002521395683289
0.5734268426895142 -0.27426719665527344 0.7170949578285217
0.634829044342041 -0.23698760569095612 0.7901434898376465
-0.20255298912525177 -0.07353939116001129 0.5422173142433167
-0.16155627369880676 -0.0527678057551384 0.5428615212440491
-0.2699471116065979 -0.043666377663612366 0.7529644966125488
-0.20400387048721313 -0.07335272431373596 0.6052628755569458
-0.16418442130088806 -0.07146959751844406 0.6036161184310913
-0.27726316452026367 0.02220403030514717 0.9104304313659668
-0.23286038637161255 0.06083367392420769 1.1923233270645142
-0.21766650676727295 0.05944475904107094 1.1390132904052734
-0.2147897630929947 0.06858190894126892 1.1117620468139648
-0.2010706067085266 0.04790284484624863 1.1880100965499878
-0.17106395959854126 0.03351739048957825 1.1228605508804321
-0.1658046543598175 0.048567041754722595 1.1111385822296143
0.2488246113061905 -0.02122998982667923 1.11677086353302
0.45619380474090576 -0.14843474328517914 1.0670052766799927
0.48621517419815063 -0.18256177008152008 1.0622823238372803
0.4971626400947571 -0.1987694799900055 1.0197303295135498
0.5883444547653198 -0.25099068880081177 0.8509566783905029
-0.26650577783584595 -0.029887115582823753 0.6072241067886353
-0.25540095567703247 -0.056443557143211365 0.5771030783653259
-0.2491026222705841 -0.045863937586545944 0.5713750720024109
-0.29925763607025146 0.03463711962103844 0.7931668162345886
-0.25256118178367615 -0.026766035705804825 0.7723543643951416
-0.26936542987823486 -0.02684665098786354 0.8243566155433655
-0.1695389598608017 0.04041041433811188 1.2075579166412354
-0.14395859837532043 0.038011133670806885 1.3147504329681396
-0.13228297233581543 0.0416291207075119 1.303306221961975
0.13654622435569763 -0.028977233916521072 1.2517609596252441
0.1875547170639038 0.003957871347665787 1.6253366470336914
0.34687966108322144 -0.015559308230876923 1.5660736560821533
0.36772799491882324 -0.035966936498880386 1.583188533782959
0.418981671333313 -0.054899562150239944 1.5140348672866821
0.5703026652336121 -0.11809767037630081 1.2648942470550537
0.5949421525001526 -0.11657250672578812 1.2994635105133057
0.59521484375 -0.10280527919530869 1.239988923072815
0.5970617532730103 -0.12997570633888245 1.2240698337554932
0.6246618032455444 -0.11637424677610397 1.240179181098938
-0.4516819715499878 0.11550602316856384 0.9391824007034302
-0.4322090446949005 0.12459805607795715 0.9227527976036072
-0.5166214108467102 0.17071561515331268 1.185983419418335
-0.49489426612854004 0.17207473516464233 1.1734352111816406
-0.20133435726165771 -0.02023371309041977 0.559559166431427
-0.1815606951713562 -0.03751968592405319 0.5199349522590637
-0.23801037669181824 -0.06917186081409454 0.643028736114502
-0.2759585678577423 0.019095618277788162 0.7473191618919373
-0.34838777780532837 0.07901255786418915 0.9561597108840942
-0.49781256914138794 0.15442919731140137 1.4775580167770386
0.24561844766139984 -0.025758562609553337 1.1816160678863525
0.266006201505661 -0.013996722176671028 1.4038991928100586
0.3845674991607666 -0.07343924045562744 1.1265079975128174
0.37209129333496094 -0.048558309674263 1.2522534132003784
0.4216155409812927 -0.09992469847202301 1.0588862895965576
0.43804025650024414 -0.11618857830762863 1.0084885358810425
0.4242161810398102 -0.1300085186958313 1.0890872478485107
0.5220034122467041 -0.1897733211517334 0.8057536482810974
0.5266904234886169 -0.2060198187828064 0.7959049344062805
0.5268058776855469 -0.24881809949874878 0.8620279431343079
0.5972567796707153 -0.1777220368385315 1.0276432037353516
0.6266783475875854 -0.2021767944097519 0.8106668591499329
-0.22227701544761658 -0.06135403364896774 0.5466450452804565
-0.1751721352338791 -0.06286901235580444 0.5117680430412292
-0.2158927172422409 0.07569694519042969 1.0185281038284302
-0.19130124151706696 0.07609455287456512 1.110438585281372
-0.17137151956558228 0.04545867443084717 1.164707899093628
0.5998395085334778 -0.19534249603748322 0.8455517888069153
0.6232220530509949 -0.2509401738643646 0.6149256825447083
0.6283775568008423 -0.2545372247695923 0.629457950592041
-0.29711875319480896 -0.029655303806066513 0.7881150245666504
-0.22122755646705627 -0.028663521632552147 0.723009467124939
-0.20282581448554993 -0.05268268659710884 0.68155837059021
0.45376160740852356 -0.0759902372956276 1.4374375343322754
0.6377728581428528 -0.23181046545505524 0.6214856505393982
0.6425897479057312 -0.22467945516109467 0.9313507080078125
-0.23530414700508118 0.09439275413751602 1.256209135055542
0.6265794038772583 -0.19056656956672668 1.0198206901550293
-0.2328934669494629 -0.0025496482849121094 0.7970314025878906
0.534632682800293 -0.2814704477787018 0.6743875741958618
0.6137175559997559 -0.18741998076438904 1.0083812475204468
-0.2868378162384033 -0.056064970791339874 0.7542306184768677
-0.3588416576385498 -0.12533161044120789 0.9638000726699829
-0.3649275600910187 -0.12165969610214233 0.9739589095115662
-0.34710991382598877 -0.1432810127735138 0.9730396866798401
-0.3562508523464203 -0.14090076088905334 0.9823735952377319
-0.3344908058643341 -0.09582396596670151 1.0308350324630737
-0.3405236303806305 -0.11011840403079987 1.009976863861084
-0.33126020431518555 -0.10074613988399506 0.9805622100830078
-0.3289259076118469 -0.07250969856977463 1.0123546123504639
-0.33041802048683167 -0.12532775104045868 1.0147944688796997
-0.33310839533805847 -0.15261906385421753 1.0041357278823853
-0.3174508810043335 -0.06376740336418152 1.0897234678268433
-0.31378117203712463 -0.15175800025463104 1.0065841674804688
-0.3275487720966339 -0.11887387186288834 1.0058597326278687
-0.31581807136535645 -0.13444040715694427 1.0422136783599854
-0.316250205039978 -0.11162634938955307 1.0355348587036133
-0.30669867992401123 -0.05277680978178978 1.0598633289337158
-0.3101120591163635 -0.10228104889392853 1.0342938899993896
-0.3096655011177063 -0.1090209111571312 1.0588206052780151
-0.3135300576686859 -0.08711642771959305 1.0865789651870728
-0.3289960026741028 -0.048925966024398804 1.1203612089157104
-0.32125288248062134 -0.09811429679393768 1.1158924102783203
-0.2956697940826416 -0.0007143812254071236 1.1461296081542969
-0.3033319115638733 -0.012669617310166359 1.1035407781600952
-0.31892603635787964 -0.04942744970321655 1.1547642946243286
-0.2720290422439575 -0.010190103203058243 1.0926039218902588
-0.2754771411418915 -0.03300706669688225 1.2042992115020752
-0.29072195291519165 -0.09237156808376312 1.1631908416748047
-0.2716817259788513 0.008673558942973614 1.1355946063995361
-0.24240659177303314 0.001390022225677967 1.1457922458648682
-0.24468886852264404 0.009045219048857689 1.202022910118103
-0.2223057597875595 0.008975286036729813 1.2005727291107178
-0.21711961925029755 -0.04142536595463753 1.2722382545471191
-0.25581541657447815 -0.07174713909626007 1.2076289653778076
-0.21232865750789642 0.014750104397535324 1.244400978088379
-0.23924505710601807 -0.012104060500860214 1.252140998840332
-0.20005905628204346 0.011430848389863968 1.2824676036834717
-0.1855187714099884 0.009310279041528702 1.3172893524169922
-0.18011334538459778 -0.03744605928659439 1.323987603187561
-0.2111704796552658 -0.08009061962366104 1.2309834957122803
-0.18574565649032593 0.0513666570186615 1.703655481338501
-0.12626972794532776 0.10121886432170868 1.3833264112472534
-0.12862929701805115 0.06613047420978546 0.8640426397323608
-0.17455680668354034 0.016557760536670685 0.8728155493736267
-0.1513705551624298 -0.0757911205291748 0.876409649848938
-0.19471630454063416 -0.1037490963935852 0.8682348728179932
-0.1675446331501007 0.0652371197938919 1.6145179271697998
-0.194504052400589 0.04054875299334526 1.7246768474578857
-0.1615864634513855 0.04566805064678192 1.6765121221542358
-0.14116910099983215 0.07583014667034149 1.6303668022155762
-0.15103915333747864 0.057064320892095566 1.579038143157959
-0.1152360588312149 -0.0021025240421295166 1.0301969051361084
-0.15285122394561768 -0.049683552235364914 0.9946860074996948
-0.1594381034374237 -0.11771410703659058 0.9819583892822266
-0.14936193823814392 0.038869909942150116 1.512343168258667
-0.28890717029571533 -0.06435826420783997 0.06250649690628052
-0.3047829866409302 -0.124315544962883 0.028054825961589813
-0.30919918417930603 -0.14886239171028137 0.04543117433786392
-0.1533288061618805 -0.026512794196605682 1.3710540533065796
-0.14292532205581665 0.013543318957090378 1.318917989730835
-0.13749773800373077 -0.012661803513765335 1.299566626548767
-0.16166077554225922 -0.037345852702856064 1.3593151569366455
-0.14502167701721191 -0.08085200190544128 1.3150217533111572
-0.22663505375385284 -0.0288938470184803 0.4781655967235565
-0.22717662155628204 -0.05696191266179085 0.39390915632247925
-0.2397926151752472 -0.004403331317007542 0.3326289653778076
-0.24570626020431519 -0.031308356672525406 0.36052578687667847
-0.15477582812309265 0.0551043264567852 1.646283507347107
-0.13985328376293182 -0.05268244445323944 1.2683380842208862
-0.14296500384807587 -0.062214694917201996 1.2266769409179688
-0.1461358219385147 -0.08636818081140518 1.257068395614624
-0.16974341869354248 -0.09939182549715042 1.2579225301742554
-0.2356383353471756 0.0059117949567735195 0.25820186734199524
-0.15265965461730957 -0.02442224882543087 1.5069153308868408
-0.13610275089740753 0.04416352137923241 1.5131840705871582
-0.14517106115818024 0.015146896243095398 1.5051716566085815
-0.19517503678798676 -0.06566241383552551 0.5763784050941467
-0.10957914590835571 0.03558247536420822 1.7376023530960083
-0.12973126769065857 -0.10748019814491272 1.1956102848052979
-0.117404043674469 -0.0360063873231411 1.1451449394226074
-0.13594083487987518 -0.12429274618625641 0.744308590888977
-0.1100531741976738 0.08526494354009628 1.6903579235076904
-0.13263945281505585 -0.056790970265865326 1.382584571838379
-0.1039181798696518 -0.11859394609928131 0.8489840030670166
-0.13859246671199799 -0.13045792281627655 0.8705848455429077
-0.12263607978820801 -0.19703933596611023 0.9091992378234863
-0.1061086505651474 -0.2127913236618042 0.8471709489822388
-0.28253304958343506 -0.18751922249794006 0.06301843374967575
-0.07322762906551361 0.10263004899024963 1.6899884939193726
-0.10318513214588165 0.04547885060310364 1.7227376699447632
-0.15080271661281586 -0.0015340261161327362 1.421012043952942
-0.1340417116880417 -0.02676047384738922 1.4655580520629883
-0.2048741728067398 0.01706121489405632 0.32715293765068054
-0.23323048651218414 -0.007940049283206463 0.2097761034965515
-0.2717544734477997 -0.18480470776557922 0.10633163154125214
-0.238570898771286 -0.002862730994820595 0.06883091479539871
-0.11228583753108978 -0.009403817355632782 1.3044588565826416
-0.17612959444522858 -0.09209612756967545 0.549019455909729
-0.2378864735364914 -0.14648346602916718 0.005620868876576424
-0.2784274220466614 -0.14683561027050018 0.0022952761501073837
-0.10265007615089417 0.03476320579648018 1.5284315347671509
-0.10899347066879272 0.006357293576002121 1.4859237670898438
-0.032888416200876236 -0.21498525142669678 0.9011019468307495
-0.07797704637050629 0.08881531655788422 0.8607039451599121
-0.2324841171503067 -0.10980921238660812 0.2705802321434021
-0.21001945436000824 -0.1074325293302536 0.1947786509990692
-0.21712659299373627 -0.011722147464752197 0.1108684316277504
-0.09697465598583221 -0.009343471378087997 1.2699915170669556
-0.1057186871767044 -0.02887539006769657 1.22991144657135
-0.07955870777368546 -0.1275559812784195 1.2967863082885742
-0.14099904894828796 -0.02567319944500923 0.668685793876648
-0.11930417269468307 -0.12629763782024384 0.7364031076431274
-0.07477778941392899 -0.1178908571600914 0.8102121353149414
-0.20125453174114227 -0.11593510210514069 0.16101619601249695
-0.2254943996667862 -0.17861512303352356 0.07067491859197617
-0.1289292722940445 -0.0780075192451477 1.458063006401062
-0.09640701115131378 -6.222352385520935e-05 1.338840365409851
-0.06710460782051086 -0.006264157593250275 1.2761969566345215
-0.14565834403038025 -0.09404000639915466 0.5714387893676758
-0.12362540513277054 -0.07464130222797394 0.5711867809295654
-0.1621483862400055 0.02164328098297119 0.5143384337425232
-0.10158229619264603 -0.06557871401309967 1.4293311834335327
-0.07466466724872589 -0.028761345893144608 1.4147330522537231
-0.1030733659863472 0.014294479042291641 1.3782806396484375
-0.13529552519321442 -0.015903454273939133 0.5194990634918213
-0.06125907972455025 0.056336142122745514 1.7280224561691284
-0.12501917779445648 -0.11863906681537628 1.58707857131958
-0.03824591264128685 -0.1880284696817398 0.9789433479309082
-0.08013008534908295 -0.038947612047195435 1.4275736808776855
-0.060157060623168945 -0.06779554486274719 1.4125065803527832
-0.07996751368045807 -0.051687464118003845 1.4065240621566772
-0.07359862327575684 -0.11857485771179199 1.521209955215454
-0.109673872590065 -0.10874953866004944 1.469722032546997
-0.054510414600372314 -0.009456399828195572 1.4380155801773071
-0.10499457269906998 -0.04017561301589012 0.6384472250938416
-0.021763276308774948 0.010159596800804138 1.7469995021820068
-0.029587168246507645 0.11083249002695084 1.661642074584961
-0.0628848671913147 -0.13505497574806213 1.47212553024292
-0.07531294971704483 -0.11026759445667267 1.4281353950500488
-0.03810922056436539 -0.01971498131752014 1.4143192768096924
-0.049444276839494705 -0.1152242124080658 1.4294158220291138
-0.009698037058115005 -0.0020478181540966034 1.3922295570373535
-0.027805766090750694 -0.02085902914404869 1.2690682411193848
-0.01645451784133911 0.062555231153965 1.7258961200714111
-0.02006794698536396 -0.021047523245215416 1.4414869546890259
-0.025484614074230194 -0.0622582770884037 1.4271278381347656
0.013010039925575256 0.07566994428634644 1.689713478088379
-0.009439188987016678 0.01951609179377556 1.7309901714324951
-0.020739711821079254 -0.05408215522766113 1.4165635108947754
0.0074127353727817535 -0.08472108840942383 1.4509165287017822
-0.014691431075334549 -0.03494330123066902 1.4213910102844238
0.0780910849571228 -0.09136379510164261 0.5914155840873718
0.011755920946598053 0.001601576805114746 1.4729297161102295
0.11445165425539017 -0.11176027357578278 0.5082818269729614
-0.007298708893358707 -0.16630738973617554 1.2563897371292114
0.04338547959923744 -0.051460545510053635 1.248465895652771
0.04579413682222366 -0.07546615600585938 1.1392676830291748
0.14783525466918945 -0.14292852580547333 0.07206525653600693
0.163085475564003 -0.13620588183403015 0.05123918876051903
0.13388130068778992 -0.009268738329410553 0.07924644649028778
0.007210288196802139 -0.15091150999069214 1.2426254749298096
-0.00223618745803833 -0.18997250497341156 1.168297290802002
0.0723465085029602 -0.14078116416931152 0.7308608293533325
0.1303389072418213 -0.062301427125930786 0.053729817271232605
0.03799480199813843 0.009611442685127258 1.6910665035247803
-0.00809396430850029 -0.1316312551498413 1.5950496196746826
-0.009974237531423569 -0.11463762819766998 1.5119197368621826
-0.00904669240117073 -0.11482052505016327 1.4692208766937256
0.09695768356323242 -0.16213476657867432 0.8770644664764404
0.08521156013011932 -0.0007939264178276062 1.7194163799285889
0.01704132929444313 0.0002144947648048401 1.5236592292785645
0.015041721984744072 -0.02030959725379944 1.4945402145385742
0.13702864944934845 -0.023847244679927826 0.3273598253726959
0.1292867362499237 -0.016167733818292618 0.2649897038936615
0.14620912075042725 -0.0007418841123580933 0.06102670356631279
0.02960691601037979 -0.0040781497955322266 1.7736892700195312
0.048258356750011444 -0.02220866084098816 1.3928191661834717
0.0977342426776886 -0.2194843292236328 0.8635612726211548
0.08802256733179092 -0.13269218802452087 0.8639763593673706
0.12860660254955292 -0.19618453085422516 0.865633487701416
0.09661933779716492 -0.04004259407520294 0.7518507242202759
0.18946637213230133 -0.13621120154857635 0.06353785842657089
0.048070959746837616 -0.0014884769916534424 1.7018990516662598
0.03285427391529083 -0.1625739336013794 1.136346459388733
0.035065390169620514 -0.1385238766670227 1.2591502666473389
0.035057779401540756 -0.15490096807479858 1.2567065954208374
0.12427368760108948 -0.19013848900794983 0.9325029253959656
0.03464847803115845 -0.0727044939994812 1.5338704586029053
0.04581644386053085 -0.0003055185079574585 1.5353327989578247
0.041240498423576355 -0.02545415237545967 1.5209861993789673
0.046652402728796005 -0.041164517402648926 1.5163366794586182
0.05352191627025604 -0.05338873714208603 1.4931972026824951
0.1374180018901825 -0.06596159934997559 0.6500781774520874
0.1354142725467682 -0.13126903772354126 0.6694402694702148
0.05883428454399109 -0.057845357805490494 1.3761930465698242
0.06456433236598969 -0.01409166306257248 1.3157405853271484
0.03400986269116402 -0.015624120831489563 1.3339014053344727
0.04284293204545975 -0.03590097278356552 1.3095226287841797
0.1246090978384018 -0.11935766786336899 0.832055926322937
0.19094985723495483 -0.01939115673303604 0.06402561813592911
0.20362690091133118 -0.04387594386935234 0.05996262654662132
0.05663137882947922 -0.009334750473499298 1.656457543373108
0.07227157056331635 -0.03474944829940796 1.3680708408355713
0.20002180337905884 -0.07062887400388718 0.3128952980041504
0.08189065009355545 0.006563946604728699 1.6332491636276245
0.06058365851640701 0.03359115496277809 1.6382498741149902
0.06818763166666031 0.004241369664669037 1.602177619934082
0.20673544704914093 -0.049068134278059006 0.1366300731897354
0.21367931365966797 -0.10330003499984741 0.06432946026325226
0.20280003547668457 -0.13215026259422302 0.0916246771812439
0.1507861316204071 -0.01633244752883911 0.9722949266433716
0.14998891949653625 -0.01685129664838314 0.8738216161727905
0.08217915147542953 -0.0176653191447258 1.7148488759994507
0.16696664690971375 0.03646743297576904 0.8803116679191589
0.17870217561721802 -6.431201472878456e-05 0.9435292482376099
0.08751651644706726 -0.024726074188947678 1.3106833696365356
0.09694381058216095 -0.045293111354112625 1.2981934547424316
0.06941832602024078 -0.060128238052129745 1.3457063436508179
0.0980006605386734 -0.035416197031736374 1.2569470405578613
0.08804117143154144 -0.03793615847826004 1.236971139907837
0.09809732437133789 -0.11170998215675354 1.2270841598510742
0.11168152093887329 -0.06897134333848953 1.25931715965271
0.13273566961288452 -0.05002925544977188 1.1930568218231201
0.1467169225215912 -0.06027738377451897 1.1182705163955688
0.1705750823020935 -0.07516536116600037 1.1325796842575073
0.1570306271314621 -0.08678807318210602 1.1839901208877563
0.1277504861354828 -0.11878721415996552 1.204492211341858
0.17335614562034607 -0.10037676990032196 1.0820037126541138
0.18639135360717773 -0.16048011183738708 1.1374214887619019
0.19559846818447113 -0.14135323464870453 1.1169376373291016
0.18826469779014587 -0.1165396198630333 1.0895531177520752
0.14150768518447876 -0.19390419125556946 1.1230632066726685
0.16648636758327484 -0.16741332411766052 1.0892510414123535
0.16837826371192932 -0.14975467324256897 1.0744855403900146
0.19790826737880707 -0.23515331745147705 0.9786669015884399
0.1448187679052353 -0.18170973658561707 1.0903230905532837
0.14469033479690552 -0.20090773701667786 1.0621426105499268
0.18457962572574615 -0.18589186668395996 1.0070710182189941
0.1496303528547287 -0.19164857268333435 1.036425232887268
0.1417502462863922 -0.21737845242023468 1.0413137674331665
0.1651971936225891 -0.21619269251823425 1.0118125677108765
0.18193644285202026 -0.22275444865226746 1.0075584650039673
0.1365858018398285 -0.23849967122077942 1.0164949893951416
0.15977726876735687 -0.23527801036834717 1.0072788000106812
0.14772695302963257 -0.23468054831027985 1.0163154602050781
0.19050605595111847 -0.2406214475631714 0.9594419598579407
0.15333640575408936 -0.24950356781482697 1.0044302940368652
0.1754039227962494 -0.22336658835411072 0.9726966023445129
0.17461830377578735 -0.25538069009780884 0.9729582667350769
0.1901201605796814 -0.25039607286453247 0.9754494428634644
-0.30749812722206116 -0.043700724840164185 1.0837053060531616
-0.2989282011985779 -0.09747876971960068 1.0721662044525146
-0.2860209345817566 -0.08185213804244995 1.0690762996673584
-0.3027642071247101 -0.11353974789381027 1.1083500385284424
-0.2553873062133789 -0.043172117322683334 1.0785633325576782
-0.2783033847808838 -0.1156306341290474 1.0913666486740112
-0.2014220654964447 -0.010032176971435547 1.2222671508789062
-0.20050334930419922 -0.06182146817445755 1.2000861167907715
-0.17146405577659607 -0.09641268104314804 0.9614640474319458
-0.17552286386489868 -0.014720018953084946 0.9429928064346313
-0.1256294846534729 0.051057118922472 0.9274819493293762
-0.08696773648262024 0.14114458858966827 1.251272439956665
-0.08000149577856064 0.13887229561805725 1.1935093402862549
-0.07642121613025665 0.16223765909671783 1.168407917022705
-0.15015627443790436 -0.011102041229605675 0.9626084566116333
-0.19741186499595642 0.03511650115251541 1.6942521333694458
-0.1518891155719757 0.003968097269535065 1.3384990692138672
-0.1719878911972046 0.004094917327165604 1.2739007472991943
-0.01297061238437891 0.1517755687236786 1.0749309062957764
-0.034355681389570236 0.15577931702136993 0.996753454208374
-0.2908887267112732 -0.0806727483868599 0.12204296886920929
-0.3098182678222656 -0.1327177882194519 0.07349522411823273
-0.17540165781974792 0.02282341569662094 1.6780630350112915
-0.16026714444160461 0.03573935851454735 1.6246850490570068
-0.1573508083820343 -0.12195944786071777 1.2336337566375732
-0.1573515087366104 -0.13754209876060486 1.2085257768630981
-0.1619119793176651 -0.15699073672294617 1.203730583190918
-0.09684039652347565 0.10334668308496475 1.360318899154663
-0.08881819248199463 0.09560514241456985 1.3566230535507202
-0.13831590116024017 -0.12515118718147278 1.2491081953048706
-0.14643581211566925 -0.055581796914339066 1.193098783493042
-0.2618749737739563 -0.09774082899093628 0.18630047142505646
-0.26976197957992554 -0.052844077348709106 0.19484196603298187
-0.040369074791669846 0.11823509633541107 1.2459399700164795
-0.15766793489456177 -0.01369008794426918 1.432831048965454
-0.15587696433067322 -0.008050236850976944 1.4125194549560547
-0.14270278811454773 -0.010987073183059692 1.3955368995666504
-0.1571769118309021 -0.006476137787103653 1.3926568031311035
-0.15728995203971863 -0.023810211569070816 1.3826401233673096
-0.148561492562294 -0.10880425572395325 0.7910617589950562
-0.16093693673610687 -0.07004103064537048 0.7865715026855469
-0.002015216276049614 0.20706787705421448 1.0863220691680908
-0.005256614647805691 0.20466254651546478 1.1350351572036743
-0.12932385504245758 -0.11847123503684998 1.2437763214111328
-0.12688466906547546 -0.109319306910038 0.8630779981613159
-0.2635708749294281 -0.018043164163827896 0.1182442158460617
-0.2687873840332031 -0.018558412790298462 0.08084765076637268
-0.13818158209323883 -0.1847010850906372 0.849074125289917
-0.03711891174316406 0.17710915207862854 1.2296748161315918
-0.16036295890808105 -0.08726444840431213 1.5848467350006104
-0.12726640701293945 0.020891204476356506 1.509703516960144
-0.09071405977010727 0.10137461125850677 1.4842619895935059
-0.09318715333938599 0.06716784834861755 1.5387024879455566
-0.11355151236057281 0.06767074018716812 1.5130176544189453
-0.09774331003427505 0.08445597440004349 1.4317995309829712
-0.04653826728463173 0.12024232000112534 1.528479814529419
-0.12033623456954956 -0.01320122554898262 1.4618282318115234
-0.08376005291938782 0.04364612698554993 0.9710097908973694
-0.1377393901348114 0.02845131605863571 1.7755086421966553
-0.14623624086380005 0.023022763431072235 1.7692046165466309
-0.15244150161743164 0.012604944407939911 1.7558608055114746
-0.016907045617699623 0.06403978168964386 1.427424430847168
-0.06712880730628967 0.11545313149690628 1.4037559032440186
-0.20794492959976196 -0.08212203532457352 0.043777093291282654
-0.015551015734672546 0.15049274265766144 1.3536869287490845
-0.1268596351146698 -0.08878086507320404 1.49967622756958
-0.17856796085834503 -0.05834311619400978 0.39639097452163696
-0.058634307235479355 0.06406004726886749 1.4837220907211304
-0.0836254432797432 0.02615772932767868 1.4644978046417236
-0.02423464134335518 0.12528449296951294 1.4522228240966797
-0.03238755837082863 0.05050855875015259 0.8545626401901245
-0.1874418556690216 0.003845277475193143 0.34744012355804443
0.0426272451877594 0.16625124216079712 1.0008208751678467
-0.03075171634554863 0.03467879444360733 1.02947199344635
-0.1113743931055069 -0.14993834495544434 1.2431108951568604
-0.10460547357797623 -0.15199130773544312 1.1457467079162598
-0.17608803510665894 -0.02420404553413391 0.3247425854206085
-0.16148586571216583 -0.03870046138763428 0.26241299510002136
-0.19192704558372498 0.010510321706533432 0.2578461468219757
-0.06504446268081665 0.04714334383606911 1.4997562170028687
-0.09127023816108704 -0.10177500545978546 0.6867424845695496
-0.1170099601149559 -0.027775105088949203 0.6598793864250183
0.04655002802610397 0.20638221502304077 1.1276662349700928
0.05318398028612137 0.19875869154930115 1.0471141338348389
-0.060054961591959 -0.18555772304534912 1.1708334684371948
-0.19013088941574097 -0.06734426319599152 0.12699101865291595
0.04111895337700844 0.15098628401756287 1.0366460084915161
0.030401749536395073 0.12984316051006317 1.0715848207473755
0.0007916949689388275 0.04230237007141113 1.4935210943222046
-0.09334202110767365 -0.08506154268980026 1.3759568929672241
0.03616108372807503 0.1529465615749359 1.3372044563293457
0.027612848207354546 0.05381017178297043 1.418205738067627
-0.009209912270307541 0.03546391800045967 1.49306321144104
0.08749118447303772 0.13980618119239807 1.047370195388794
0.10534356534481049 0.12778976559638977 1.0035581588745117
-0.03183799237012863 -0.10215426981449127 1.3718783855438232
0.013414373621344566 0.03250730037689209 1.0278410911560059
-0.033105358481407166 -0.20098143815994263 1.1006450653076172
0.09402553737163544 0.1223750188946724 1.3619122505187988
0.008592411875724792 -0.01998627744615078 1.285627841949463
0.062001511454582214 0.09782366454601288 1.4591854810714722
0.027622487396001816 0.05466337502002716 1.4589906930923462
0.022225771099328995 -0.038296736776828766 1.199359655380249
0.045654747635126114 0.0923897996544838 0.9188064336776733
-0.014495421200990677 -0.02407866343855858 1.7121096849441528
0.1289658397436142 -0.11248606443405151 0.08215824514627457
0.1204870194196701 -0.1232440248131752 0.056311413645744324
0.12296402454376221 -0.05439838021993637 0.09375527501106262
-0.05137329921126366 -0.1340445727109909 1.5883554220199585
0.06887231767177582 -0.06233057379722595 0.7152590751647949
0.08220316469669342 0.0384395532310009 1.4291294813156128
0.018141308799386024 -0.052575334906578064 1.4605355262756348
0.05583612620830536 -0.038970571011304855 1.4111292362213135
0.01729312725365162 -0.010082785040140152 1.3891003131866455
0.1162509098649025 -0.037493277341127396 0.395058810710907
0.13834021985530853 -0.12479089200496674 0.23900213837623596
0.13428477942943573 -0.03851007670164108 0.19974258542060852
0.1483999639749527 0.12539026141166687 1.0551574230194092
0.1445336490869522 0.1507403552532196 1.0253080129623413
0.10580213367938995 -0.14582142233848572 0.7426998615264893
0.11204956471920013 -0.052180059254169464 0.6595554947853088
-0.017702914774417877 -0.07037937641143799 1.6965703964233398
0.0228358656167984 -0.08287321031093597 1.6548599004745483
0.1288008689880371 -0.13018956780433655 0.5521794557571411
0.007252519950270653 -0.018020570278167725 1.725999355316162
0.030603548511862755 -0.03502587601542473 1.676299810409546
0.057263463735580444 -0.1017874926328659 1.1346639394760132
0.06281057000160217 -0.09070809185504913 1.1089085340499878
0.05267622694373131 -0.16146014630794525 1.091202974319458
0.005422379821538925 -0.11898693442344666 1.5875670909881592
0.031364500522613525 -0.05348490551114082 1.4906830787658691
0.020182829350233078 -0.09278926998376846 1.4870737791061401
0.1859610378742218 0.10331141948699951 1.0188742876052856
0.049067173153162 -0.0978446677327156 1.2852880954742432
0.05762371048331261 -0.15959537029266357 1.2488784790039062
0.06039731949567795 -0.10809260606765747 1.2310643196105957
0.17454923689365387 -0.023293189704418182 0.15279437601566315
0.18959884345531464 -0.10598353296518326 0.17584697902202606
0.20400367677211761 -0.0931716337800026 0.16132870316505432
0.045555468648672104 -0.015488244593143463 1.700924038887024
0.05692659690976143 -0.10670694708824158 1.2878323793411255
0.18967054784297943 -0.040212083607912064 0.43617886304855347
0.169418066740036 -0.09496935456991196 0.48939862847328186
0.19779908657073975 -0.05506419762969017 0.3789384961128235
0.06763751804828644 -0.05543353408575058 1.4042927026748657
0.05463726818561554 -0.052837297320365906 1.4009294509887695
0.07426422834396362 -0.04486297816038132 1.3608895540237427
0.11780834197998047 0.06232087314128876 0.92677241563797
0.12902548909187317 -0.11726836860179901 0.8676214218139648
0.20263005793094635 -0.04175300896167755 0.2531932592391968
0.2192801982164383 -0.07228516787290573 0.2608780860900879
0.07704392075538635 -0.02676529437303543 1.3532028198242188
0.15824855864048004 0.05758996307849884 1.2810767889022827
0.1704459935426712 0.08200389891862869 1.259888768196106
0.06362006813287735 -0.2305687665939331 1.1485646963119507
0.1466989815235138 -0.06734360754489899 0.997954249382019
0.14846685528755188 -0.1244395300745964 0.9916571378707886
0.09933856874704361 -0.034006521105766296 1.1825876235961914
0.10515330731868744 -0.1482996940612793 1.0845093727111816
0.1259547472000122 -0.11344288289546967 1.0638948678970337
0.10805486887693405 -0.17570188641548157 1.1518161296844482
-0.29187339544296265 -0.05778148025274277 1.058919906616211
-0.30210980772972107 -0.11308779567480087 1.0438281297683716
-0.23708395659923553 -0.09597565978765488 1.135098934173584
-0.24848848581314087 -0.09553471952676773 1.1813433170318604
-0.21549665927886963 -0.06523003429174423 1.1443485021591187
-0.21293208003044128 -0.026924747973680496 1.1625168323516846
-0.1894325613975525 -0.1507900208234787 0.876246988773346
-0.06277962774038315 0.16520218551158905 1.035019874572754
-0.07553695142269135 0.1550864726305008 1.1314677000045776
-0.17166636884212494 -0.22068214416503906 1.1146714687347412
-0.1387730836868286 -0.1586512327194214 0.9530739784240723
-0.27470558881759644 -0.04097846895456314 0.2827455699443817
-0.2528775632381439 -0.09022683650255203 0.2972666323184967
-0.20048096776008606 0.013118183240294456 0.5011485815048218
-0.14904464781284332 -0.19080320000648499 0.8547698855400085
-0.17872266471385956 -0.04656010866165161 0.6432256102561951
-0.16796942055225372 -0.0904245376586914 0.6951712369918823
-0.14965644478797913 -0.03416856378316879 0.7024109363555908
-0.10238514095544815 -0.020861301571130753 1.0900710821151733
-0.11584033071994781 -0.07726705819368362 1.1123343706130981
0.0040722014382481575 0.19460025429725647 1.2022145986557007
-0.11228415369987488 -0.019401203840970993 0.8587195873260498
-0.20911338925361633 -0.1021651178598404 0.3092576265335083
-0.11750027537345886 -0.02524659037590027 1.1919879913330078
-0.09493337571620941 -0.04102654755115509 1.1222076416015625
-0.192319855093956 -0.07986955344676971 0.44919076561927795
-0.14150094985961914 0.008041467517614365 1.6949797868728638
-0.14900487661361694 -0.02592194825410843 1.6810117959976196
-0.11413012444972992 -0.06271672248840332 1.689403772354126
-0.13363520801067352 -0.09630481153726578 1.648038625717163
-0.14695701003074646 -0.0893108993768692 1.550478219985962
-0.18622738122940063 -0.05990247428417206 0.3415497839450836
-0.08348625153303146 -0.1153692826628685 0.7361053228378296
-0.16487279534339905 -0.06879004836082458 0.27017438411712646
-0.18317608535289764 -0.09758250415325165 0.2763872742652893
-0.20038004219532013 -0.017393989488482475 0.2053987979888916
-0.045199185609817505 0.0638800635933876 0.9604244828224182
-0.09753630310297012 0.0158931165933609 1.7388633489608765
-0.11532746255397797 0.00634288415312767 1.725769281387329
0.06846898049116135 0.11563879996538162 1.1883010864257812
-0.009709041565656662 0.13538610935211182 1.1827709674835205
0.04301206395030022 0.10770349204540253 1.239481806755066
-0.009031340479850769 -0.03775007277727127 1.2355881929397583
0.06619100272655487 0.1786370575428009 1.235726237297058
0.07273752242326736 0.12820883095264435 1.0771327018737793
0.12717580795288086 0.18213176727294922 1.1633646488189697
0.01281837746500969 0.098319411277771 1.636152982711792
0.10172929614782333 0.11170531809329987 1.0875399112701416
0.03864593803882599 -0.21784847974777222 0.9043266773223877
0.10398054122924805 -0.08717178553342819 0.2573257088661194
0.1346634179353714 -0.09901975095272064 0.19737042486667633
0.06735435128211975 -0.12970462441444397 0.6979842782020569
0.03179650381207466 0.003461517859250307 1.0647822618484497
0.09382757544517517 -0.048399172723293304 0.5685459971427917
0.09740610420703888 0.07558570057153702 1.3040895462036133
0.037669308483600616 -0.06411589682102203 1.3952200412750244
0.04274889454245567 0.08166694641113281 1.6007784605026245
0.030186636373400688 0.017636790871620178 1.5658316612243652
0.03579198569059372 0.03341519087553024 1.544464111328125
0.0011707581579685211 -0.012498512864112854 1.7719547748565674
0.03705549240112305 -0.08651355654001236 1.3333417177200317
0.1586695909500122 -0.018416834995150566 0.5012332797050476
0.12623482942581177 -0.005835229530930519 0.496757835149765
0.1545427441596985 -0.013895450159907341 0.3464539051055908
0.17703041434288025 -0.018106460571289062 0.3177414536476135
0.055042363703250885 -0.051463667303323746 1.4817254543304443
0.04238532483577728 -0.0600498802959919 1.491017460823059
0.05533662438392639 -0.05503108724951744 1.4754408597946167
0.13077685236930847 -0.05214102566242218 0.767223596572876
0.15091849863529205 -0.09530529379844666 0.6374563574790955
0.11692396551370621 0.022359663620591164 0.9674233198165894
0.09382370114326477 -0.08138824999332428 1.0889259576797485
0.08595126122236252 -0.1348426192998886 1.0772337913513184
0.09666496515274048 -0.15857574343681335 1.027219295501709
0.05769171565771103 -0.01782199740409851 1.6016771793365479
0.06961476802825928 -0.022547811269760132 1.5216295719146729
0.05254630744457245 -0.15246722102165222 1.2301313877105713
0.09369681775569916 0.04564030468463898 1.512022614479065
0.07915642857551575 0.018135562539100647 1.5507476329803467
0.2048880159854889 -0.023021548986434937 0.08821430802345276
0.2185238003730774 -0.06759302318096161 0.07529649138450623
0.10215321183204651 0.024219077080488205 1.4784682989120483
0.11068276315927505 0.036382969468832016 1.4484840631484985
0.12094666063785553 0.02499137446284294 1.4165455102920532
0.12402896583080292 0.03674859181046486 1.4027538299560547
0.06105995550751686 -0.23197433352470398 1.1672520637512207
0.17501947283744812 -0.15854838490486145 0.8818409442901611
0.07388024032115936 -0.20863288640975952 1.1787071228027344
0.07046451419591904 -0.2343619167804718 1.1680067777633667
0.20210103690624237 -0.11399484425783157 0.9018486142158508
0.2045315057039261 -0.09106777608394623 0.8824994564056396
0.21342942118644714 -0.05616830289363861 0.8927983641624451
-0.22073563933372498 -0.08822020888328552 1.1876150369644165
-0.18125700950622559 -0.08823751658201218 1.25108003616333
-0.18930578231811523 -0.08832955360412598 1.2355971336364746
-0.18103034794330597 -0.08023717254400253 1.2409374713897705
-0.17556625604629517 -0.07999881356954575 1.2579528093338013
-0.19471779465675354 0.0022269906476140022 0.8841727375984192
-0.15020178258419037 -0.04786326736211777 1.2754554748535156
-0.14591383934020996 -0.06421606242656708 1.062954306602478
-0.1308586597442627 0.09624359011650085 1.5179938077926636
-0.14864328503608704 -0.08244948834180832 1.183820128440857
-0.14787523448467255 -0.07721155881881714 1.1299822330474854
-0.09862830489873886 0.0973026230931282 1.415829062461853
-0.0820828527212143 0.09037595242261887 1.3796511888504028
-0.13520541787147522 -0.13969160616397858 1.026369333267212
-0.1011052206158638 -0.16499125957489014 0.9881680011749268
-0.13728851079940796 -0.027411911636590958 0.7875846028327942
-0.006296901497989893 0.17293649911880493 1.267289400100708
-0.07423865795135498 0.11768864095211029 1.6111351251602173
-0.19589188694953918 -0.03409641608595848 0.07133476436138153
-0.20967020094394684 -0.018824322149157524 0.06257832795381546
-0.08099737763404846 0.0247337706387043 0.8644403219223022
0.0015384554862976074 0.09388542175292969 0.8512222766876221
-0.06654141843318939 -0.02161744236946106 0.8433873653411865
0.0306292325258255 0.07840926200151443 1.3268210887908936
-0.05286239832639694 -0.08028896898031235 0.7618366479873657
-0.08436902612447739 -0.12126140296459198 1.5638097524642944
-0.006988829933106899 0.014154871925711632 0.8700611591339111
-0.00592218991369009 -0.027371685951948166 0.8489255905151367
0.01686997339129448 -0.11937472969293594 0.8540175557136536
-0.07814916968345642 -0.16261489689350128 0.8541750311851501
-0.00863572396337986 -0.22368405759334564 0.8467136025428772
0.0363086462020874 -0.11135997623205185 0.8336266875267029
-0.009649483487010002 -0.15982365608215332 0.8581224679946899
-0.01866726204752922 0.019197802990674973 1.4619667530059814
0.02875164896249771 -0.038050856441259384 0.8462556600570679
0.033564165234565735 -0.05070773512125015 0.8293999433517456
-0.005595121532678604 0.02544976770877838 1.5397392511367798
-0.0007127374410629272 0.03232009708881378 1.5157262086868286
0.044932521879673004 -0.12502647936344147 0.8495548963546753
0.1307888925075531 0.05596178397536278 0.8615360260009766
0.10501569509506226 -0.058745164424180984 0.2559245824813843
0.05457513406872749 -0.03585347160696983 0.8191667199134827
0.10280373692512512 0.10685965418815613 1.2170794010162354
0.13356797397136688 -0.0871385708451271 0.3816007971763611
0.130695641040802 -0.06978931277990341 0.3203626275062561
0.14690160751342773 -0.09139922261238098 0.3367854952812195
0.1447807252407074 -0.130000501871109 0.28030499815940857
0.08158814907073975 0.060897666960954666 1.4813411235809326
0.08157104253768921 -0.017498744651675224 0.8534916043281555
0.10850457847118378 -0.036364637315273285 0.8341383934020996
0.06148061156272888 -0.08095045387744904 1.2342934608459473
0.16457010805606842 -0.1013498604297638 0.4305213391780853
0.0645194947719574 0.03610463812947273 1.5859057903289795
0.047935254871845245 -0.037329208105802536 1.28118097782135
0.17764882743358612 -0.09061365574598312 0.33764949440956116
0.13187041878700256 0.16213752329349518 1.219154715538025
0.07074232399463654 -0.06453714519739151 1.207668423652649
0.1637464016675949 -0.028470980003476143 0.21087698638439178
0.17597472667694092 0.14801238477230072 1.1414821147918701
0.1616121381521225 -0.018000464886426926 0.24710863828659058
0.1888142228126526 -0.13053660094738007 0.2568703591823578
0.13260585069656372 0.05380066856741905 1.3263212442398071
0.06373916566371918 -0.03776272013783455 1.4386444091796875
0.07101443409919739 -0.03746974095702171 1.4074243307113647
0.061833903193473816 -0.03564488887786865 1.4392712116241455
0.08571981638669968 -0.03633200004696846 1.3873329162597656
0.06871315091848373 -0.1749720722436905 1.2174592018127441
0.05448880046606064 -0.18523600697517395 1.2116891145706177
0.16344328224658966 0.0708610936999321 1.239733099937439
0.19313693046569824 0.1002160906791687 1.1837390661239624
0.18836262822151184 0.09555673599243164 1.1506295204162598
0.07496398687362671 -0.051936328411102295 1.2381255626678467
0.06561432033777237 -0.08207421749830246 1.2536463737487793
0.15850041806697845 -0.18361984193325043 0.8912614583969116
0.07311545312404633 -0.09126915037631989 1.2653229236602783
0.06697426736354828 -0.12033499032258987 1.1654987335205078
0.09057098627090454 -0.06522879004478455 1.1421966552734375
0.0760033130645752 -0.10380532592535019 1.1326189041137695
0.12033639848232269 -0.15224707126617432 1.1829860210418701
0.14713777601718903 -0.1502881944179535 1.0543023347854614
0.11656497418880463 -0.18684084713459015 1.109017014503479
-0.17432042956352234 -0.20598120987415314 1.1522163152694702
-0.1677560955286026 -0.1405113935470581 1.1986355781555176
-0.1749071627855301 -0.1264066845178604 1.218622088432312
-0.1636333018541336 -0.19370336830615997 1.1543676853179932
-0.1158803179860115 0.10304141044616699 1.445048451423645
-0.12051936984062195 0.09129434078931808 1.428976058959961
-0.11578631401062012 0.10682611912488937 1.3868131637573242
-0.1639259159564972 0.010516874492168427 1.658782958984375
-0.16824458539485931 -0.022438380867242813 1.575209379196167
-0.24396833777427673 -0.057157449424266815 0.3399430513381958
-0.1325112134218216 -0.06784902513027191 0.8553358316421509
-0.13555870950222015 -0.09221503138542175 0.8365116119384766
-0.048299260437488556 0.17643435299396515 1.014723777770996
-0.11799237132072449 -0.11666715145111084 1.2369905710220337
-0.11915633082389832 -0.02981732413172722 0.8325424194335938
-0.11948270350694656 -0.009207535535097122 1.7044825553894043
-0.10980349034070969 -0.12063133716583252 1.118870735168457
-0.07870785892009735 -0.18174801766872406 1.1150422096252441
-0.004428388550877571 0.1506919115781784 1.11537504196167
0.0640084445476532 0.13052956759929657 1.1156799793243408
-0.0724429190158844 -0.027953654527664185 1.1374411582946777
-0.0548158697783947 -0.11479626595973969 0.8475185036659241
-0.06502670049667358 -0.18794071674346924 1.0482888221740723
-0.05157547444105148 0.014859884977340698 1.0494071245193481
-0.07456333190202713 -0.10970724374055862 1.6609225273132324
0.03611919283866882 -0.102366603910923 0.7692122459411621
-0.013354560360312462 0.09874730557203293 1.295480489730835
0.11771523207426071 -0.08315655589103699 0.051764316856861115
0.16698813438415527 0.16322238743305206 1.083111047744751
0.12435789406299591 0.12030935287475586 1.1370124816894531
0.12178954482078552 0.18985165655612946 1.0919303894042969
0.0995071679353714 0.0851755142211914 0.8623173236846924
0.17607909440994263 0.00350739061832428 0.07637505978345871
0.12321972846984863 -0.038662344217300415 0.860966145992279
0.16726841032505035 -0.09234249591827393 0.38926801085472107
0.06687039136886597 -0.05897534638643265 1.3761897087097168
0.05953210964798927 -0.0833396166563034 1.3026905059814453
0.19851288199424744 -0.0019740676507353783 0.8834206461906433
0.19466133415699005 -0.05295192450284958 0.9479339122772217
0.13454321026802063 -0.17619219422340393 1.0731585025787354
-0.2575867176055908 -0.10950301587581635 1.151431918144226
-0.1930534392595291 -0.08233451843261719 0.9372360110282898
-0.21100261807441711 -0.07236872613430023 0.8862795829772949
-0.11875469237565994 0.09254176914691925 1.3817470073699951
-0.0891357958316803 0.1205090880393982 1.2520211935043335
-0.14653317630290985 0.02315111830830574 1.4995462894439697
-0.139259934425354 -0.055549055337905884 1.031015396118164
-0.14621110260486603 -0.08523976802825928 1.0686699151992798
-0.14551202952861786 0.026054222136735916 1.4999924898147583
-0.1454692929983139 0.012927331030368805 1.4869427680969238
-0.1471012532711029 0.019664112478494644 1.495437741279602
-0.1479601263999939 0.01647191494703293 1.4973267316818237
-0.15403535962104797 0.005792457610368729 1.4871772527694702
-0.23781698942184448 -0.11716631799936295 0.18971467018127441
-0.16938664019107819 -0.05745644494891167 1.6236063241958618
-0.04611274600028992 -0.019188985228538513 1.1915522813796997
-0.20175530016422272 -0.1333145797252655 0.0645272433757782
-0.06457698345184326 -0.02359863370656967 1.2322437763214111
-0.01922774128615856 -0.03388796001672745 1.1495563983917236
-0.0348847396671772 0.09223165363073349 0.9232065677642822
-0.06369704008102417 -0.02464829385280609 1.7206484079360962
-0.07486684620380402 -0.06610107421875 0.7014883756637573
0.011639866046607494 0.09915335476398468 1.2649517059326172
-0.005251981317996979 -0.19248667359352112 0.9991763830184937
-0.06116678565740585 -0.18020838499069214 1.2149738073349
0.0666147768497467 0.11818940192461014 1.156095027923584
0.12434978038072586 -0.06267382204532623 0.18608200550079346
0.05090242996811867 -0.18051227927207947 0.9894912242889404
0.10294454544782639 -0.17479199171066284 0.9779328107833862
0.05465911328792572 0.0347689613699913 1.5121946334838867
0.036482661962509155 -0.1688355803489685 1.164666771888733
0.01904917135834694 -0.043790996074676514 1.150058627128601
0.07812473177909851 -0.03614005073904991 1.0825221538543701
0.07804695516824722 0.055840667337179184 0.9584295749664307
0.16601088643074036 -0.11124624311923981 0.02254796214401722
0.14223894476890564 -0.1053181067109108 0.02114858478307724
0.19475309550762177 -0.08686801791191101 0.0312112458050251
0.20634019374847412 -0.10743796825408936 0.24181362986564636
0.06155452877283096 -0.03662437945604324 1.435880184173584
0.061593666672706604 -0.037185169756412506 1.438141942024231
0.05049537867307663 -0.05429888144135475 1.3041490316390991
0.05844411998987198 -0.07874473184347153 1.2898056507110596
0.20934250950813293 0.11426007747650146 1.0889416933059692
0.20737412571907043 0.09417741745710373 1.0452866554260254
0.21627943217754364 0.09652309119701385 1.0416815280914307
0.15896889567375183 -0.1442243456840515 1.0577547550201416
0.13162672519683838 -0.19886180758476257 1.0550237894058228
0.13606379926204681 -0.22475646436214447 1.049607515335083
-0.25381040573120117 -0.0749705582857132 1.0797449350357056
-0.17984361946582794 -0.1665395200252533 1.1894251108169556
-0.21222718060016632 -0.06172316521406174 0.3695831000804901
-0.01434540655463934 0.15331605076789856 0.991722047328949
-0.11604533344507217 -0.14075228571891785 1.0668432712554932
-0.03635939583182335 -0.043811824172735214 0.8414102792739868
-0.06175770238041878 -0.030792219564318657 0.8073665499687195
-0.057501111179590225 -0.0835784450173378 0.8088062405586243
-0.011168988421559334 0.0019436869770288467 1.095057487487793
0.022901024669408798 -0.20704905688762665 0.836644172668457
0.09705871343612671 0.013070803135633469 0.8693729639053345
0.14005446434020996 0.11582624167203903 1.1060703992843628
0.0687151774764061 -0.0029227733612060547 1.5253808498382568
0.08175234496593475 0.016780294477939606 1.506205439567566
0.18215806782245636 -0.12150407582521439 0.9474971890449524
-0.18395932018756866 -0.1803247332572937 1.1597836017608643
-0.13989213109016418 0.0671466588973999 1.5331913232803345
0.01100736390799284 0.1607416272163391 1.036776065826416
-0.11923525482416153 0.08946722745895386 1.5649243593215942
-0.09958600997924805 0.054277095943689346 1.5523717403411865
-0.07084400206804276 0.042223379015922546 1.532494306564331
0.013563435524702072 -0.19668537378311157 1.0578325986862183
0.02283402904868126 -0.14021216332912445 1.249840497970581
0.16507083177566528 -0.11253684759140015 0.15991824865341187
0.06140964478254318 -0.13412441313266754 1.2092921733856201
0.07647264003753662 -0.12675587832927704 1.1575255393981934
0.10763989388942719 0.04438150301575661 1.4142839908599854
0.09766802936792374 0.07392146438360214 1.4278329610824585
0.08322437107563019 -0.08634354919195175 1.1634780168533325
0.1279115080833435 -0.07585317641496658 0.844731330871582
