-0.020587213337421417 -0.057024791836738586 1.4138164520263672
0.0078553706407547 -0.08754993230104446 1.4477144479751587
-0.01431325078010559 -0.03804789483547211 1.4186015129089355
0.07682038098573685 -0.09130901098251343 0.5895556211471558
0.01249176450073719 -0.0017077736556529999 1.4704176187515259
0.11312636733055115 -0.11189837753772736 0.5063393115997314
-0.007957463152706623 -0.168086975812912 1.2533743381500244
0.04329163581132889 -0.05391484871506691 1.2464321851730347
0.04541506618261337 -0.07668684422969818 1.1377655267715454
0.14598044753074646 -0.14727869629859924 0.07062256336212158
0.16138458251953125 -0.14108027517795563 0.04933420941233635
0.13212157785892487 -0.011788547039031982 0.07605734467506409
0.006441356614232063 -0.1527124047279358 1.2398515939712524
-0.0028182417154312134 -0.19094334542751312 1.1654701232910156
0.07129155099391937 -0.14071205258369446 0.7288069725036621
0.12861639261245728 -0.06587239354848862 0.05055303871631622
0.038714125752449036 0.005444280803203583 1.6871793270111084
-0.007881734520196915 -0.13477420806884766 1.5907254219055176
-0.009421352297067642 -0.11759905517101288 1.5081372261047363
-0.00893108919262886 -0.11762474477291107 1.46561861038208
0.09632344543933868 -0.1622072160243988 0.8752585053443909
0.08588124811649323 -0.0052127838134765625 1.7154901027679443
0.017776835709810257 -0.003071550279855728 1.5205392837524414
0.015617267228662968 -0.023799877613782883 1.4914718866348267
0.1355077475309372 -0.024838445708155632 0.32490459084510803
0.12782593071460724 -0.01746579445898533 0.26242345571517944
0.1445789337158203 -0.0036672279238700867 0.057522471994161606
0.03040664829313755 -0.00832436978816986 1.769385576248169
0.04848752170801163 -0.025759901851415634 1.3897802829742432
0.09722179174423218 -0.21944710612297058 0.8618664741516113
0.08717690408229828 -0.13273859024047852 0.8620054721832275
0.12805059552192688 -0.19622044265270233 0.8636431694030762
0.09564202278852463 -0.039911746978759766 0.7499228715896606
0.1875099092721939 -0.1411718875169754 0.061796315014362335
0.04906595125794411 -0.005559001117944717 1.6979613304138184
0.03232087567448616 -0.16365131735801697 1.1338882446289062
0.034116603434085846 -0.1409400999546051 1.2561469078063965
0.03390740975737572 -0.1574215590953827 1.2536581754684448
0.12419189512729645 -0.19022656977176666 0.930480420589447
0.0351136177778244 -0.07590692490339279 1.5301666259765625
0.04644341766834259 -0.003625292330980301 1.5324620008468628
0.0419599711894989 -0.028711367398500443 1.5177174806594849
0.04715313762426376 -0.04430144280195236 1.5131245851516724
0.053601305931806564 -0.056631073355674744 1.489964246749878
0.13621310889720917 -0.06597620248794556 0.6480449438095093
0.13416755199432373 -0.13120359182357788 0.667335033416748
0.058402612805366516 -0.06199035048484802 1.3732750415802002
0.06440091878175735 -0.018640607595443726 1.313056468963623
0.03418292850255966 -0.01978359743952751 1.3315863609313965
0.04268372803926468 -0.03971139341592789 1.307044506072998
0.12367738783359528 -0.11938600987195969 0.829949140548706
0.1893688440322876 -0.023138538002967834 0.0604829266667366
0.20187288522720337 -0.047881461679935455 0.05674240365624428
0.057141825556755066 -0.013244684785604477 1.6527053117752075
0.07231902331113815 -0.0380830354988575 1.365177869796753
0.19840720295906067 -0.07192614674568176 0.3104652762413025
0.08261342346668243 0.002573389559984207 1.6298154592514038
0.061342861503362656 0.029534336179494858 1.6350212097167969
0.06889952719211578 0.00047013163566589355 1.5988507270812988
0.2050187885761261 -0.05220647156238556 0.1336899995803833
0.21188727021217346 -0.10799995064735413 0.062111612409353256
0.20087499916553497 -0.13638682663440704 0.08997227251529694
0.150926411151886 -0.01662202924489975 0.970081090927124
0.1493697315454483 -0.017024455592036247 0.8715384602546692
0.08282815665006638 -0.021694771945476532 1.7106460332870483
0.16646113991737366 0.03626753017306328 0.8779443502426147
0.17855709791183472 -0.00028597889468073845 0.940956175327301
0.0870702713727951 -0.029569115489721298 1.3078852891921997
0.09584375470876694 -0.050415974110364914 1.2952823638916016
0.06873339414596558 -0.06426408886909485 1.3431018590927124
0.09703447669744492 -0.04069425165653229 1.254124641418457
0.08697541058063507 -0.04293769598007202 1.2342311143875122
0.09587898850440979 -0.1168510764837265 1.2246806621551514
0.10985854268074036 -0.0743427574634552 1.2564237117767334
0.1304367184638977 -0.05588148534297943 1.1899940967559814
0.143535777926445 -0.0662631168961525 1.115253210067749
0.16731849312782288 -0.08096212148666382 1.1291368007659912
0.1545271873474121 -0.09226648509502411 1.1808539628982544
0.12518996000289917 -0.12386962026357651 1.2014678716659546
0.16967608034610748 -0.10664952546358109 1.0786813497543335
0.18317490816116333 -0.165742889046669 1.13408625125885
0.19195249676704407 -0.1470186710357666 1.11355459690094
0.18445557355880737 -0.12238849699497223 1.086416244506836
0.13797643780708313 -0.19921191036701202 1.1202248334884644
0.1628263145685196 -0.17289289832115173 1.0864081382751465
0.16450552642345428 -0.15546801686286926 1.0714634656906128
0.19350667297840118 -0.2406405508518219 0.976251482963562
0.1411578506231308 -0.18701530992984772 1.0875698328018188
0.14118081331253052 -0.20642304420471191 1.0594431161880493
0.1807195246219635 -0.1912166178226471 1.0042724609375
0.14582206308841705 -0.19703969359397888 1.0337411165237427
0.13796409964561462 -0.22261297702789307 1.0386537313461304
0.16117973625659943 -0.22155867516994476 1.0093598365783691
0.17748016119003296 -0.2278885841369629 1.0052410364151
0.13269974291324615 -0.24326959252357483 1.0141440629959106
0.15548910200595856 -0.24043437838554382 1.0049667358398438
0.14371705055236816 -0.23963028192520142 1.0139718055725098
0.18622028827667236 -0.24589085578918457 0.957155168056488
0.1490536630153656 -0.2544546127319336 1.0020954608917236
0.17117372155189514 -0.22868895530700684 0.9704475402832031
0.1705358624458313 -0.26050519943237305 0.9706573486328125
0.18572700023651123 -0.2556004524230957 0.9731409549713135
-0.3053760528564453 -0.0423121377825737 1.0811671018600464
-0.2976856231689453 -0.0957549437880516 1.069041132926941
-0.28441691398620605 -0.08023931086063385 1.0662200450897217
-0.3018778860569 -0.11195316165685654 1.1049154996871948
-0.25349122285842896 -0.04216931760311127 1.076371431350708
-0.2775275707244873 -0.11436369270086288 1.0880329608917236
-0.1997273713350296 -0.011129975318908691 1.220467448234558
-0.19963541626930237 -0.06268708407878876 1.1976988315582275
-0.17162436246871948 -0.09625884890556335 0.959672212600708
-0.1757199764251709 -0.014653120189905167 0.940975546836853
-0.12578514218330383 0.0510280504822731 0.9259443879127502
-0.08500808477401733 0.1382696032524109 1.2514642477035522
-0.07835925370454788 0.1362953782081604 1.193835735321045
-0.07431919872760773 0.15978795289993286 1.1693698167800903
-0.15038032829761505 -0.01105332002043724 0.960795521736145
-0.19525209069252014 0.03160589933395386 1.6906538009643555
-0.15073536336421967 0.0014966204762458801 1.336511254310608
-0.17067015171051025 0.0021818652749061584 1.2721185684204102
-0.011482546105980873 0.14980879426002502 1.076427936553955
-0.03264069929718971 0.15386554598808289 0.9986832141876221
-0.28767916560173035 -0.08055984973907471 0.1199580729007721
-0.3065323829650879 -0.13322535157203674 0.07199957966804504
-0.1734263300895691 0.01889728009700775 1.674631953239441
-0.15847565233707428 0.032179851084947586 1.621478796005249
-0.1569291055202484 -0.12310584634542465 1.2306885719299316
-0.15697012841701508 -0.1383863091468811 1.2057145833969116
-0.16164922714233398 -0.15774816274642944 1.2006293535232544
-0.09502406418323517 0.10024406760931015 1.359420657157898
-0.08697669208049774 0.09270349889993668 1.3558326959609985
-0.13800148665905 -0.12655974924564362 1.246279001235962
-0.14582544565200806 -0.05685962736606598 1.1913442611694336
-0.25873062014579773 -0.09797757118940353 0.18406954407691956
-0.26677003502845764 -0.053116992115974426 0.19300363957881927
-0.0387384369969368 0.11569197475910187 1.2460564374923706
-0.15640674531459808 -0.016645368188619614 1.4302083253860474
-0.1545148491859436 -0.01094868779182434 1.4100158214569092
-0.14149434864521027 -0.0136360302567482 1.3930445909500122
-0.15601901710033417 -0.009299207478761673 1.390272855758667
-0.15634259581565857 -0.026288289576768875 1.3799493312835693
-0.1476585566997528 -0.10929834842681885 0.7893350124359131
-0.16013912856578827 -0.07052024453878403 0.7846448421478271
-0.00011251121759414673 0.2044697105884552 1.0882731676101685
-0.0033572595566511154 0.20190049707889557 1.136612892150879
-0.12901653349399567 -0.11992213129997253 1.2408498525619507
-0.12635163962841034 -0.1095736175775528 0.8615318536758423
-0.2603497803211212 -0.017816711217164993 0.11577028781175613
-0.26554104685783386 -0.01859614998102188 0.0781712532043457
-0.1378350853919983 -0.18460655212402344 0.8478581309318542
-0.035345409065485 0.17436836659908295 1.2302918434143066
-0.15906713902950287 -0.09019479155540466 1.5809046030044556
-0.12573450803756714 0.017655618488788605 1.5070322751998901
-0.08886533975601196 0.09777244925498962 1.4828369617462158
-0.09142326563596725 0.06366538256406784 1.536407470703125
-0.11192824691534042 0.06428106129169464 1.5108959674835205
-0.09616246819496155 0.08134762197732925 1.4305355548858643
-0.044861819595098495 0.11640452593564987 1.527167558670044
-0.11907889693975449 -0.016100477427244186 1.4590961933135986
-0.08392815291881561 0.04365682974457741 0.9698719382286072
-0.13611409068107605 0.02431916445493698 1.771451473236084
-0.14433211088180542 0.019043929874897003 1.7650480270385742
-0.1510198414325714 0.008773870766162872 1.7518086433410645
-0.015565598383545876 0.060970623046159744 1.426457405090332
-0.06527014821767807 0.11230800300836563 1.402886986732483
-0.20454442501068115 -0.08278850466012955 0.041819699108600616
-0.013827446848154068 0.1474352926015854 1.3532843589782715
-0.12608259916305542 -0.0915507823228836 1.495964765548706
-0.17588572204113007 -0.058827679604291916 0.39440470933914185
-0.05734272673726082 0.06077542528510094 1.4819462299346924
-0.08239797502756119 0.022859394550323486 1.4621878862380981
-0.022659163922071457 0.12190424650907516 1.4513084888458252
-0.03241192176938057 0.05036233365535736 0.8536202907562256
-0.18472018837928772 0.003269498934969306 0.34556853771209717
0.04435717314481735 0.16432198882102966 1.003267765045166
-0.030572643503546715 0.03420398756861687 1.0288220643997192
-0.1111832931637764 -0.15116623044013977 1.2400236129760742
-0.10481490194797516 -0.15262310206890106 1.143358826637268
-0.17330363392829895 -0.02485630288720131 0.3228200376033783
-0.15863870084285736 -0.03930867090821266 0.26054808497428894
-0.18907175958156586 0.00981239601969719 0.2559993863105774
-0.06353361159563065 0.043768156319856644 1.4974757432937622
-0.08976593613624573 -0.1023218035697937 0.6854060292243958
-0.11552584916353226 -0.028403569012880325 0.6582213044166565
0.04809413105249405 0.203532874584198 1.1294403076171875
0.05466020107269287 0.19653773307800293 1.0495364665985107
-0.06038115546107292 -0.18637004494667053 1.1680068969726562
-0.186979740858078 -0.06743773818016052 0.1250164806842804
0.04246461018919945 0.14910078048706055 1.0384588241577148
0.031610824167728424 0.12771274149417877 1.0730661153793335
0.001909300684928894 0.03888171166181564 1.4915480613708496
-0.09299047291278839 -0.08759620040655136 1.372931957244873
0.03772204741835594 0.14962196350097656 1.3372259140014648
0.02885918691754341 0.050961658358573914 1.4172074794769287
-0.0082213394343853 0.03209729120135307 1.490810751914978
0.08848880231380463 0.13769744336605072 1.0493183135986328
0.10622131824493408 0.1260519027709961 1.0054147243499756
-0.031971901655197144 -0.10463789105415344 1.3687481880187988
0.013558672741055489 0.03188560903072357 1.0271480083465576
-0.03358715400099754 -0.20160642266273499 1.0982401371002197
0.09517261385917664 0.11926195025444031 1.3616431951522827
0.008976811543107033 -0.02226378209888935 1.2838358879089355
0.06308792531490326 0.09426729381084442 1.4581336975097656
0.028668630868196487 0.05154973268508911 1.4576070308685303
0.02225753478705883 -0.04008513689041138 1.1979851722717285
0.04572819545865059 0.09220552444458008 0.9178500175476074
-0.013711541891098022 -0.027954693883657455 1.7079308032989502
0.12685339152812958 -0.11605221033096313 0.07995355874300003
0.11886829137802124 -0.12761691212654114 0.0537843331694603
0.12103943526744843 -0.05696120858192444 0.09092696011066437
-0.050841886550188065 -0.13688014447689056 1.584190845489502
0.06795413792133331 -0.06233655661344528 0.7133067846298218
0.08300504833459854 0.03526068106293678 1.4278470277786255
0.018383106216788292 -0.05559403449296951 1.4573512077331543
0.05595151707530022 -0.04239211231470108 1.408021330833435
0.0176697950810194 -0.013805225491523743 1.3866695165634155
0.11476103216409683 -0.038377538323402405 0.3926318287849426
0.13631828129291534 -0.1263846606016159 0.23701739311218262
0.13295288383960724 -0.040054503828287125 0.1970566213130951
0.14888723194599152 0.12336602807044983 1.056778907775879
0.14518067240715027 0.14851784706115723 1.0274462699890137
0.10478523373603821 -0.14580786228179932 0.7406350374221802
0.11101396381855011 -0.05213204771280289 0.657590389251709
-0.017123721539974213 -0.07404780387878418 1.6920596361160278
0.023391295224428177 -0.08645275235176086 1.650514006614685
0.12745682895183563 -0.13024425506591797 0.5502650737762451
0.008232733234763145 -0.02185322716832161 1.7218314409255981
0.031646426767110825 -0.03859824687242508 1.672168493270874
0.05686113238334656 -0.10283586382865906 1.1329212188720703
0.06255556643009186 -0.09175238013267517 1.107370138168335
0.05229979380965233 -0.1622292697429657 1.0893189907073975
0.005683343857526779 -0.12203654646873474 1.583315134048462
0.031737320125103 -0.056635551154613495 1.4875985383987427
0.020598817616701126 -0.09600178152322769 1.4835821390151978
0.18637508153915405 0.10166843235492706 1.020763874053955
0.04799513518810272 -0.10128311067819595 1.2826342582702637
0.05601326748728752 -0.16254112124443054 1.2461130619049072
0.05962831899523735 -0.11036313325166702 1.2283909320831299
0.1728914976119995 -0.02547527104616165 0.1499401330947876
0.18748342990875244 -0.10875854641199112 0.1736280769109726
0.20186707377433777 -0.0960899069905281 0.15906813740730286
0.04624189808964729 -0.019495658576488495 1.6969695091247559
0.055637821555137634 -0.11042037606239319 1.2853293418884277
0.1882566511631012 -0.040888264775276184 0.4337908923625946
0.16806450486183167 -0.09537084400653839 0.4872574806213379
0.1962130069732666 -0.056066181510686874 0.376446932554245
0.06752893328666687 -0.05899546295404434 1.4009912014007568
0.05453386902809143 -0.05653167888522148 1.39773690700531
0.07408758997917175 -0.04833192378282547 1.3579827547073364
0.11785634607076645 0.062062542885541916 0.9249536991119385
0.12822696566581726 -0.1172948032617569 0.8655019402503967
0.20092405378818512 -0.04348292201757431 0.2505984902381897
0.21749132871627808 -0.07395127415657043 0.25844287872314453
0.07688099890947342 -0.03093218058347702 1.3501821756362915
0.15866221487522125 0.0548153892159462 1.2808305025100708
0.17091408371925354 0.07933129370212555 1.2600421905517578
0.06123366206884384 -0.2327427864074707 1.1456842422485352
0.146894171833992 -0.06766451895236969 0.9959844350814819
0.14860939979553223 -0.12467090040445328 0.9893265962600708
0.09756173938512802 -0.03960007429122925 1.1798934936523438
0.1017206683754921 -0.15393832325935364 1.0819395780563354
0.12231527268886566 -0.11915301531553268 1.061011552810669
0.10521748661994934 -0.18103016912937164 1.1492372751235962
-0.28991639614105225 -0.05607236921787262 1.0562891960144043
-0.3008251488208771 -0.11103719472885132 1.0408740043640137
-0.23635481297969818 -0.09554733335971832 1.1322109699249268
-0.24803566932678223 -0.0954982340335846 1.1781673431396484
-0.21437887847423553 -0.06538552045822144 1.1421253681182861
-0.21118155121803284 -0.027193425223231316 1.1604621410369873
-0.18908384442329407 -0.1507498323917389 0.8746286630630493
-0.06074848026037216 0.1632794439792633 1.0369211435317993
-0.07374077290296555 0.1527259349822998 1.1326712369918823
-0.17167328298091888 -0.22060775756835938 1.111448884010315
-0.1389605849981308 -0.15843650698661804 0.9513798952102661
-0.2717169225215912 -0.04183041304349899 0.2807409167289734
-0.2500336468219757 -0.09090200811624527 0.29530027508735657
-0.19810277223587036 0.012427447363734245 0.4991376996040344
-0.14866220951080322 -0.19072499871253967 0.8534833788871765
-0.17696699500083923 -0.04713385924696922 0.6410603523254395
-0.16664795577526093 -0.09097134321928024 0.6932003498077393
-0.14832758903503418 -0.03486086428165436 0.7005460262298584
-0.1023290753364563 -0.021638642996549606 1.089134931564331
-0.11592777073383331 -0.07787756621837616 1.1107704639434814
0.005898725241422653 0.19159935414791107 1.20304274559021
-0.1119791567325592 -0.019629042595624924 0.8571847677230835
-0.2061741054058075 -0.1026526540517807 0.30739688873291016
-0.11700619757175446 -0.026801906526088715 1.1907011270523071
-0.09475632756948471 -0.041902221739292145 1.1211483478546143
-0.18972118198871613 -0.08037972450256348 0.4473026692867279
-0.1398758739233017 0.004317454993724823 1.6912901401519775
-0.14750982820987701 -0.029358886182308197 1.6768471002578735
-0.1129429042339325 -0.06607656925916672 1.6850521564483643
-0.13253484666347504 -0.09920819103717804 1.6437302827835083
-0.14593712985515594 -0.09223654866218567 1.5466217994689941
-0.183660089969635 -0.060598861426115036 0.33961668610572815
-0.0822119191288948 -0.1158125028014183 0.7348276376724243
-0.16206616163253784 -0.0694197565317154 0.2682240903377533
-0.18039673566818237 -0.09828940033912659 0.2745213806629181
-0.1974838823080063 -0.01776239089667797 0.20363444089889526
-0.04519738256931305 0.06378595530986786 0.9595273733139038
-0.09611242264509201 0.012009315192699432 1.7348756790161133
-0.11385481804609299 0.002675052732229233 1.721858024597168
0.06926858425140381 0.11330050230026245 1.1892462968826294
-0.008291245438158512 0.13293316960334778 1.1832998991012573
0.043908268213272095 0.10542595386505127 1.2397273778915405
-0.008928630501031876 -0.03964049369096756 1.233902096748352
0.06757296621799469 0.17551206052303314 1.2364308834075928
0.07382914423942566 0.12606261670589447 1.0785491466522217
0.12817972898483276 0.17926710844039917 1.1647831201553345
0.014216911047697067 0.09423869848251343 1.6338210105895996
0.10271483659744263 0.10940732061862946 1.0889711380004883
0.03846139833331108 -0.21773898601531982 0.9031131267547607
0.10215114802122116 -0.08839128911495209 0.2552375793457031
0.13255265355110168 -0.10082350671291351 0.19518332183361053
0.06622792035341263 -0.12964361906051636 0.6960583329200745
0.0319705531001091 0.0025123944506049156 1.064046859741211
0.09259968250989914 -0.04825544357299805 0.5665061473846436
0.09834466129541397 0.07282565534114838 1.3035850524902344
0.03719158098101616 -0.06800112128257751 1.3923410177230835
0.0440153107047081 0.07752202451229095 1.5984874963760376
0.031099289655685425 0.013907060027122498 1.5627467632293701
0.036560628563165665 0.02978397160768509 1.5419642925262451
0.0020186156034469604 -0.01659926027059555 1.7675740718841553
0.03589845448732376 -0.09052054584026337 1.3307920694351196
0.15738876163959503 -0.018709372729063034 0.4987664222717285
0.12515512108802795 -0.0060723405331373215 0.494258314371109
0.153133824467659 -0.01482219249010086 0.34386593103408813
0.17565469443798065 -0.019334889948368073 0.3150845766067505
0.05538356676697731 -0.05479250103235245 1.478618860244751
0.0428890623152256 -0.06333917379379272 1.4877313375473022
0.05563421547412872 -0.057973455637693405 1.4722799062728882
0.1297382414340973 -0.05219103395938873 0.7652825117111206
0.14972347021102905 -0.09528118371963501 0.6355257034301758
0.11727502942085266 0.02204427309334278 0.9656479358673096
0.09366042912006378 -0.08225691318511963 1.0877277851104736
0.08565980941057205 -0.13558216392993927 1.0756111145019531
0.09657957404851913 -0.15902656316757202 1.0254908800125122
0.0581342875957489 -0.021518122404813766 1.5981457233428955
0.06994475424289703 -0.025825755670666695 1.518574833869934
0.050905194133520126 -0.15539364516735077 1.2273831367492676
0.09441164135932922 0.041978031396865845 1.5094870328903198
0.07974009215831757 0.01424284279346466 1.547859787940979
0.20333589613437653 -0.026338599622249603 0.0850343257188797
0.2167905867099762 -0.07166649401187897 0.07243068516254425
0.10268145799636841 0.02078823745250702 1.4759184122085571
0.11119458079338074 0.032962147146463394 1.4465830326080322
0.12151636183261871 0.02203582227230072 1.4149762392044067
0.12461863458156586 0.03363858908414841 1.401320219039917
0.05894782394170761 -0.23426295816898346 1.1642428636550903
0.17432880401611328 -0.158686101436615 0.8793260455131531
0.07148604840040207 -0.21126577258110046 1.17581307888031
0.06798792630434036 -0.23680564761161804 1.1650996208190918
0.20145536959171295 -0.11419638246297836 0.8990591168403625
0.2037377804517746 -0.09125673770904541 0.8797467350959778
0.21281620860099792 -0.056372594088315964 0.8899925351142883
-0.22019672393798828 -0.08863337337970734 1.1847994327545166
-0.180653914809227 -0.08941974490880966 1.2483364343643188
-0.1886984407901764 -0.08951982855796814 1.232901692390442
-0.18045847117900848 -0.08149198442697525 1.238276720046997
-0.1748065948486328 -0.0815461277961731 1.255363941192627
-0.19453099370002747 0.0020845532417297363 0.8821560740470886
-0.14936640858650208 -0.04979405552148819 1.2732340097427368
-0.14595860242843628 -0.06456702202558517 1.0615742206573486
-0.12900088727474213 0.09269718825817108 1.516011118888855
-0.14831769466400146 -0.08362749963998795 1.181956171989441
-0.1479155421257019 -0.07790982723236084 1.1282862424850464
-0.09692549705505371 0.09417746961116791 1.4145350456237793
-0.08033972233533859 0.08735182136297226 1.378746747970581
-0.13538995385169983 -0.139823317527771 1.0243017673492432
-0.1012948751449585 -0.16492870450019836 0.9862498044967651
-0.13654671609401703 -0.02787044271826744 0.7857658863067627
-0.00444803899154067 0.16983607411384583 1.267639398574829
-0.07228247821331024 0.11360584199428558 1.6090418100357056
-0.19262589514255524 -0.03424113988876343 0.06897835433483124
-0.20648786425590515 -0.018714146688580513 0.06005636602640152
-0.08080457895994186 0.024576064199209213 0.863095223903656
0.0014843586832284927 0.09374815970659256 0.8504644632339478
-0.0661916509270668 -0.021941907703876495 0.8420361280441284
0.031844496726989746 0.07563451677560806 1.3263661861419678
-0.05196904018521309 -0.08077211678028107 0.7607263326644897
-0.08363253623247147 -0.12415122985839844 1.559532642364502
-0.0070145754143595695 0.014143123291432858 0.8691741228103638
-0.005940642207860947 -0.027516551315784454 0.8479808568954468
0.016410887241363525 -0.11937978863716125 0.8529310822486877
-0.07799040526151657 -0.16247676312923431 0.8533064723014832
-0.008675822988152504 -0.2234991192817688 0.8458425998687744
0.03550860285758972 -0.11139693856239319 0.8320667147636414
-0.009859376586973667 -0.1596655696630478 0.8572144508361816
-0.01788330078125 0.015844155102968216 1.4594149589538574
0.02819758653640747 -0.03812961280345917 0.8450719118118286
0.032930538058280945 -0.0507223978638649 0.8278335332870483
-0.004542086273431778 0.021768972277641296 1.5370348691940308
0.0002845488488674164 0.028936773538589478 1.5132423639297485
0.044243935495615005 -0.1250009387731552 0.8480788469314575
0.13031646609306335 0.05578891932964325 0.8597905039787292
0.10321629792451859 -0.06000467762351036 0.25356483459472656
0.05368322134017944 -0.035851024091243744 0.8174850344657898
0.1035204604268074 0.10440681874752045 1.2175251245498657
0.13185417652130127 -0.08783876895904541 0.37926679849624634
0.12904836237430573 -0.0711282342672348 0.31808018684387207
0.14523440599441528 -0.09259890019893646 0.3346542716026306
0.14283069968223572 -0.13131815195083618 0.2782464325428009
0.08238077908754349 0.05745578929781914 1.4792884588241577
0.08100217580795288 -0.017541266977787018 0.851764976978302
0.10758641362190247 -0.03638552874326706 0.8321065902709961
0.060976363718509674 -0.08320464938879013 1.2320654392242432
0.1629471778869629 -0.10205904394388199 0.42830023169517517
0.06527063250541687 0.032429952174425125 1.5830051898956299
0.047698233276605606 -0.040327586233615875 1.2787995338439941
0.176036074757576 -0.09186222404241562 0.3353651463985443
0.1326528936624527 0.159438818693161 1.2200425863265991
0.07051742076873779 -0.06659494340419769 1.2056809663772583
0.16239388287067413 -0.030045270919799805 0.2082100808620453
0.17660877108573914 0.14526157081127167 1.142677903175354
0.16008330881595612 -0.019559346139431 0.24441640079021454
0.1868380606174469 -0.13198857009410858 0.2549474537372589
0.1332651972770691 0.05108264833688736 1.3258421421051025
0.06385098397731781 -0.041325878351926804 1.4351173639297485
0.07096946984529495 -0.041248589754104614 1.4042168855667114
0.06209314987063408 -0.03910268843173981 1.4359095096588135
0.0856500193476677 -0.039496831595897675 1.3841606378555298
0.06684193015098572 -0.1776736080646515 1.2145310640335083
0.052471861243247986 -0.18805482983589172 1.2087697982788086
0.16378186643123627 0.06833358108997345 1.2398173809051514
0.19356729090213776 0.0976291075348854 1.1844576597213745
0.18869143724441528 0.09337693452835083 1.1515095233917236
0.07351690530776978 -0.056793779134750366 1.2355334758758545
0.06375594437122345 -0.08687613904476166 1.251152753829956
0.1579945981502533 -0.18376246094703674 0.8889548182487488
0.07148846983909607 -0.09615788608789444 1.2629225254058838
0.06462739408016205 -0.1256829798221588 1.1633397340774536
0.08804549276828766 -0.07126440852880478 1.1395719051361084
0.07351040095090866 -0.10929655283689499 1.130316138267517
0.11768695712089539 -0.15722012519836426 1.1802573204040527
0.14371804893016815 -0.15601009130477905 1.0514055490493774
0.11327388882637024 -0.19216200709342957 1.1064395904541016
-0.17425481975078583 -0.20608653128147125 1.1488704681396484
-0.1671331524848938 -0.1413789689540863 1.1957497596740723
-0.17439432442188263 -0.1274174451828003 1.2158191204071045
-0.16352564096450806 -0.19398215413093567 1.1513460874557495
-0.11405918747186661 0.09985847771167755 1.4437739849090576
-0.11856932193040848 0.08810582011938095 1.4276635646820068
-0.11388088762760162 0.10375123471021652 1.3857855796813965
-0.162224680185318 0.007163122296333313 1.6553393602371216
-0.16664902865886688 -0.02543499693274498 1.5718026161193848
-0.2414509356021881 -0.05776584520936012 0.33784162998199463
-0.13210377097129822 -0.06817842274904251 0.8534809350967407
-0.1349366307258606 -0.09260447323322296 0.8348600268363953
-0.04632130265235901 0.1744127869606018 1.01668381690979
-0.11760541796684265 -0.11795683205127716 1.2343209981918335
-0.11860687285661697 -0.03020559996366501 0.8308881521224976
-0.11788106709718704 -0.012888599187135696 1.7004601955413818
-0.1100468784570694 -0.12128256261348724 1.1168917417526245
-0.07900696247816086 -0.1821545660495758 1.1125491857528687
-0.002841673791408539 0.1484231799840927 1.1166484355926514
0.06521089375019073 0.12827128171920776 1.1169110536575317
-0.07221110910177231 -0.029200036078691483 1.1364600658416748
-0.05444657430052757 -0.11495354771614075 0.8465819358825684
-0.06527657806873322 -0.18828284740447998 1.0461435317993164
-0.0515296570956707 0.014298370108008385 1.0486875772476196
-0.07362379133701324 -0.11279565095901489 1.6563447713851929
0.0351545624434948 -0.10230429470539093 0.7674493789672852
-0.012078028172254562 0.09602110832929611 1.2950471639633179
0.11614062637090683 -0.08701972663402557 0.0488741472363472
0.16748110949993134 0.16073088347911835 1.0849796533584595
0.12517234683036804 0.11808452010154724 1.1379951238632202
0.12289372831583023 0.1872084140777588 1.094020128250122
0.09910506755113602 0.0850251168012619 0.860901951789856
0.1745137870311737 0.0006143674254417419 0.07286721467971802
0.12254467606544495 -0.03873281925916672 0.8587508797645569
0.16566185653209686 -0.0932154655456543 0.3870498836040497
0.0663989931344986 -0.06311392784118652 1.373375415802002
0.05817079916596413 -0.08778228610754013 1.3002890348434448
0.19793975353240967 -0.0021711820736527443 0.8807902336120605
0.1944279670715332 -0.05321983993053436 0.9453274011611938
0.1310766637325287 -0.18168723583221436 1.070425033569336
-0.2571202218532562 -0.10908287018537521 1.1482048034667969
-0.19301265478134155 -0.08221932500600815 0.9351322650909424
-0.21063292026519775 -0.0725216418504715 0.8841404914855957
-0.11676813662052155 0.08976797759532928 1.3806260824203491
-0.08731463551521301 0.11787602305412292 1.2520270347595215
-0.14510197937488556 0.020152460783720016 1.4969642162322998
-0.13943353295326233 -0.05568914860486984 1.029608964920044
-0.14632245898246765 -0.08564186096191406 1.067064881324768
-0.14399828016757965 0.022902462631464005 1.497347354888916
-0.1439136117696762 0.00985293835401535 1.48435640335083
-0.1458207368850708 0.016741111874580383 1.492958903312683
-0.14655247330665588 0.013326741755008698 1.4946255683898926
-0.15270178020000458 0.0026201047003269196 1.4844722747802734
-0.23473411798477173 -0.11739253252744675 0.1874902844429016
-0.1679682731628418 -0.06039674952626228 1.619781494140625
-0.04572004824876785 -0.020760683342814445 1.190436601638794
-0.19843818247318268 -0.13347968459129333 0.06327276676893234
-0.06419400125741959 -0.02536398358643055 1.2307991981506348
-0.019101766869425774 -0.03523808717727661 1.1485227346420288
-0.03496919199824333 0.09213803708553314 0.9221609830856323
-0.06268710643053055 -0.028538137674331665 1.7163056135177612
-0.07356049865484238 -0.06644175946712494 0.700135350227356
0.012800524942576885 0.09653794765472412 1.2649638652801514
-0.0053635649383068085 -0.19264283776283264 0.99733567237854
-0.06154506653547287 -0.1813642382621765 1.2121155261993408
0.06770975887775421 0.11593274772167206 1.156941533088684
0.12245078384876251 -0.0641384869813919 0.18377643823623657
0.05072948336601257 -0.18062248826026917 0.9879226684570312
0.10306905210018158 -0.17491960525512695 0.9759281873703003
0.05564170330762863 0.03130386024713516 1.50974702835083
0.03578696399927139 -0.17011572420597076 1.1619280576705933
0.01886514574289322 -0.04511182755231857 1.1489721536636353
0.0781627744436264 -0.03706817701458931 1.0816599130630493
0.07840315997600555 0.05559306964278221 0.9572118520736694
0.16478466987609863 -0.11653447151184082 0.02008475922048092
0.14105363190174103 -0.11042061448097229 0.018272172659635544
0.19330145418643951 -0.09188975393772125 0.028355326503515244
0.20427286624908447 -0.10943931341171265 0.2396049201488495
0.061763666570186615 -0.04015215113759041 1.43241548538208
0.06204433739185333 -0.040829457342624664 1.4348775148391724
0.049712758511304855 -0.05828037112951279 1.3015129566192627
0.057021237909793854 -0.08311206847429276 1.2873694896697998
0.20946714282035828 0.11212101578712463 1.0903679132461548
0.20744048058986664 0.09222535043954849 1.0469435453414917
0.21638622879981995 0.0945717990398407 1.0434316396713257
0.15522825717926025 -0.1499265730381012 1.055061936378479
0.1279599517583847 -0.20432806015014648 1.0523937940597534
0.13235878944396973 -0.23003259301185608 1.0469168424606323
-0.2524089515209198 -0.07375938445329666 1.0773259401321411
-0.17962999641895294 -0.16708967089653015 1.186344027519226
-0.20953308045864105 -0.062289007008075714 0.3677181899547577
-0.012526748701930046 0.15141749382019043 0.9938644170761108
-0.11635283380746841 -0.1410454660654068 1.0648828744888306
-0.036058180034160614 -0.04406443238258362 0.8403640985488892
-0.06115439534187317 -0.031146565452218056 0.8060506582260132
-0.05686527490615845 -0.08393548429012299 0.8077104091644287
-0.011097285896539688 0.0008556516841053963 1.0944017171859741
0.02270415797829628 -0.20687909424304962 0.8356086015701294
0.09670616686344147 0.012994560413062572 0.8676676750183105
0.14052313566207886 0.11371474713087082 1.1073969602584839
0.06935524195432663 -0.006445959210395813 1.5224529504776
0.08236511796712875 0.013215430080890656 1.5036388635635376
0.18188156187534332 -0.1217060461640358 0.944877564907074
-0.18370334804058075 -0.18063458800315857 1.156741976737976
-0.1381053328514099 0.06372205168008804 1.530880331993103
0.012787199579179287 0.15866458415985107 1.0387790203094482
-0.11744269728660583 0.08563101291656494 1.562665581703186
-0.09802725911140442 0.05086449161171913 1.549810767173767
-0.06952009350061417 0.03874488174915314 1.5299129486083984
0.013182185590267181 -0.19714391231536865 1.0558050870895386
0.022104518488049507 -0.1422494351863861 1.2470437288284302
0.16271696984767914 -0.11482128500938416 0.15776892006397247
0.06064535677433014 -0.13607625663280487 1.2066712379455566
0.07587870955467224 -0.12798139452934265 1.1552009582519531
0.10833640396595001 0.041128598153591156 1.4128258228302002
0.09854897111654282 0.07077142596244812 1.4267770051956177
0.08279706537723541 -0.08797387778759003 1.1615145206451416
0.12709182500839233 -0.07592260837554932 0.8426356315612793
0.039463598281145096 -0.17043784260749817 1.234679937362671
0.1365346908569336 0.0650772973895073 1.3447802066802979
-0.08752363920211792 0.11234796792268753 1.331683874130249
-0.20133040845394135 0.012851542793214321 0.3746054172515869
0.049507930874824524 -0.10281558334827423 0.7264424562454224
-0.024427518248558044 -0.12263534963130951 1.6388485431671143
-0.060952574014663696 0.17522533237934113 1.079148292541504
-0.1686473935842514 -0.08245805650949478 1.2582042217254639
-0.15883663296699524 -0.027294019237160683 0.40657278895378113
0.023858698084950447 0.11428757011890411 1.4561303853988647
0.123508520424366 -0.11817678809165955 0.027488380670547485
0.058938056230545044 -0.05856858566403389 1.470151424407959
0.05707768350839615 -0.057589080184698105 1.4692312479019165
0.05877240002155304 -0.04708348214626312 1.3921723365783691
0.19733887910842896 -0.09481710940599442 0.2094542384147644
0.19464439153671265 -0.06000727787613869 0.19483456015586853
0.07418875396251678 -0.12120019644498825 1.2110815048217773
-0.170955091714859 -0.15508615970611572 0.930815577507019
-0.09796613454818726 0.10026620328426361 1.3579895496368408
-0.09857315570116043 0.09717011451721191 1.359005093574524
-0.10325390845537186 0.09693698585033417 1.3591337203979492
-0.17877070605754852 -0.05858740583062172 0.2059987634420395
-0.03459189459681511 -0.09781278669834137 0.8423088788986206
0.1329767256975174 -0.09333839267492294 0.1471133977174759
0.07976847141981125 -0.15084543824195862 1.1744771003723145
0.03860628232359886 -0.08411294966936111 1.5999631881713867
0.1438138484954834 -0.09724675118923187 0.7939471006393433
0.12540028989315033 0.031916819512844086 1.3838320970535278
0.13087153434753418 0.0481858067214489 1.354171872138977
0.12345778197050095 -0.03475716710090637 0.05671604722738266
-0.08442562073469162 -0.46136027574539185 1.1244914531707764
-0.07439274340867996 -0.43825042247772217 1.0941970348358154
-0.07882829010486603 -0.4467611312866211 1.0995386838912964
-0.08432020246982574 -0.4369909465312958 1.1056920289993286
-0.08893884718418121 -0.4587911069393158 1.1119303703308105
-0.07956444472074509 -0.45325496792793274 1.1238242387771606
0.005701495334506035 -0.34859320521354675 1.0794012546539307
-0.0059090908616781235 -0.34935978055000305 1.076928734779358
-0.008560048416256905 -0.3690889775753021 1.0864686965942383
-0.017234936356544495 -0.37478896975517273 1.0905773639678955
0.07647976279258728 -0.24149340391159058 0.9926575422286987
0.07098992168903351 -0.247123122215271 1.012010931968689
0.07328122854232788 -0.25269556045532227 0.9874956607818604
-0.01978868618607521 -0.3639262914657593 1.0452831983566284
-0.025169173255562782 -0.37545865774154663 1.061530590057373
-0.019393106922507286 -0.392300546169281 1.1142979860305786
-0.017192304134368896 -0.3843485116958618 1.1024435758590698
0.05002813786268234 -0.27703675627708435 0.9760940670967102
0.04385148733854294 -0.2821500897407532 0.9979432821273804
0.04761072248220444 -0.3047087490558624 1.0673470497131348
0.046224869787693024 -0.29813557863235474 1.060002088546753
-0.05923086404800415 -0.44240602850914 1.1322407722473145
-0.0634884238243103 -0.43188926577568054 1.0870970487594604
0.07470984011888504 -0.25517159700393677 0.9773368835449219
0.06700524687767029 -0.25886741280555725 0.9731848835945129
0.2053486406803131 -0.12727436423301697 1.033218502998352
0.19905385375022888 -0.13474583625793457 1.0329267978668213
0.20309023559093475 -0.12773734331130981 1.0126802921295166
-0.03990396112203598 -0.4113803505897522 1.1126816272735596
-0.051533304154872894 -0.42727601528167725 1.1186604499816895
0.07295683771371841 -0.25745707750320435 0.971574068069458
0.07062537223100662 -0.25934839248657227 0.9622121453285217
-0.10212572664022446 -0.48164886236190796 1.0759546756744385
-0.10428158938884735 -0.49041178822517395 1.0890281200408936
0.21866798400878906 -0.11788347363471985 1.0256584882736206
0.21283811330795288 -0.12473459541797638 1.0387142896652222
0.2134086787700653 -0.11822086572647095 1.0186467170715332
0.20666354894638062 -0.1255442500114441 1.0106682777404785
-0.11382278054952621 -0.5107619762420654 1.1440225839614868
-0.12061744183301926 -0.5259028077125549 1.1581721305847168
-0.12363217771053314 -0.5253255367279053 1.1401629447937012
0.012455952353775501 -0.32876068353652954 1.014650821685791
0.007628224790096283 -0.3426920175552368 1.0181225538253784
-0.008582190610468388 -0.35674819350242615 1.0117043256759644
0.00029812008142471313 -0.35483813285827637 1.0121550559997559
0.21191000938415527 -0.13300767540931702 1.0428730249404907
0.21708479523658752 -0.12080439925193787 1.0129847526550293
-0.025245530530810356 -0.40883225202560425 1.1277283430099487
-0.018420269712805748 -0.4100368618965149 1.130163550376892
-0.035826392471790314 -0.4179929494857788 1.130997657775879
-0.04395274817943573 -0.43459272384643555 1.1382590532302856
0.03748676925897598 -0.30400219559669495 0.9965075254440308
0.028327368199825287 -0.31630000472068787 0.9944019913673401
0.024759184569120407 -0.314515620470047 1.0009602308273315
0.21977391839027405 -0.12314394116401672 1.0184882879257202
0.21226581931114197 -0.1326642781496048 1.0411559343338013
0.20901286602020264 -0.1325618177652359 1.013592004776001
0.08039632439613342 -0.24255070090293884 0.9296416640281677
0.07692105323076248 -0.24642010033130646 0.9235266447067261
0.0771443322300911 -0.25107449293136597 0.9483553171157837
0.07765988260507584 -0.25327375531196594 0.9380221962928772
0.07616467773914337 -0.24757426977157593 0.9331024289131165
-0.011686094105243683 -0.37605491280555725 1.0086941719055176
-0.012073473073542118 -0.36515820026397705 1.0024086236953735
-0.01383261103183031 -0.36964938044548035 0.9919232130050659
-0.019252166152000427 -0.37094634771347046 0.9946784973144531
0.20976872742176056 -0.13326065242290497 1.0233442783355713
-0.11697126924991608 -0.5330590009689331 1.164541244506836
-0.12228979170322418 -0.5305094122886658 1.147860050201416
-0.12144162505865097 -0.5427185893058777 1.1634395122528076
-0.130342036485672 -0.5410151481628418 1.1677255630493164
-0.12539547681808472 -0.5250899195671082 1.1321547031402588
0.09793185442686081 -0.2564198970794678 0.9886327981948853
0.08061611652374268 -0.26179039478302 0.977068305015564
-0.08609498292207718 -0.4741368293762207 1.0689992904663086
-0.10454677045345306 -0.49192386865615845 1.080972671508789
-0.10929984599351883 -0.5051501989364624 1.0980077981948853
0.06379089504480362 -0.30656546354293823 1.0645347833633423
0.052431218326091766 -0.3177008628845215 1.0687754154205322
0.048762246966362 -0.32971474528312683 1.0658459663391113
-0.016522623598575592 -0.41005739569664 1.1303117275238037
-0.02080008201301098 -0.41622915863990784 1.1228716373443604
-0.048587750643491745 -0.4501243829727173 1.1383655071258545
-0.007685862481594086 -0.3879202902317047 1.110835075378418
-0.061513178050518036 -0.455120712518692 1.0813723802566528
-0.08476901054382324 -0.47807931900024414 1.0851470232009888
0.06665182113647461 -0.3061389923095703 1.060295581817627
-0.009300705045461655 -0.40388160943984985 1.0952345132827759
0.002862347289919853 -0.3895566463470459 1.0866780281066895
-0.016318269073963165 -0.4134972095489502 1.102953553199768
-0.10402154922485352 -0.5132033824920654 1.132827639579773
-0.0981660708785057 -0.5050065517425537 1.119778037071228
-0.018256155773997307 -0.39134469628334045 1.044439673423767
-0.014536218717694283 -0.39597323536872864 1.0579317808151245
-0.02621142566204071 -0.4066438674926758 1.0649126768112183
-0.019676439464092255 -0.41111117601394653 1.073880672454834
0.027322940528392792 -0.35410481691360474 1.0714479684829712
0.00033770687878131866 -0.37711483240127563 1.0848296880722046
-0.05048083886504173 -0.4504496455192566 1.1202043294906616
-0.06057574599981308 -0.4689632058143616 1.1185420751571655
-0.07129441201686859 -0.4678916931152344 1.1247533559799194
-0.05007549002766609 -0.44757843017578125 1.0935478210449219
-0.05514565482735634 -0.4543750286102295 1.0899379253387451
0.01193676982074976 -0.3707648515701294 1.0400134325027466
-0.001075485721230507 -0.38233497738838196 1.0457998514175415
0.006795325316488743 -0.36070507764816284 1.0239219665527344
-0.0006253644824028015 -0.37935319542884827 1.0353169441223145
-0.011748526245355606 -0.3853973150253296 1.0467402935028076
0.022775903344154358 -0.35637736320495605 1.047472357749939
0.03356707841157913 -0.3486049175262451 1.0488786697387695
0.030055055394768715 -0.3358911871910095 1.0200541019439697
0.03072679415345192 -0.34537357091903687 1.0365701913833618
-0.06066015362739563 -0.46160852909088135 1.096436619758606
-0.06780530512332916 -0.47482725977897644 1.106615424156189
-0.0681852474808693 -0.46714305877685547 1.0983836650848389
-0.057605281472206116 -0.47404414415359497 1.1025763750076294
0.09780784696340561 -0.2685607671737671 1.0039833784103394
-0.06286292523145676 -0.41990581154823303 1.1096343994140625
-0.07527776062488556 -0.4293120503425598 1.1036858558654785
-0.028481069952249527 -0.3775075078010559 1.0856564044952393
-0.02896854281425476 -0.37629008293151855 1.0812954902648926
-0.03937850147485733 -0.3857818841934204 1.0919032096862793
-0.03413671627640724 -0.38116300106048584 1.0810056924819946
-0.03712853044271469 -0.3887142539024353 1.0906128883361816
-0.00659884512424469 -0.35696589946746826 1.0591747760772705
-0.01716814748942852 -0.3624236583709717 1.0622905492782593
0.001862531527876854 -0.3440578579902649 1.0521560907363892
-0.03498925268650055 -0.38951972126960754 1.0967060327529907
-0.07866451889276505 -0.45101356506347656 1.0780532360076904
-0.08715841919183731 -0.45974263548851013 1.1034839153289795
-0.03235790878534317 -0.38164079189300537 1.0587265491485596
-0.10065403580665588 -0.47223177552223206 1.1209248304367065
-0.10995442420244217 -0.49188944697380066 1.1220258474349976
-0.09750579297542572 -0.48065614700317383 1.110398530960083
-0.11500003188848495 -0.5031132698059082 1.135685682296753
0.09272395074367523 -0.23982572555541992 1.009088158607483
0.08583469688892365 -0.2721732258796692 1.0823826789855957
0.07464943826198578 -0.2737702429294586 1.0764988660812378
0.08072701841592789 -0.2766418159008026 1.0838823318481445
0.03876277431845665 -0.2970115542411804 1.0014970302581787
0.19479840993881226 -0.13139528036117554 1.003517985343933
0.19841289520263672 -0.14044766128063202 1.047014594078064
0.18961526453495026 -0.14959609508514404 1.0421247482299805
0.18762218952178955 -0.14572076499462128 1.0335019826889038
0.011805611662566662 -0.3582078218460083 1.0894938707351685
-0.06620024144649506 -0.4548584222793579 1.14739191532135
-0.11774034798145294 -0.506249189376831 1.1147453784942627
0.1546369045972824 -0.17316359281539917 1.005165934562683
0.14374572038650513 -0.19561246037483215 1.0012719631195068
0.02424599602818489 -0.34263211488723755 1.0905940532684326
0.01454043947160244 -0.3475390076637268 1.08528733253479
-0.008621614426374435 -0.37469279766082764 1.0954005718231201
-0.12052973359823227 -0.5150560736656189 1.1167782545089722
-0.1233295127749443 -0.5335736870765686 1.170255422592163
-0.1246931329369545 -0.5388534069061279 1.1740527153015137
-0.12997578084468842 -0.536759614944458 1.1554858684539795
0.11122173070907593 -0.22622036933898926 1.0058752298355103
0.10279723256826401 -0.24159449338912964 1.0100234746932983
0.0016693202778697014 -0.3784860372543335 1.0945607423782349
0.08862144500017166 -0.24269559979438782 0.9912114143371582
-0.10763730853796005 -0.49688616394996643 1.0910165309906006
0.11891472339630127 -0.2438821643590927 1.0930432081222534
0.11936983466148376 -0.2469441145658493 1.0890947580337524
0.1099059134721756 -0.25342926383018494 1.0806286334991455
0.10914479941129684 -0.2579403221607208 1.0923502445220947
0.10324512422084808 -0.2682056427001953 1.0952515602111816
0.09667012095451355 -0.2533543109893799 1.0576491355895996
0.10584437102079391 -0.2550815939903259 1.0623466968536377
-0.12778839468955994 -0.5397663712501526 1.1755406856536865
-0.03331106901168823 -0.39765843749046326 1.0486092567443848
-0.03654943034052849 -0.4077601432800293 1.0563791990280151
-0.04082728177309036 -0.40806445479393005 1.059332251548767
-0.022113975137472153 -0.38511717319488525 1.0306956768035889
0.11396220326423645 -0.2593766450881958 1.0899322032928467
0.1038297489285469 -0.27165383100509644 1.093116283416748
0.07519382238388062 -0.26509344577789307 0.9649218916893005
0.114811010658741 -0.2550298869609833 1.088728904724121
0.10963457077741623 -0.25836220383644104 1.0813546180725098
-0.015560775063931942 -0.39999401569366455 1.1184706687927246
0.0686841756105423 -0.26997777819633484 0.9381293654441833
0.06713002175092697 -0.26762673258781433 0.9320482015609741
0.055600281804800034 -0.2754559814929962 0.9251877069473267
0.051945269107818604 -0.28259164094924927 0.9312127828598022
0.1093238964676857 -0.2538248598575592 1.0095593929290771
0.09509295970201492 -0.27853474020957947 1.0799903869628906
-0.027134614065289497 -0.41839104890823364 1.110029697418213
-0.040916960686445236 -0.4352767765522003 1.1192543506622314
0.06914281845092773 -0.2777484059333801 0.9654945135116577
0.0681532546877861 -0.28364384174346924 0.9660318493843079
0.06213665381073952 -0.27769726514816284 0.9513805508613586
-0.036080099642276764 -0.4346109628677368 1.1118085384368896
-0.026672596111893654 -0.4221164584159851 1.100305199623108
-0.034285299479961395 -0.4289233088493347 1.0856146812438965
-0.0222319308668375 -0.4175167381763458 1.0800224542617798
-0.09301400184631348 -0.4891622066497803 1.1012718677520752
-0.08907318115234375 -0.49323421716690063 1.105886697769165
0.08064676076173782 -0.2781441807746887 0.9825890064239502
0.089456707239151 -0.28313711285591125 1.0298011302947998
0.07810341566801071 -0.2980627119541168 1.0283691883087158
0.08089861273765564 -0.29260826110839844 1.0181058645248413
0.06647473573684692 -0.30736690759658813 1.0332573652267456
0.055892497301101685 -0.3118453621864319 1.0266391038894653
-0.03852762654423714 -0.4435346722602844 1.0962032079696655
-0.028570162132382393 -0.43517518043518066 1.0927512645721436
-0.049129925668239594 -0.4653686285018921 1.1120988130569458
0.008621444925665855 -0.3932526111602783 1.0765604972839355
-0.010186303406953812 -0.4128667116165161 1.088507890701294
0.0010226164013147354 -0.3955335021018982 1.0771503448486328
-0.010742966085672379 -0.4047078490257263 1.0757490396499634
-0.010533452033996582 -0.4114643335342407 1.08260977268219
-0.009688771329820156 -0.4008016586303711 1.0820393562316895
-0.013560842722654343 -0.4151972532272339 1.0827693939208984
-0.052927032113075256 -0.47629696130752563 1.1116005182266235
-0.05472703278064728 -0.4698260426521301 1.1011191606521606
-0.07225019484758377 -0.4331328868865967 1.115569829940796
