-0.155278280377388 0.1345527470111847 1.0988898277282715
-0.167149618268013 -0.014224331825971603 0.9531351327896118
-0.20381738245487213 0.025421172380447388 1.7642719745635986
-0.13980136811733246 -0.025099962949752808 1.3692461252212524
-0.1488010138273239 -0.015145435929298401 1.2852381467819214
-0.08211284130811691 0.13130328059196472 0.9852054715156555
-0.12327417731285095 0.11867204308509827 0.8900299072265625
-0.15248018503189087 -0.006161301396787167 0.06620476394891739
-0.15621978044509888 -0.07995101809501648 0.03556295856833458
-0.17276237905025482 0.01604864001274109 1.7467879056930542
-0.15855753421783447 0.020112890750169754 1.6857304573059082
-0.12114332616329193 -0.15478330850601196 1.2536048889160156
-0.11268212646245956 -0.17184659838676453 1.2256300449371338
-0.11562240123748779 -0.19256672263145447 1.2188949584960938
-0.13698247075080872 0.08027519285678864 1.3591442108154297
-0.12563154101371765 0.07415718585252762 1.35398268699646
-0.10451439023017883 -0.15454836189746857 1.2765222787857056
-0.13244889676570892 -0.06779108941555023 1.2192587852478027
-0.13256381452083588 -0.046079445630311966 0.13036580383777618
-0.1369306743144989 -0.0065491232089698315 0.15036028623580933
-0.08948761224746704 0.10101955384016037 1.2053569555282593
-0.14266297221183777 -0.05357639119029045 1.4801702499389648
-0.14207039773464203 -0.049048855900764465 1.4547104835510254
-0.12877428531646729 -0.048399366438388824 1.432968020439148
-0.14375276863574982 -0.04606439545750618 1.4298595190048218
-0.14424343407154083 -0.06277812272310257 1.4165730476379395
-0.12396132946014404 -0.11676803231239319 0.7637964487075806
-0.13723544776439667 -0.0777001604437828 0.7552340030670166
-0.08452108502388 0.1930709183216095 0.9790138006210327
-0.08443265408277512 0.1973343938589096 1.0371878147125244
-0.09685249626636505 -0.14630863070487976 1.2730655670166016
-0.1221117228269577 -0.11398874968290329 0.8453593254089355
-0.12715324759483337 0.06614476442337036 0.06800416857004166
-0.12976279854774475 0.06300928443670273 0.019279975444078445
-0.1365155577659607 -0.1916697919368744 0.8439099192619324
-0.103096142411232 0.16776832938194275 1.1705960035324097
-0.13297073543071747 -0.11462356150150299 1.6726045608520508
-0.11866825073957443 0.002981964498758316 1.561830759048462
-0.10570356994867325 0.09282806515693665 1.509727954864502
-0.0953899398446083 0.061651572585105896 1.579005479812622
-0.11899451166391373 0.05370336025953293 1.5532701015472412
-0.11537722498178482 0.06718506664037704 1.4547592401504517
-0.0610809288918972 0.13104909658432007 1.5427806377410889
-0.10143087059259415 -0.040424324572086334 1.5162196159362793
-0.09818096458911896 0.04590136185288429 0.9730602502822876
-0.13281503319740295 0.03717460483312607 1.8498265743255615
-0.1438894271850586 0.02849612385034561 1.8457841873168945
-0.14613264799118042 0.01804821938276291 1.835541009902954
-0.023907138034701347 0.06064707413315773 1.4368280172348022
-0.09975509345531464 0.1074662134051323 1.404097557067871
-0.05831156298518181 -0.021154383197426796 -0.006284025032073259
-0.05624016001820564 0.15359897911548615 1.3217518329620361
-0.0939260870218277 -0.11748655140399933 1.5767104625701904
-0.07466855645179749 -0.05810948833823204 0.359829843044281
-0.05990470573306084 0.060497771948575974 1.5141960382461548
-0.07064152508974075 0.008428812026977539 1.5097910165786743
-0.04746047034859657 0.12763868272304535 1.447948932647705
-0.03928622230887413 0.052154313772916794 0.8566579818725586
-0.07610845565795898 0.011759461835026741 0.3194509744644165
-0.028618283569812775 0.15413083136081696 0.8815042972564697
-0.03191538527607918 0.046483855694532394 1.0369210243225098
-0.07613828033208847 -0.17180034518241882 1.2707240581512451
-0.07936222106218338 -0.15779420733451843 1.1681935787200928
-0.06166616827249527 -0.013284665532410145 0.29368966817855835
-0.039794743061065674 -0.01938537321984768 0.23146356642246246
-0.06939409673213959 0.029738053679466248 0.2330094873905182
-0.054711103439331055 0.04518212005496025 1.541228175163269
-0.03645005449652672 -0.11724071204662323 0.6704419255256653
-0.05886586755514145 -0.043881166726350784 0.6356585025787354
-0.023148728534579277 0.21297404170036316 1.0220746994018555
-0.023530375212430954 0.1961175799369812 0.9272009134292603
-0.025586511939764023 -0.19002801179885864 1.19319486618042
-0.04939361289143562 0.006301146931946278 0.09046846628189087
-0.02109496481716633 0.13883857429027557 0.9296252727508545
-0.023007379844784737 0.11594904214143753 0.9800950288772583
0.015092657878994942 0.048609666526317596 1.5235881805419922
-0.06267690658569336 -0.11906440556049347 1.4137108325958252
0.0064685167744755745 0.1659460812807083 1.2941765785217285
0.02852988988161087 0.05730992555618286 1.4223616123199463
0.00828125886619091 0.039171475917100906 1.5334653854370117
0.04492230340838432 0.1409694105386734 0.9417794346809387
0.05769053474068642 0.1242142766714096 0.8893660306930542
0.004543649032711983 -0.13199448585510254 1.4064409732818604
0.01808227226138115 0.04572898894548416 1.031419277191162
-0.004689434543251991 -0.19749554991722107 1.1244627237319946
0.08454355597496033 0.1474238634109497 1.321097493171692
0.030713818967342377 -0.012118566781282425 1.316986083984375
0.0638541728258133 0.11900104582309723 1.4565354585647583
0.03437243402004242 0.06293785572052002 1.4703364372253418
0.043860968202352524 -0.01948978193104267 1.224118709564209
0.04447435215115547 0.09734193980693817 0.9199200868606567
0.02560676448047161 -0.0027650929987430573 1.7893353700637817
0.020275382325053215 -0.2084423303604126 0.07720108330249786
0.025792617350816727 -0.24644115567207336 0.049100130796432495
0.024053504690527916 -0.11749729514122009 0.048670437186956406
0.003113469108939171 -0.14634215831756592 1.6847050189971924
0.042284298688173294 -0.07591503113508224 0.6969358921051025
0.101427361369133 0.05581928789615631 1.4367341995239258
0.060766205191612244 -0.06332473456859589 1.5210893154144287
0.10878001153469086 -0.06520301103591919 1.4529533386230469
0.05706554278731346 -0.027045810595154762 1.430012822151184
0.053072355687618256 -0.08387593924999237 0.36788690090179443
0.05021003261208534 -0.1813165843486786 0.21788492798805237
0.06804194301366806 -0.08392182737588882 0.17243871092796326
0.11889132112264633 0.1415807604789734 0.946843147277832
0.10565079748630524 0.16601398587226868 0.9015836715698242
0.07930024713277817 -0.1595802903175354 0.730164647102356
0.07732593268156052 -0.07270777970552444 0.6344319581985474
0.03108205646276474 -0.059429917484521866 1.7824440002441406
0.07845786213874817 -0.06720676273107529 1.736641526222229
0.07384532690048218 -0.16329607367515564 0.5357401371002197
0.04566974937915802 0.009861476719379425 1.8011051416397095
0.07900495827198029 -0.00812414288520813 1.7504768371582031
0.08646558225154877 -0.08088916540145874 1.15012788772583
0.09069029986858368 -0.07110244035720825 1.118574857711792
0.08300302922725677 -0.14772680401802063 1.1048632860183716
0.06637834757566452 -0.11575332283973694 1.6752508878707886
0.07729120552539825 -0.05183239281177521 1.5533612966537476
0.07056792825460434 -0.09801019728183746 1.5599595308303833
0.16673843562602997 0.12313808500766754 0.9039087891578674
0.10021881759166718 -0.11625227332115173 1.3077681064605713
0.11064575612545013 -0.18277180194854736 1.2585875988006592
0.10152387619018555 -0.1020195335149765 1.2565233707427979
0.10841983556747437 -0.08736642450094223 0.10897175222635269
0.08945466578006744 -0.18876716494560242 0.138882577419281
0.10624310374259949 -0.1853352189064026 0.1205998957157135
0.09213721752166748 0.017670534551143646 1.7705744504928589
0.11262659728527069 -0.13541588187217712 1.3045597076416016
0.1310274749994278 -0.08903045952320099 0.40297380089759827
0.11194854229688644 -0.13660594820976257 0.46272313594818115
0.13217730820178986 -0.10836755484342575 0.34546926617622375
0.12504491209983826 -0.08659851551055908 1.4448246955871582
0.11121003329753876 -0.0804516151547432 1.440131664276123
0.13151021301746368 -0.055948879569768906 1.4011473655700684
0.12510579824447632 0.06826556473970413 0.9113571643829346
0.12344662845134735 -0.11479067802429199 0.8424060940742493
0.14080622792243958 -0.10701298713684082 0.21419601142406464
0.14649419486522675 -0.13906049728393555 0.22339189052581787
0.14379756152629852 -0.04594261944293976 1.3943723440170288
0.17327770590782166 0.08421605080366135 1.2374045848846436
0.17960353195667267 0.11573918908834457 1.2019809484481812
0.11443351209163666 -0.2449738085269928 1.1459218263626099
0.1696009337902069 -0.056631386280059814 0.979810357093811
0.17220932245254517 -0.11655747890472412 0.9722800254821777
0.14520831406116486 -0.010843321681022644 1.2004868984222412
0.19475656747817993 -0.08442209661006927 1.045340895652771
0.19065524637699127 -0.030057832598686218 1.0397436618804932
0.23377883434295654 -0.13998514413833618 1.0916635990142822
-0.22501511871814728 -0.008364545181393623 0.9540549516677856
-0.24213598668575287 -0.0753541961312294 0.9222748875617981
-0.18709193170070648 -0.1017722487449646 1.0774078369140625
-0.22209423780441284 -0.1165962964296341 1.1218739748001099
-0.1516752392053604 -0.06696204841136932 1.1083167791366577
-0.1453593373298645 -0.01834963634610176 1.1359236240386963
-0.19153615832328796 -0.15872757136821747 0.8562434911727905
-0.1549064964056015 0.12643736600875854 0.9378995895385742
-0.15660925209522247 0.12307122349739075 1.0581165552139282
-0.09883458912372589 -0.2552489936351776 1.116223931312561
-0.14514081180095673 -0.16736161708831787 0.9576280117034912
-0.15736214816570282 -0.025454750284552574 0.23539632558822632
-0.13631659746170044 -0.07473547011613846 0.24497255682945251
-0.11224304884672165 -0.0037254453636705875 0.47250866889953613
-0.14800941944122314 -0.1982748955488205 0.8486583828926086
-0.11404469609260559 -0.07136619091033936 0.6026023626327515
-0.1144876480102539 -0.11051235347986221 0.6611725091934204
-0.10388101637363434 -0.0478043332695961 0.6703659296035767
-0.1022777333855629 -0.0097417663782835 1.1094324588775635
-0.10365737229585648 -0.07261061668395996 1.1367971897125244
-0.0630049854516983 0.19318392872810364 1.1206194162368774
-0.11213868111371994 -0.020919665694236755 0.8427500128746033
-0.09093126654624939 -0.08847270160913467 0.2601199746131897
-0.10853275656700134 -0.024606255814433098 1.2201635837554932
-0.08763925731182098 -0.03272946551442146 1.1453137397766113
-0.09466192126274109 -0.0867948979139328 0.40508273243904114
-0.13217467069625854 0.007415618747472763 1.767600655555725
-0.13243022561073303 -0.031224943697452545 1.760349988937378
-0.0851544439792633 -0.06899910420179367 1.7781455516815186
-0.09823592752218246 -0.11405478417873383 1.741083025932312
-0.11466269195079803 -0.11699578166007996 1.6328203678131104
-0.07452650368213654 -0.050472043454647064 0.3031805157661438
-0.042296748608350754 -0.12387436628341675 0.725781261920929
-0.042955826967954636 -0.04867050051689148 0.23280686140060425
-0.06170887127518654 -0.07884924858808517 0.2322545051574707
-0.07301017642021179 0.019946107640862465 0.1819852888584137
-0.05646505206823349 0.06829008460044861 0.9662795066833496
-0.08362769335508347 0.029912393540143967 1.8138017654418945
-0.09568221867084503 0.013819333165884018 1.8024097681045532
0.03738410770893097 0.11902949959039688 1.1225340366363525
-0.06791119277477264 0.11981622129678726 1.1206392049789429
0.014554783701896667 0.10780961811542511 1.1880751848220825
0.011470545083284378 -0.03014734759926796 1.264460563659668
0.02214002050459385 0.19619086384773254 1.1601202487945557
0.026744063943624496 0.12258172035217285 0.9854487776756287
0.09158077090978622 0.2075815051794052 1.0623996257781982
0.025108320638537407 0.1320003718137741 1.664947271347046
0.0701746717095375 0.11508866399526596 0.9942768812179565
0.044076286256313324 -0.21740266680717468 0.9097115993499756
0.021483905613422394 -0.139553964138031 0.23599061369895935
0.034827593713998795 -0.15483270585536957 0.17719675600528717
0.033804330974817276 -0.14378365874290466 0.6882636547088623
0.0443098321557045 0.020518096163868904 1.0677387714385986
0.04703150689601898 -0.07641761749982834 0.5464853048324585
0.09885184466838837 0.0887569934129715 1.2693819999694824
0.0868426263332367 -0.11104913055896759 1.4269424676895142
0.062135543674230576 0.11157210916280746 1.6305605173110962
0.06108344346284866 0.03409223258495331 1.614476203918457
0.06271274387836456 0.05133447051048279 1.5840201377868652
0.04135073721408844 0.022593539208173752 1.8509202003479004
0.08657686412334442 -0.1261817216873169 1.3546059131622314
0.10683885961771011 -0.05856887996196747 0.46861720085144043
0.0757019892334938 -0.04476477578282356 0.46626514196395874
0.09053702652454376 -0.06437084078788757 0.31459158658981323
0.1116507425904274 -0.07284296303987503 0.2842050790786743
0.10187699645757675 -0.04612315446138382 1.544135570526123
0.08934739232063293 -0.05618375912308693 1.5539016723632812
0.10369574278593063 -0.051430217921733856 1.5353821516036987
0.11371234804391861 -0.065397247672081 0.7397137880325317
0.11063031852245331 -0.12058612704277039 0.612129271030426
0.13178402185440063 0.030268056318163872 0.953375518321991
0.12213245779275894 -0.06335943937301636 1.091274619102478
0.11486674845218658 -0.11993991583585739 1.0840860605239868
0.1237049251794815 -0.1473136842250824 1.028064489364624
0.10224734246730804 0.007043961435556412 1.6634788513183594
0.11433389782905579 -0.006492882966995239 1.5752912759780884
0.09962001442909241 -0.16903629899024963 1.2427228689193726
0.12689471244812012 0.06766984611749649 1.5455609560012817
0.11774399876594543 0.0391843244433403 1.5952725410461426
0.12821221351623535 -0.11660455167293549 0.013239149004220963
0.1304798424243927 -0.19015628099441528 0.028452467173337936
0.13791729509830475 0.043911244720220566 1.5093557834625244
0.142379030585289 0.05648118630051613 1.4740221500396729
0.15029950439929962 0.04655364528298378 1.4290087223052979
0.14999264478683472 0.060300253331661224 1.4061273336410522
0.10907918959856033 -0.2520154118537903 1.164278507232666
0.17567767202854156 -0.15527747571468353 0.8511638641357422
0.12566672265529633 -0.22510115802288055 1.1802023649215698
0.12384545803070068 -0.2511436343193054 1.1642396450042725
0.20693868398666382 -0.11036919057369232 0.8638464212417603
0.20572365820407867 -0.08942806720733643 0.8433781266212463
0.2170741856098175 -0.05361749976873398 0.8498520851135254
-0.18274357914924622 -0.11441363394260406 1.1529560089111328
-0.15100699663162231 -0.1243458241224289 1.260432481765747
-0.15315857529640198 -0.12240424752235413 1.2373430728912354
-0.14680153131484985 -0.11550447344779968 1.2488008737564087
-0.14517217874526978 -0.11418858170509338 1.2691984176635742
-0.20248457789421082 -0.001664530485868454 0.8523191809654236
-0.1281503289937973 -0.07523366063833237 1.3020504713058472
-0.14271199703216553 -0.059843510389328 1.0868436098098755
-0.14399510622024536 0.08537989109754562 1.553230881690979
-0.13108789920806885 -0.09512631595134735 1.2088453769683838
-0.1361420452594757 -0.08137240260839462 1.1547216176986694
-0.12076547741889954 0.07878363877534866 1.4337661266326904
-0.11282660812139511 0.07200288027524948 1.3846174478530884
-0.12751223146915436 -0.14017775654792786 1.052046298980713
-0.09453316032886505 -0.16729554533958435 1.0113688707351685
-0.11629954725503922 -0.03263524919748306 0.7597935795783997
-0.06006619706749916 0.17377646267414093 1.2111413478851318
-0.08307282626628876 0.13265256583690643 1.640627145767212
-0.051290031522512436 0.05153661593794823 0.026358796283602715
-0.06535574793815613 0.06638001650571823 0.014467086642980576
-0.08535563200712204 0.023746352642774582 0.8608770966529846
-0.00783249270170927 0.09712687134742737 0.8503439426422119
-0.060039222240448 -0.022220993414521217 0.838931679725647
0.01599966548383236 0.07716087996959686 1.3028755187988281
-0.02060125768184662 -0.08331923186779022 0.7605154514312744
-0.036756619811058044 -0.13771121203899384 1.6533706188201904
-0.011962465941905975 0.017311710864305496 0.873642086982727
-0.006369868293404579 -0.02417011559009552 0.8524714112281799
0.009983844123780727 -0.11627225577831268 0.8552154898643494
-0.0774107277393341 -0.16733136773109436 0.8600025177001953
-0.003884965553879738 -0.22717514634132385 0.8558789491653442
0.02320353128015995 -0.10933035612106323 0.8274438977241516
-0.007285543251782656 -0.16176098585128784 0.8668872117996216
0.004612745717167854 0.017478492110967636 1.5074270963668823
0.020552802830934525 -0.03529253974556923 0.843201220035553
0.02294629067182541 -0.049212098121643066 0.8197691440582275
0.01786588877439499 0.035618990659713745 1.5872070789337158
0.022363461554050446 0.03843783587217331 1.558348298072815
0.034824129194021225 -0.12222034484148026 0.8420931100845337
0.12797023355960846 0.05975303053855896 0.8389251232147217
0.027171295136213303 -0.1099635660648346 0.23172365128993988
0.04284992441534996 -0.03736752271652222 0.8016349077224731
0.08592275530099869 0.12090951204299927 1.1550447940826416
0.06777146458625793 -0.13441720604896545 0.3569343090057373
0.05807669088244438 -0.12119072675704956 0.29354146122932434
0.0750887468457222 -0.14351695775985718 0.31081879138946533
0.06244947016239166 -0.18674808740615845 0.2587239742279053
0.1051725447177887 0.0774926245212555 1.5118763446807861
0.07565031200647354 -0.015089962631464005 0.8376719951629639
0.09987422823905945 -0.03867488354444504 0.8085212707519531
0.09925376623868942 -0.07051564753055573 1.2604931592941284
0.0987563282251358 -0.14703020453453064 0.40673136711120605
0.09817482531070709 0.06273706257343292 1.6291263103485107
0.08828529715538025 -0.03293560445308685 1.316551923751831
0.10516028106212616 -0.1458885818719864 0.31063854694366455
0.10916242748498917 0.18997791409492493 1.135959506034851
0.10351699590682983 -0.04434924200177193 1.2326040267944336
0.10949024558067322 -0.08648812770843506 0.17444023489952087
0.15723267197608948 0.18073976039886475 1.040820837020874
0.0982087254524231 -0.07363290339708328 0.21432918310165405
0.10247557610273361 -0.19539514183998108 0.2295098900794983
0.14894840121269226 0.07796898484230042 1.2943782806396484
0.11971739679574966 -0.06713365018367767 1.486740231513977
0.13111385703086853 -0.0639771893620491 1.450417399406433
0.12170489132404327 -0.06612414121627808 1.484691858291626
0.14419777691364288 -0.04423084110021591 1.4295754432678223
0.1202818751335144 -0.19324801862239838 1.2251675128936768
0.1057104542851448 -0.20876142382621765 1.2179639339447021
0.17561955749988556 0.10073349624872208 1.1836069822311401
0.19549666345119476 0.1330634206533432 1.1050556898117065
0.19083654880523682 0.12416890263557434 1.069385051727295
0.13681931793689728 -0.051132217049598694 1.2543833255767822
0.1260356605052948 -0.09948908537626266 1.2585269212722778
0.16114342212677002 -0.17966380715370178 0.8656988739967346
0.14318837225437164 -0.1200970932841301 1.2621121406555176
0.15401048958301544 -0.12595202028751373 1.1415023803710938
0.1410592794418335 -0.04083526134490967 1.1457481384277344
0.14828871190547943 -0.09167264401912689 1.116283893585205
0.24291104078292847 -0.11934465914964676 1.1330980062484741
0.23401428759098053 -0.04640026390552521 1.0071510076522827
0.24313867092132568 -0.12423393875360489 1.0423905849456787
-0.11175838112831116 -0.2441864311695099 1.1566582918167114
-0.12110359221696854 -0.1740626096725464 1.2107487916946411
-0.13344138860702515 -0.1627076268196106 1.2286055088043213
-0.10131244361400604 -0.2271655648946762 1.162346601486206
-0.13864761590957642 0.08547590672969818 1.4694937467575073
-0.14318925142288208 0.0706901028752327 1.4516212940216064
-0.14838698506355286 0.08615408092737198 1.398941993713379
-0.15526428818702698 0.00011438131332397461 1.7296136617660522
-0.1513957381248474 -0.04585631936788559 1.6435174942016602
-0.13250409066677094 -0.04904830828309059 0.29554325342178345
-0.12713748216629028 -0.07207086682319641 0.8338401317596436
-0.12437693774700165 -0.09754198789596558 0.8143740892410278
-0.13893760740756989 0.14160281419754028 0.904167890548706
-0.08771295845508575 -0.13760407269001007 1.2657382488250732
-0.1102822944521904 -0.03287301957607269 0.8119324445724487
-0.10203403979539871 -0.00772663950920105 1.7832599878311157
-0.09188372641801834 -0.12092410773038864 1.1419758796691895
-0.053345538675785065 -0.18178601562976837 1.1387826204299927
-0.06633604317903519 0.13089950382709503 1.0332046747207642
0.020709002390503883 0.12672059237957 1.0323569774627686
-0.06501217186450958 -0.015834540128707886 1.1610692739486694
-0.0484011135995388 -0.11634065210819244 0.8484640717506409
-0.047535210847854614 -0.1859734058380127 1.074169397354126
-0.05076858028769493 0.02631188929080963 1.0602962970733643
-0.029416244477033615 -0.11516332626342773 1.7554537057876587
0.012760311365127563 -0.10872373729944229 0.7608997821807861
-0.04669564962387085 0.0876430943608284 1.2657586336135864
0.027724776417016983 -0.19553229212760925 -0.004568025469779968
0.1333020031452179 0.19273434579372406 0.9637987017631531
0.10166693478822708 0.13336725533008575 1.054057240486145
0.06790869683027267 0.20901603996753693 0.9765236377716064
0.09518688172101974 0.09030210226774216 0.8488198518753052
0.10294065624475479 -0.06955007463693619 -0.006027691066265106
0.11856724321842194 -0.03686055541038513 0.8339435458183289
0.10140375047922134 -0.14100688695907593 0.36156028509140015
0.13317716121673584 -0.10356751084327698 1.4030656814575195
0.12120321393013 -0.11663578450679779 1.314391851425171
0.20158958435058594 0.0004048394039273262 0.8433579802513123
0.2095639705657959 -0.046155862510204315 0.9108530282974243
0.24070501327514648 -0.08881352841854095 1.0132595300674438
-0.22443754971027374 -0.12084315717220306 1.0795001983642578
-0.20619185268878937 -0.08959821611642838 0.9131746888160706
-0.2169743776321411 -0.07898610830307007 0.854316234588623
-0.14810867607593536 0.06803238391876221 1.3980046510696411
-0.1479363590478897 0.09147585183382034 1.2204058170318604
-0.14159707725048065 -0.0018263831734657288 1.5511367321014404
-0.14150790870189667 -0.05417872220277786 1.0518574714660645
-0.1396382749080658 -0.08227254450321198 1.0939431190490723
-0.14043045043945312 0.0011151805520057678 1.5504279136657715
-0.13647007942199707 -0.013965077698230743 1.5390684604644775
-0.14006637036800385 -0.004099871963262558 1.5474933385849
-0.13914720714092255 -0.007267694920301437 1.5500890016555786
-0.14359527826309204 -0.025427943095564842 1.540421962738037
-0.10357264429330826 -0.0660756379365921 0.1312769055366516
-0.14801178872585297 -0.07913699001073837 1.7077860832214355
-0.03480975329875946 -0.011190924793481827 1.2187341451644897
-0.050009340047836304 -0.06939263641834259 0.03535396605730057
-0.05005022883415222 -0.02386344037950039 1.2613857984542847
-0.004112753085792065 -0.015579549595713615 1.1719329357147217
-0.04484623298048973 0.09389540553092957 0.9276269674301147
-0.03781150281429291 -0.011600323021411896 1.8011175394058228
-0.02574741467833519 -0.07671484351158142 0.6908008456230164
-0.01679765246808529 0.09153419733047485 1.2266368865966797
0.011121625080704689 -0.19195693731307983 1.020117163658142
-0.02377920038998127 -0.19327770173549652 1.2409991025924683
0.0325545072555542 0.11661750823259354 1.083844780921936
0.04034827649593353 -0.108713299036026 0.164756178855896
0.07172713428735733 -0.17563746869564056 0.9992928504943848
0.1246245801448822 -0.17002031207084656 0.9689704179763794
0.08274360001087189 0.05099096894264221 1.5468239784240723
0.07616069912910461 -0.1611354649066925 1.1831878423690796
0.039891961961984634 -0.022326208651065826 1.169512391090393
0.10119494050741196 -0.017602531239390373 1.0830161571502686
0.08628884702920914 0.06357836723327637 0.9546850919723511
0.08574831485748291 -0.27733078598976135 0.004380660131573677
0.06306833028793335 -0.263031542301178 -0.013911530375480652
0.11645403504371643 -0.24712133407592773 -0.010348055511713028
0.12342840433120728 -0.18325601518154144 0.20514094829559326
0.11788743734359741 -0.06487686932086945 1.4818763732910156
0.12249188125133514 -0.06537920236587524 1.483444333076477
0.10478471219539642 -0.07556738704442978 1.3341853618621826
0.1159597858786583 -0.10506687313318253 1.306896686553955
0.20162449777126312 0.14784352481365204 0.9823956489562988
0.19766643643379211 0.11825228482484818 0.9343895316123962
0.2094287872314453 0.12569659948349 0.933002233505249
0.24131396412849426 -0.03269784897565842 1.010388731956482
0.25171059370040894 -0.10361049324274063 0.9804912805557251
0.27435293793678284 -0.12363740801811218 0.9599413275718689
-0.1814330518245697 -0.04664773866534233 1.0040311813354492
-0.13213810324668884 -0.2056845873594284 1.1948930025100708
-0.1036619246006012 -0.05855535715818405 0.32691940665245056
-0.09156493842601776 0.12384187430143356 0.8807216882705688
-0.10148172080516815 -0.13840512931346893 1.0917842388153076
-0.030959051102399826 -0.04324149340391159 0.8435109257698059
-0.04674982652068138 -0.03184383735060692 0.8040979504585266
-0.03895443305373192 -0.0856432095170021 0.8080453872680664
-0.00037743523716926575 0.021341927349567413 1.105078101158142
0.024694308638572693 -0.21004226803779602 0.8442379236221313
0.09474684298038483 0.01672312244772911 0.8538017272949219
0.11946271359920502 0.12987346947193146 1.0140069723129272
0.10875183343887329 0.01507129892706871 1.5731736421585083
0.11713162064552307 0.03676664084196091 1.544222116470337
0.19576984643936157 -0.11457686871290207 0.915201723575592
-0.1286962926387787 -0.21578869223594666 1.1611090898513794
-0.1467687487602234 0.05386572331190109 1.5764778852462769
-0.05915322154760361 0.1416233777999878 0.9334250688552856
-0.12775054574012756 0.08660382032394409 1.604578971862793
-0.0968649610877037 0.04932935908436775 1.5991581678390503
-0.06031259149312973 0.039863310754299164 1.578174114227295
0.0397539958357811 -0.18836182355880737 1.0766514539718628
0.0646783709526062 -0.14880390465259552 1.2730704545974731
0.05308877304196358 -0.18437081575393677 0.13606883585453033
0.10401947796344757 -0.12508924305438995 1.2301514148712158
0.11259375512599945 -0.1064542904496193 1.1750363111495972
0.13117891550064087 0.06760440766811371 1.4273173809051514
0.11144967377185822 0.09921805560588837 1.425133466720581
0.11501628160476685 -0.06144334375858307 1.1831861734390259
0.11907908320426941 -0.07773424685001373 0.8207273483276367
0.08696295320987701 -0.1898401379585266 1.2468771934509277
0.14803311228752136 0.09518276900053024 1.3161529302597046
-0.13475240767002106 0.09265116602182388 1.3179144859313965
-0.09757993370294571 0.014732981100678444 0.3467932343482971
0.023274891078472137 -0.11385478079319 0.7175994515419006
0.029710687696933746 -0.11599084734916687 1.7376670837402344
-0.1531166136264801 0.14569883048534393 0.9853937029838562
-0.13968566060066223 -0.11650088429450989 1.2769981622695923
-0.060063451528549194 -0.027933549135923386 0.3777204155921936
0.009570663794875145 0.1310255378484726 1.4495601654052734
0.03748153895139694 -0.26077526807785034 0.007164079695940018
0.10635152459144592 -0.05172284319996834 1.5350384712219238
0.1036335900425911 -0.05057263746857643 1.5338202714920044
0.11549235880374908 -0.06845717877149582 1.437488079071045
0.11588840931653976 -0.17376405000686646 0.17091983556747437
0.12621058523654938 -0.13543495535850525 0.15256769955158234
0.1604476273059845 -0.13496534526348114 1.1913384199142456
-0.17848318815231323 -0.16401948034763336 0.919624388217926
-0.1414850652217865 0.07828051596879959 1.3566515445709229
-0.1391628086566925 0.07636715471744537 1.359846591949463
-0.14701029658317566 0.07396334409713745 1.3594602346420288
-0.05235306918621063 -0.02226705476641655 0.17194971442222595
-0.02941640466451645 -0.09733635932207108 0.8456603288650513
0.02832263894379139 -0.15003570914268494 0.12865003943443298
0.1948133111000061 -0.1399536281824112 1.1347301006317139
0.09312434494495392 -0.06666316837072372 1.6833727359771729
0.12934544682502747 -0.1083015501499176 0.7719603776931763
0.14986257255077362 0.0603916198015213 1.3807066679000854
0.14971160888671875 0.0766570121049881 1.336136817932129
0.03535478934645653 -0.10488326847553253 -0.012483494356274605
0.2469867318868637 -0.5236010551452637 0.9276920557022095
0.23264658451080322 -0.4891350269317627 0.9137958884239197
0.23607565462589264 -0.4984649419784546 0.9128317832946777
0.22703291475772858 -0.4992649257183075 0.9278858304023743
0.23626424372196198 -0.5216852426528931 0.9197074174880981
0.24362874031066895 -0.5187058448791504 0.9336877465248108
0.2501746118068695 -0.34504371881484985 0.9382990002632141
0.22879678010940552 -0.35118240118026733 0.936380922794342
0.2509697675704956 -0.3740749955177307 0.9372069835662842
0.24639786779880524 -0.3866726756095886 0.9395465850830078
0.22156015038490295 -0.15847504138946533 0.9057338237762451
0.22165322303771973 -0.17186520993709564 0.9219428300857544
0.21934035420417786 -0.16967728734016418 0.8965635299682617
0.22423335909843445 -0.36121511459350586 0.8989800214767456
0.23152777552604675 -0.38058653473854065 0.910290539264679
0.2623962461948395 -0.414028137922287 0.9536565542221069
0.2563037872314453 -0.3995133340358734 0.9454554319381714
0.21284858882427216 -0.20628370344638824 0.8730788230895996
0.21865969896316528 -0.21890553832054138 0.8951600790023804
0.2545931339263916 -0.2666942775249481 0.946008026599884
0.24615108966827393 -0.25996237993240356 0.9431875348091125
0.2630521059036255 -0.49756306409835815 0.9439619779586792
0.24072274565696716 -0.47032493352890015 0.9076863527297974
0.2249232828617096 -0.1631561815738678 0.8843561410903931
0.2195933312177658 -0.16966992616653442 0.8794894814491272
0.26876139640808105 0.04353144019842148 0.9937728047370911
0.2679409384727478 0.031233422458171844 0.99024498462677
0.25708484649658203 0.04939946532249451 0.9734594225883484
0.25285834074020386 -0.44166913628578186 0.9413129091262817
0.2581577003002167 -0.47057807445526123 0.9410820007324219
0.22711557149887085 -0.16771171987056732 0.8769952058792114
0.22000280022621155 -0.16577041149139404 0.8664535284042358
0.23081493377685547 -0.543046236038208 0.8753385543823242
0.23350074887275696 -0.5590128898620605 0.876767098903656
0.27327314019203186 0.06222876161336899 0.9885730743408203
0.272034615278244 0.04539567977190018 0.997675359249115
0.2652284801006317 0.06280790269374847 0.984405517578125
0.2613115906715393 0.05487022548913956 0.9718794822692871
0.253287672996521 -0.6025463342666626 0.922829270362854
0.26358506083488464 -0.6257516741752625 0.9307657480239868
0.2511383891105652 -0.6278221607208252 0.9116063117980957
0.22543299198150635 -0.2934792637825012 0.8819236755371094
0.2344943881034851 -0.31423360109329224 0.879264235496521
0.22062480449676514 -0.334860622882843 0.871853768825531
0.23097951710224152 -0.32894349098205566 0.866697371006012
0.2793138921260834 0.04033979773521423 1.0000526905059814
0.265811949968338 0.06687841564416885 0.9790416955947876
0.27446189522743225 -0.43785524368286133 0.9546736478805542
0.2785700261592865 -0.4377191364765167 0.9555440545082092
0.26718342304229736 -0.45836856961250305 0.9533160924911499
0.2733946144580841 -0.4774399697780609 0.9509070515632629
0.2256551831960678 -0.24666331708431244 0.8783342242240906
0.2250155359506607 -0.2614153027534485 0.8724222183227539
0.22183074057102203 -0.2664453983306885 0.8765755891799927
0.2750665843486786 0.06261350959539413 0.9822629690170288
0.28220903873443604 0.03746866434812546 0.9965516328811646
0.27054595947265625 0.04463428258895874 0.9704535007476807
0.2085658609867096 -0.12953579425811768 0.8402210474014282
0.20689164102077484 -0.13519611954689026 0.8327282667160034
0.21749913692474365 -0.15067842602729797 0.8552464842796326
0.21462620794773102 -0.14542578160762787 0.843898355960846
0.20550785958766937 -0.13990509510040283 0.8446696996688843
0.2333817183971405 -0.3613288104534149 0.8565361499786377
0.226812943816185 -0.3404722213745117 0.8577609062194824
0.22316010296344757 -0.3456685543060303 0.8442307710647583
0.21682791411876678 -0.3509618043899536 0.843490719795227
0.2752360999584198 0.04139076918363571 0.9796288013458252
0.2729552686214447 -0.6310184001922607 0.9314126372337341
0.25880634784698486 -0.6283690929412842 0.9114708304405212
0.2724034786224365 -0.6424399614334106 0.9240028858184814
0.26763883233070374 -0.6471870541572571 0.9286074638366699
0.257351815700531 -0.6190680861473083 0.9016563296318054
0.25068342685699463 -0.1517191082239151 0.8899993300437927
0.2343197762966156 -0.16402441263198853 0.876801073551178
0.23901408910751343 -0.5196037292480469 0.8654491901397705
0.23359987139701843 -0.5504003763198853 0.8707324266433716
0.24683380126953125 -0.5725709199905396 0.8809615969657898
0.2737777829170227 -0.2556498646736145 0.9386962056159973
0.27125656604766846 -0.278754860162735 0.9378173351287842
0.2724809944629669 -0.2852098047733307 0.9295617341995239
0.2804549038410187 -0.4285513758659363 0.9531456828117371
0.2757280170917511 -0.43829047679901123 0.9464377760887146
0.2810165286064148 -0.4992716908454895 0.9450080394744873
0.268066942691803 -0.39991140365600586 0.9456740617752075
0.25724026560783386 -0.4934637248516083 0.8849310278892517
0.2504553496837616 -0.5301633477210999 0.880620002746582
0.27455607056617737 -0.2533615827560425 0.9327102303504944
0.27133727073669434 -0.4063922166824341 0.9224532246589661
0.2804504334926605 -0.38774287700653076 0.919224739074707
0.2784041464328766 -0.42292892932891846 0.9246364235877991
0.26304957270622253 -0.5890508890151978 0.9077179431915283
0.2645913064479828 -0.5740994215011597 0.8992711901664734
0.2447482943534851 -0.38653337955474854 0.8785689473152161
0.2645902633666992 -0.39090120792388916 0.8870117664337158
0.2560713589191437 -0.4143292307853699 0.8926904201507568
0.26671189069747925 -0.4162532091140747 0.8999258875846863
0.27363288402557373 -0.3307686448097229 0.923606276512146
0.26771417260169983 -0.37158292531967163 0.9225931167602539
0.2731681764125824 -0.4913902282714844 0.9239132404327393
0.2753596305847168 -0.517604649066925 0.9140088558197021
0.2721686065196991 -0.5218967795372009 0.9240279793739319
0.2696377635002136 -0.4775501787662506 0.898919403553009
0.26786670088768005 -0.48770272731781006 0.8921126127243042
0.2546277344226837 -0.3479357361793518 0.8865454196929932
0.2551451325416565 -0.3656364381313324 0.8839806914329529
0.251270592212677 -0.33085402846336365 0.8754542469978333
0.24847203493118286 -0.35697126388549805 0.8771764636039734
0.2504459321498871 -0.37721338868141174 0.8842740058898926
0.2639598846435547 -0.3212525248527527 0.8989084362983704
0.2673974633216858 -0.30771154165267944 0.902780294418335
0.25083431601524353 -0.2954155206680298 0.8827807903289795
0.2611633837223053 -0.30791640281677246 0.8917776346206665
0.2623419463634491 -0.498659610748291 0.8964955806732178
0.2698591351509094 -0.5218567848205566 0.896769642829895
0.2641642391681671 -0.5084824562072754 0.8979370594024658
0.2830892503261566 -0.5117157101631165 0.8935548663139343
0.26824256777763367 -0.17486035823822021 0.8956165909767151
0.22960211336612701 -0.47058209776878357 0.9393200278282166
0.22695763409137726 -0.4849809408187866 0.9285087585449219
0.23704154789447784 -0.3946651220321655 0.9341704845428467
0.2305307537317276 -0.3935866951942444 0.9308061003684998
0.23223893344402313 -0.41423386335372925 0.9401416778564453
0.2233540117740631 -0.4002220630645752 0.9271647930145264
0.23145577311515808 -0.4155735969543457 0.9345682859420776
0.23582962155342102 -0.3551279306411743 0.9158427715301514
0.23158615827560425 -0.36237892508506775 0.9150350093841553
0.2307787984609604 -0.32785123586654663 0.9181419610977173
0.24037590622901917 -0.41545671224594116 0.9373711347579956
0.2309277355670929 -0.4990556836128235 0.8879427909851074
0.23389652371406555 -0.5177037715911865 0.9166238903999329
0.232347771525383 -0.3940369486808777 0.905874490737915
0.2395866960287094 -0.5451176166534424 0.9198074340820312
0.24330702424049377 -0.5702300071716309 0.9136375784873962
0.23639824986457825 -0.5515285730361938 0.910556972026825
0.24218283593654633 -0.590681791305542 0.9201124906539917
0.2371223419904709 -0.1484372764825821 0.9215502738952637
0.2703424096107483 -0.21342067420482635 0.9760732650756836
0.26518091559410095 -0.21953198313713074 0.9696900844573975
0.27529317140579224 -0.22421309351921082 0.9734063148498535
0.2275727093219757 -0.2405967116355896 0.8883785009384155
0.2555336654186249 0.04004248231649399 0.9644055962562561
0.2759511470794678 0.017539605498313904 1.0019257068634033
0.2719980478286743 0.0030199438333511353 0.9923423528671265
0.2626592516899109 0.005364328622817993 0.9866728782653809
0.2648119032382965 -0.352137953042984 0.9391860365867615
0.2726258337497711 -0.514623761177063 0.9535281658172607
0.242631196975708 -0.5934724807739258 0.8974572420120239
0.24747727811336517 -0.031934164464473724 0.9480384588241577
0.2511169910430908 -0.06552332639694214 0.9296188354492188
0.2669721841812134 -0.32547515630722046 0.9493263363838196
0.260357528924942 -0.3324747085571289 0.9422578811645508
0.2602187693119049 -0.37819528579711914 0.9398965835571289
0.24546125531196594 -0.6008251309394836 0.8943187594413757
0.2649581730365753 -0.6358228325843811 0.9353790879249573
0.2630231976509094 -0.6501544713973999 0.9382408857345581
0.2557497024536133 -0.6374502182006836 0.9203484058380127
0.24443623423576355 -0.12023290991783142 0.923576295375824
0.24999818205833435 -0.14303673803806305 0.916375458240509
0.2683928310871124 -0.37846750020980835 0.934006929397583
0.22754549980163574 -0.14987117052078247 0.9007302522659302
0.23823556303977966 -0.5716460943222046 0.8767662048339844
0.28877532482147217 -0.16910412907600403 0.9975442886352539
0.2912514805793762 -0.16477395594120026 0.9934812784194946
0.28254470229148865 -0.1767890900373459 0.9811378717422485
0.28806519508361816 -0.1877000629901886 0.9865553379058838
0.29233619570732117 -0.20136964321136475 0.9866588115692139
0.2643168866634369 -0.175803542137146 0.9621373414993286
0.2782607972621918 -0.17582018673419952 0.9627737402915955
0.2673833668231964 -0.6516915559768677 0.9394664764404297
0.24260222911834717 -0.40278762578964233 0.8823949694633484
0.2422877997159958 -0.419142484664917 0.8861064314842224
0.2398652732372284 -0.42315423488616943 0.8868234157562256
0.23451519012451172 -0.37974196672439575 0.8739421367645264
0.2942083477973938 -0.18218067288398743 0.9840708374977112
0.29532116651535034 -0.19972126185894012 0.983180820941925
0.22804316878318787 -0.16879311203956604 0.8641754984855652
0.2944347858428955 -0.17463231086730957 0.9858347177505493
0.2902834713459015 -0.17813611030578613 0.9763539433479309
0.2746434211730957 -0.4166025221347809 0.9464079141616821
0.21899273991584778 -0.17136059701442719 0.8388746976852417
0.21591627597808838 -0.16660843789577484 0.8330758213996887
0.20475934445858002 -0.1754838228225708 0.8215008974075317
0.20850825309753418 -0.19290420413017273 0.8251839876174927
0.2634280025959015 -0.15039145946502686 0.9104769229888916
0.28818464279174805 -0.20956583321094513 0.9654155969619751
0.27190759778022766 -0.4416995048522949 0.9298684597015381
0.2724510729312897 -0.46548041701316833 0.9309492707252502
0.2311759889125824 -0.1816355437040329 0.8572960495948792
0.23805055022239685 -0.19446197152137756 0.855384349822998
0.2212381511926651 -0.1866913139820099 0.8450454473495483
0.2761453092098236 -0.46434837579727173 0.922034502029419
0.2761600911617279 -0.4393045902252197 0.9147204160690308
0.2696099281311035 -0.44392362236976624 0.9013818502426147
0.26945391297340393 -0.4237900376319885 0.9027604460716248
0.250650018453598 -0.54777991771698 0.8868499994277954
0.26399919390678406 -0.5490134954452515 0.890555202960968
0.24754877388477325 -0.18606364727020264 0.8714227676391602
0.2714157998561859 -0.19650626182556152 0.9150874614715576
0.27186310291290283 -0.22474384307861328 0.9055987000465393
0.2650110721588135 -0.2095699906349182 0.9002648591995239
0.2665477395057678 -0.24088652431964874 0.9074562788009644
0.2622126340866089 -0.2494838535785675 0.8964696526527405
0.27219292521476746 -0.46840375661849976 0.9027597308158875
0.27736952900886536 -0.4547390341758728 0.9009289145469666
0.2809133231639862 -0.5009878873825073 0.9055590629577637
0.2879527807235718 -0.38477665185928345 0.9047849774360657
0.28359243273735046 -0.417799711227417 0.9117843508720398
0.27598533034324646 -0.3890816867351532 0.9090234637260437
0.2709663510322571 -0.3990330696105957 0.8969514966011047
0.2773840129375458 -0.41299575567245483 0.9031772613525391
0.27320441603660583 -0.39486217498779297 0.9095004796981812
0.2809450626373291 -0.4181530475616455 0.9040303826332092
0.2825794517993927 -0.5130250453948975 0.9010887145996094
0.27799779176712036 -0.5028948187828064 0.8922452926635742
0.23366637527942657 -0.492533802986145 0.9405984282493591
0.22788354754447937 -0.5141675472259521 0.9375541806221008
0.2295963019132614 -0.4876318871974945 0.9229663610458374
0.23490139842033386 -0.5124593377113342 0.9266802668571472
0.254117488861084 -0.204782634973526 0.9666520357131958
0.22018633782863617 -0.1792115867137909 0.9061776399612427
0.2144351452589035 -0.19539636373519897 0.8973217010498047
0.23507513105869293 -0.16804921627044678 0.9469941854476929
0.25160640478134155 -0.4773091673851013 0.9357167482376099
0.2393750250339508 -0.4526502192020416 0.9169958233833313
0.22881349921226501 -0.2428651750087738 0.9161304235458374
0.22447527945041656 -0.2468806505203247 0.9011346101760864
0.24753199517726898 -0.22122544050216675 0.9560178518295288
0.2522660493850708 -0.24168512225151062 0.9481750726699829
0.24009262025356293 -0.44109439849853516 0.9160791635513306
0.25695738196372986 -0.4940718412399292 0.9365134239196777
0.23700641095638275 -0.27776238322257996 0.9048358798027039
0.2317490577697754 -0.3171558678150177 0.9108506441116333
0.22842749953269958 -0.30068111419677734 0.89554762840271
0.23347029089927673 -0.41484832763671875 0.9113536477088928
0.25463351607322693 -0.5758545994758606 0.924981415271759
0.2532080411911011 -0.6133018136024475 0.9223822355270386
0.24884289503097534 -0.6070778369903564 0.9069960117340088
0.27107810974121094 -0.20096561312675476 0.9900181293487549
0.2749805748462677 -0.23859944939613342 0.9747534990310669
0.25609731674194336 -0.28837576508522034 0.9440957903862
0.2619418501853943 -0.31565552949905396 0.9457478523254395
0.226310133934021 -0.31502288579940796 0.8876374363899231
0.28050005435943604 -0.25500625371932983 0.9793496131896973
0.2606557011604309 -0.23196148872375488 0.9533523917198181
0.25791025161743164 -0.2506057024002075 0.9476112127304077
0.2687239646911621 -0.5340045094490051 0.9458299279212952
0.2634492516517639 -0.5642773509025574 0.9321274757385254
0.23711682856082916 -0.42580416798591614 0.893511950969696
0.2584029734134674 -0.0905243307352066 0.9547610878944397
0.255489319562912 -0.07248520851135254 0.9597123265266418
0.22110608220100403 -0.3417312502861023 0.8599539995193481
0.2700498104095459 -0.3071858882904053 0.9407188892364502
0.27689602971076965 -0.32567793130874634 0.9494839906692505
0.26853448152542114 -0.5300727486610413 0.9479979276657104
0.27160558104515076 -0.5346400737762451 0.9451927542686462
0.2670118808746338 -0.5505579113960266 0.9398026466369629
0.22099150717258453 -0.2003251016139984 0.8540655374526978
0.2229408174753189 -0.2185494303703308 0.8494932651519775
0.21121938526630402 -0.21860137581825256 0.8523816466331482
0.21069027483463287 -0.19695407152175903 0.8520746827125549
0.21829654276371002 -0.19107399880886078 0.846663236618042
0.2091369479894638 -0.19238021969795227 0.830170214176178
0.22541211545467377 -0.23356452584266663 0.8704051375389099
0.20233388245105743 -0.1912379264831543 0.8304013013839722
0.2003232091665268 -0.20133471488952637 0.8172246217727661
0.26280537247657776 -0.15453499555587769 0.9396160244941711
0.27068546414375305 -0.16381722688674927 0.9396084547042847
0.24280862510204315 -0.15006005764007568 0.9104007482528687
0.2801302671432495 -0.2095278799533844 0.9765459299087524
0.2772441804409027 -0.21798357367515564 0.9695461988449097
0.2846147418022156 -0.43414390087127686 0.9669573903083801
0.28262391686439514 -0.4294116199016571 0.9684842824935913
0.27741965651512146 -0.42125385999679565 0.9582218527793884
0.20886138081550598 -0.19521920382976532 0.8158829212188721
0.2012515366077423 -0.1780310869216919 0.8205864429473877
0.22618918120861053 -0.23395414650440216 0.8652788996696472
0.24069029092788696 -0.47536584734916687 0.8851441144943237
0.23756392300128937 -0.49712613224983215 0.8769481778144836
0.28764984011650085 -0.18353700637817383 0.956969678401947
0.2630453407764435 -0.137892946600914 0.9404664039611816
0.2700287997722626 -0.5159246921539307 0.9290133118629456
0.22917911410331726 -0.3422423005104065 0.8604825139045715
0.2694718539714813 0.004222661256790161 0.9502205848693848
0.2692010998725891 -0.010839305818080902 0.9457651376724243
0.23593445122241974 -0.3461424708366394 0.864517331123352
0.26928380131721497 -0.12429912388324738 0.9270249605178833
0.2700052559375763 -0.14596925675868988 0.9281099438667297
0.2626747190952301 -0.14310459792613983 0.9179314374923706
0.27035441994667053 -0.464290976524353 0.9021499752998352
0.25006288290023804 -0.16411982476711273 0.8818466663360596
0.2529858648777008 -0.3212539851665497 0.8816547989845276
0.2779531478881836 -0.16517984867095947 0.9231042861938477
0.27571386098861694 -0.1847766637802124 0.9177323579788208
0.2820216715335846 -0.18965274095535278 0.9424446225166321
0.28157901763916016 -0.20289430022239685 0.925822913646698
0.271813303232193 -0.15222331881523132 0.9114491939544678
0.26125574111938477 -0.15304046869277954 0.8997783064842224
0.2817942202091217 -0.46484482288360596 0.9063090682029724
0.22893723845481873 -0.3682849407196045 0.9392610788345337
0.2239139974117279 -0.3672289252281189 0.9347364902496338
0.2339411973953247 -0.38185611367225647 0.939877450466156
0.22829632461071014 -0.36533522605895996 0.9304185509681702
0.22417773306369781 -0.38379186391830444 0.9332179427146912
0.2382306307554245 -0.45031410455703735 0.9399948716163635
0.241862490773201 -0.46229976415634155 0.9407785534858704
0.23861651122570038 -0.3904222249984741 0.9249959588050842
0.2259911447763443 -0.4021892249584198 0.9139295816421509
0.23526440560817719 -0.42866250872612 0.9277507662773132
0.2399223893880844 -0.4351918399333954 0.9368059635162354
0.22494423389434814 -0.2255917489528656 0.9179388284683228
0.2599886357784271 -0.2058781087398529 0.9767242074012756
0.26209235191345215 -0.18496650457382202 0.9661160707473755
0.2459203600883484 -0.12727214395999908 0.9452677965164185
0.24225032329559326 -0.11478493362665176 0.9385478496551514
0.22773058712482452 -0.3842242360115051 0.8844342827796936
0.22519353032112122 -0.33084115386009216 0.8884221911430359
0.2154981791973114 -0.35226020216941833 0.8562219142913818
0.22528399527072906 -0.3539429306983948 0.8881622552871704
0.2734498381614685 -0.0063153281807899475 0.9899548292160034
0.2642148435115814 0.031026892364025116 0.9770434498786926
0.2622438967227936 0.01444120705127716 0.978802502155304
0.26012417674064636 0.014532789587974548 0.9698343873023987
0.24613182246685028 0.003957740962505341 0.9635734558105469
0.2475464642047882 -0.07148049026727676 0.9344000816345215
0.24364615976810455 -0.09303473681211472 0.9274565577507019
0.2825716435909271 -0.17006568610668182 0.9941311478614807
0.2767844796180725 -0.4375666677951813 0.9685882329940796
0.26477041840553284 -0.48228058218955994 0.9523501992225647
0.2334706038236618 -0.5189646482467651 0.8703801035881042
0.2266409695148468 -0.5125084519386292 0.8741377592086792
0.20579898357391357 -0.16563481092453003 0.8329594135284424
0.19908328354358673 -0.17794421315193176 0.8264857530593872
0.2702656090259552 -0.07298388332128525 0.9541112184524536
0.2632436156272888 -0.08990567922592163 0.9489120244979858
0.27672651410102844 -0.43008342385292053 0.9743189811706543
0.23716893792152405 -0.29605138301849365 0.877123236656189
0.24409064650535583 -0.3112791180610657 0.875597357749939
