-0.14676788449287415 0.07719919085502625 1.6697940826416016
-0.15729713439941406 0.060021910816431046 1.6210448741912842
-0.11675885319709778 0.0008546970784664154 1.0476691722869873
-0.15419718623161316 -0.05223214626312256 1.0106267929077148
-0.15962553024291992 -0.1217675656080246 0.9992865324020386
-0.1506998986005783 0.03872594237327576 1.549475908279419
-0.2686281204223633 -0.08397267013788223 0.06251788884401321
-0.28220969438552856 -0.14664044976234436 0.030454091727733612
-0.282866507768631 -0.17220281064510345 0.04756564274430275
-0.14940661191940308 -0.032923873513936996 1.4002162218093872
-0.14262698590755463 0.010568711906671524 1.3462862968444824
-0.13426247239112854 -0.01496090367436409 1.327636957168579
-0.1575399935245514 -0.04574769735336304 1.387534260749817
-0.13975585997104645 -0.08748485893011093 1.3451193571090698
-0.21651498973369598 -0.048579879105091095 0.48329243063926697
-0.2165052443742752 -0.07693570107221603 0.40063923597335815
-0.22673887014389038 -0.02792300470173359 0.3345027565956116
-0.23064564168453217 -0.05129970982670784 0.367022842168808
-0.1599005162715912 0.055287916213274 1.6908780336380005
-0.13586197793483734 -0.05630945786833763 1.2963969707489014
-0.13768911361694336 -0.06567205488681793 1.2527086734771729
-0.13882482051849365 -0.09529335796833038 1.283253788948059
-0.16405119001865387 -0.1113705188035965 1.2837318181991577
-0.2211896777153015 -0.016765063628554344 0.2650023102760315
-0.14924736320972443 -0.03028234839439392 1.547504186630249
-0.14228342473506927 0.04330665245652199 1.5501548051834106
-0.14726027846336365 0.014629662036895752 1.5444332361221313
-0.18490734696388245 -0.08101596683263779 0.5820024609565735
-0.10733947157859802 0.04056183993816376 1.7881348133087158
-0.12374355643987656 -0.11350952088832855 1.2214548587799072
-0.11585558950901031 -0.03592916578054428 1.168281078338623
-0.132761612534523 -0.12853708863258362 0.7564826607704163
-0.11560557037591934 0.09306718409061432 1.7311928272247314
-0.12747825682163239 -0.06717623025178909 1.4151859283447266
-0.10468994081020355 -0.11768616735935211 0.8580940961837769
-0.14179842174053192 -0.13140526413917542 0.8802633881568909
-0.1244988888502121 -0.20232050120830536 0.9213660955429077
-0.10814248025417328 -0.21722069382667542 0.8564828634262085
-0.25694137811660767 -0.20746338367462158 0.07057105749845505
-0.07430480420589447 0.11860312521457672 1.729739785194397
-0.10082627832889557 0.051856860518455505 1.7740799188613892
-0.1508524864912033 -0.0072956569492816925 1.4553673267364502
-0.13034774363040924 -0.03410843014717102 1.5060720443725586
-0.18710839748382568 -0.0024773050099611282 0.3327280879020691
-0.21527059376239777 -0.026266101747751236 0.21727782487869263
-0.24759724736213684 -0.20321086049079895 0.111445352435112
-0.22036701440811157 -0.01775166392326355 0.06923766434192657
-0.10977570712566376 -0.01222148910164833 1.3298921585083008
-0.16511742770671844 -0.10903547704219818 0.5556961297988892
-0.21198567748069763 -0.1675349920988083 0.013454744592308998
-0.2546555995941162 -0.17092257738113403 0.005876138340681791
-0.10459922254085541 0.03938161954283714 1.5667845010757446
-0.10384461283683777 0.0069075897336006165 1.5232617855072021
-0.030717022716999054 -0.2191445231437683 0.913758397102356
-0.08260402828454971 0.08918371051549911 0.8689963817596436
-0.21546432375907898 -0.13083980977535248 0.2747769057750702
-0.19088980555534363 -0.12722431123256683 0.19828951358795166
-0.2000129520893097 -0.027527403086423874 0.11518523842096329
-0.09407356381416321 -0.008290491998195648 1.2965611219406128
-0.10146395862102509 -0.028078828006982803 1.2543690204620361
-0.07006311416625977 -0.13104620575904846 1.3280043601989746
-0.13621622323989868 -0.03756852075457573 0.6740180253982544
-0.1141488328576088 -0.13097241520881653 0.7456876635551453
-0.07384855300188065 -0.11728208512067795 0.8181341290473938
-0.1828385442495346 -0.1333177089691162 0.165581613779068
-0.20234474539756775 -0.19798102974891663 0.08128301799297333
-0.1219821572303772 -0.08527608960866928 1.5007151365280151
-0.09324763715267181 0.0008616559207439423 1.3661739826202393
-0.06347201764583588 -0.003384355455636978 1.299454689025879
-0.13440221548080444 -0.11241670697927475 0.5781909227371216
-0.1093364879488945 -0.09224145114421844 0.5796927213668823
-0.15173280239105225 0.0025892220437526703 0.5177056789398193
-0.09140697121620178 -0.07396215200424194 1.470884919166565
-0.06946781277656555 -0.028891410678625107 1.4489617347717285
-0.10023705661296844 0.010933533310890198 1.4072482585906982
-0.12056177854537964 -0.033274296671152115 0.5237258076667786
-0.05840402469038963 0.06962590664625168 1.775316596031189
-0.11115846037864685 -0.12466531246900558 1.6403744220733643
-0.03264695033431053 -0.18918144702911377 0.9997929334640503
-0.07101933658123016 -0.04058728367090225 1.46415376663208
-0.0494021475315094 -0.06955750286579132 1.4490461349487305
-0.06993043422698975 -0.0540781244635582 1.442634105682373
-0.05685098469257355 -0.12063973397016525 1.5696778297424316
-0.09945788979530334 -0.11854087561368942 1.514437198638916
-0.047791846096515656 -0.008938763290643692 1.4742515087127686
-0.09643670916557312 -0.05515064299106598 0.6455999612808228
-0.011342186480760574 0.023679763078689575 1.8005611896514893
-0.03359125927090645 0.12785270810127258 1.698498010635376
-0.04408964514732361 -0.1380549818277359 1.5212956666946411
-0.05975157022476196 -0.11856861412525177 1.4724819660186768
-0.03143927454948425 -0.016225874423980713 1.4488205909729004
-0.033364515751600266 -0.11722880601882935 1.4713550806045532
-0.00039622560143470764 0.005720868706703186 1.4232672452926636
-0.025057053193449974 -0.013880863785743713 1.2941317558288574
-0.008471105247735977 0.07974709570407867 1.7730345726013184
-0.00709087960422039 -0.02050180546939373 1.4797942638397217
-0.011537864804267883 -0.0656547024846077 1.4653608798980713
0.019089221954345703 0.09887763857841492 1.729082465171814
0.004118766635656357 0.03613445162773132 1.7799781560897827
-0.0069718919694423676 -0.057605236768722534 1.4485507011413574
0.02401147037744522 -0.08565258979797363 1.491431474685669
-0.0020139943808317184 -0.035162970423698425 1.4568352699279785
0.07231767475605011 -0.08901148289442062 0.6007339358329773
0.02271086908876896 0.011529572308063507 1.5073009729385376
0.1057644858956337 -0.10631268471479416 0.5184673070907593
0.011819546110928059 -0.16915661096572876 1.2823337316513062
0.055516425520181656 -0.03894517943263054 1.274272084236145
0.05698832869529724 -0.06552225351333618 1.1579729318618774
0.14019930362701416 -0.09587427973747253 0.09020106494426727
0.1599215567111969 -0.08772065490484238 0.07436486333608627
0.13032139837741852 0.027458876371383667 0.0967281311750412
0.027277864515781403 -0.15043945610523224 1.2679940462112427
0.014869257807731628 -0.1891668736934662 1.1921684741973877
0.07028035074472427 -0.14092698693275452 0.7426162958145142
0.12409638613462448 -0.022178567945957184 0.06758296489715576
0.05561230331659317 0.029030434787273407 1.739121437072754
0.018227580934762955 -0.12744884192943573 1.6485931873321533
0.007480032742023468 -0.1126837283372879 1.5604548454284668
0.013251125812530518 -0.1162361279129982 1.5139660835266113
0.09915332496166229 -0.1591484695672989 0.8843613862991333
0.10427094995975494 0.023027852177619934 1.7655048370361328
0.030011016875505447 0.008699219673871994 1.5643787384033203
0.0289577916264534 -0.007635612040758133 1.534684181213379
0.12972891330718994 -0.009336236864328384 0.34304070472717285
0.12235324829816818 0.005598239600658417 0.283232182264328
0.14220377802848816 0.03877643495798111 0.07928459346294403
0.049932219088077545 0.012575630098581314 1.8263590335845947
0.06530379503965378 -0.01182432472705841 1.43070387840271
0.10079160332679749 -0.21832677721977234 0.8728715181350708
0.0896168127655983 -0.1308959722518921 0.8719742298126221
0.12995757162570953 -0.1935892552137375 0.8722089529037476
0.09640481323003769 -0.04245932400226593 0.7615994215011597
0.18682482838630676 -0.0861167460680008 0.08580552786588669
0.06161007285118103 0.01649104803800583 1.749975323677063
0.046684619039297104 -0.15677674114704132 1.1591867208480835
0.05585672706365585 -0.13811960816383362 1.287526249885559
0.05929923057556152 -0.154750794172287 1.283768653869629
0.12914229929447174 -0.18769694864749908 0.9414777159690857
0.05351691693067551 -0.06446197628974915 1.5809803009033203
0.05921300873160362 0.010763052850961685 1.5722224712371826
0.05522698163986206 -0.015058819204568863 1.5632115602493286
0.06308218091726303 -0.031104151159524918 1.557563066482544
0.07608266919851303 -0.043230704963207245 1.5336229801177979
0.13485825061798096 -0.06521327793598175 0.660088837146759
0.1326853334903717 -0.131399005651474 0.6792116165161133
0.08455491065979004 -0.05326874554157257 1.4065314531326294
0.08648627996444702 0.0006192773580551147 1.3485713005065918
0.04968266934156418 -0.0035341084003448486 1.3625156879425049
0.060844503343105316 -0.0249684676527977 1.3391642570495605
0.12471738457679749 -0.11862917989492416 0.8407276272773743
0.18626640737056732 0.02144201099872589 0.08279832452535629
0.2023729830980301 -0.004881814122200012 0.07494720816612244
0.07624170184135437 0.006814058870077133 1.7031309604644775
0.09188942611217499 -0.02666288986802101 1.4027116298675537
0.1927247941493988 -0.05251232162117958 0.326688289642334
0.09758522361516953 0.02657051756978035 1.6755543947219849
0.07372309267520905 0.05307513102889061 1.678318738937378
0.0832211822271347 0.022647228091955185 1.643772840499878
0.20314545929431915 -0.018030419945716858 0.15110592544078827
0.21123184263706207 -0.05950792878866196 0.08368784934282303
0.19387143850326538 -0.08960069715976715 0.11052709817886353
0.15677762031555176 -0.012544062919914722 0.9807736873626709
0.1523575782775879 -0.0144868865609169 0.8807896971702576
0.10348588973283768 0.00013341009616851807 1.7652778625488281
0.17045360803604126 0.0393279604613781 0.8888630867004395
0.18393200635910034 0.002923097461462021 0.9513081312179565
0.11548703908920288 -0.007731620222330093 1.3413342237472534
0.13227234780788422 -0.028511449694633484 1.325382113456726
0.09616335481405258 -0.05657607689499855 1.371144413948059
0.12937837839126587 -0.010701239109039307 1.2860512733459473
0.11784917116165161 -0.015758682042360306 1.2657837867736816
0.1466512531042099 -0.09402519464492798 1.2404987812042236
0.15526044368743896 -0.04617716744542122 1.2834124565124512
0.17305874824523926 -0.011667951941490173 1.2194968461990356
0.1919301599264145 -0.011653296649456024 1.1415152549743652
0.21905097365379333 -0.024448178708553314 1.1594597101211548
0.20408429205417633 -0.04670078679919243 1.2048053741455078
0.1845974326133728 -0.0911104828119278 1.2234336137771606
0.22693480551242828 -0.03436269983649254 1.1057945489883423
0.2492559850215912 -0.10991932451725006 1.1516717672348022
0.25893524289131165 -0.08114119619131088 1.134055733680725
0.24916791915893555 -0.05478100851178169 1.1070700883865356
0.21827957034111023 -0.1495685875415802 1.1309072971343994
0.2358597069978714 -0.11298037320375443 1.0991885662078857
0.23651531338691711 -0.08979091048240662 1.0894845724105835
0.2842313051223755 -0.1567227691411972 0.9780782461166382
0.21900612115859985 -0.13312895596027374 1.0975993871688843
0.21786090731620789 -0.14610445499420166 1.069742202758789
0.2569642961025238 -0.11926320940256119 1.0168055295944214
0.2233150452375412 -0.13458478450775146 1.0453665256500244
0.22188565135002136 -0.16243276000022888 1.046250820159912
0.24591438472270966 -0.15158170461654663 1.013473629951477
0.2692936062812805 -0.15716402232646942 1.0058168172836304
0.22388635575771332 -0.18832215666770935 1.01433265209198
0.24952058494091034 -0.17136529088020325 1.0047333240509033
0.23611508309841156 -0.17832648754119873 1.0140968561172485
0.27745550870895386 -0.16358162462711334 0.9579290747642517
0.2456030398607254 -0.19209367036819458 1.0010623931884766
0.2596167027950287 -0.15159714221954346 0.9735725522041321
0.26372841000556946 -0.18526163697242737 0.9696698188781738
0.2821568250656128 -0.17725268006324768 0.9733561277389526
-0.3161938786506653 -0.0490560457110405 1.089319109916687
-0.3013390600681305 -0.11183438450098038 1.079205870628357
-0.2905696928501129 -0.09331080317497253 1.0753544569015503
-0.30813103914260864 -0.13348868489265442 1.1143845319747925
-0.2551719546318054 -0.045266568660736084 1.0866719484329224
-0.278736412525177 -0.12983617186546326 1.1020382642745972
-0.19887098670005798 -0.0150703564286232 1.240681767463684
-0.19422243535518646 -0.0724954828619957 1.2173280715942383
-0.17506709694862366 -0.09954911470413208 0.9730998277664185
-0.17930632829666138 -0.017240863293409348 0.950394868850708
-0.12916728854179382 0.05079709738492966 0.9372447729110718
-0.12104002386331558 0.15503668785095215 1.2628095149993896
-0.1142023503780365 0.15253305435180664 1.2032374143600464
-0.1189223974943161 0.17695707082748413 1.1690659523010254
-0.15464997291564941 -0.0123118432238698 0.9750040769577026
-0.20568066835403442 0.03048349916934967 1.7446409463882446
-0.15149131417274475 0.0006904304027557373 1.3661365509033203
-0.17148904502391815 0.001605164259672165 1.2966374158859253
-0.04820004105567932 0.17341774702072144 1.0680655241012573
-0.07878275215625763 0.1794801950454712 0.9855676889419556
-0.272437185049057 -0.09832651913166046 0.12194320559501648
-0.2847360670566559 -0.1541987955570221 0.07856499403715134
-0.17864269018173218 0.027125529944896698 1.7248297929763794
-0.1631460338830948 0.034182142466306686 1.6698930263519287
-0.14801253378391266 -0.13282382488250732 1.261086344718933
-0.14678139984607697 -0.15063461661338806 1.2324302196502686
-0.15065181255340576 -0.1709364652633667 1.229442834854126
-0.11780114471912384 0.11484252661466599 1.3858695030212402
-0.10937361419200897 0.10584023594856262 1.3792462348937988
-0.12788735330104828 -0.13239172101020813 1.2766826152801514
-0.14645227789878845 -0.058256782591342926 1.2174917459487915
-0.24588914215564728 -0.11704644560813904 0.19024977087974548
-0.24933166801929474 -0.07259611040353775 0.1963123381137848
-0.06762382388114929 0.13283224403858185 1.2569503784179688
-0.15540122985839844 -0.01818535476922989 1.4680521488189697
-0.15584874153137207 -0.012416437268257141 1.4458842277526855
-0.14210930466651917 -0.017581384629011154 1.4273203611373901
-0.15509317815303802 -0.010700982064008713 1.4232994318008423
-0.15370722115039825 -0.031832005828619 1.415256381034851
-0.1472281962633133 -0.11044636368751526 0.7985112071037292
-0.15863080322742462 -0.07293787598609924 0.7929463386535645
-0.046416498720645905 0.23494216799736023 1.074404239654541
-0.04738592728972435 0.23259027302265167 1.1274380683898926
-0.11975429952144623 -0.12496542185544968 1.275184988975525
-0.13039907813072205 -0.10840027034282684 0.8710769414901733
-0.2458040416240692 -0.03398517519235611 0.1216278225183487
-0.25106102228164673 -0.034258801490068436 0.08202354609966278
-0.14083993434906006 -0.1886490434408188 0.8588752150535583
-0.07084736227989197 0.19453729689121246 1.237017273902893
-0.15353824198246002 -0.09388826042413712 1.6377683877944946
-0.12879672646522522 0.022180572152137756 1.5484522581100464
-0.10177168995141983 0.11167390644550323 1.5132837295532227
-0.10071719437837601 0.07267444580793381 1.573584794998169
-0.11925571411848068 0.07092674821615219 1.5464441776275635
-0.1067386120557785 0.09053879231214523 1.4593534469604492
-0.05491279438138008 0.13628309965133667 1.5546085834503174
-0.1175166517496109 -0.017037101089954376 1.499587893486023
-0.08764711022377014 0.04394768923521042 0.9822866916656494
-0.13456687331199646 0.03237886726856232 1.8284339904785156
-0.1482858955860138 0.024469010531902313 1.8237390518188477
-0.146173357963562 0.01293017715215683 1.809266448020935
-0.02212684042751789 0.07686419785022736 1.4487193822860718
-0.0851755440235138 0.12782612442970276 1.4283980131149292
-0.18904779851436615 -0.09947367757558823 0.045539774000644684
-0.037418853491544724 0.1674601435661316 1.3704065084457397
-0.11413540691137314 -0.09441491961479187 1.5491909980773926
-0.16580705344676971 -0.08090674132108688 0.4033697843551636
-0.060697246342897415 0.0725613683462143 1.5137466192245483
-0.08262358605861664 0.029774025082588196 1.4978759288787842
-0.035757876932621 0.13952188193798065 1.4737505912780762
-0.033691175282001495 0.05290774255990982 0.8642019033432007
-0.17240838706493378 -0.017624881118535995 0.3521849513053894
-0.0009440355934202671 0.19897820055484772 0.9799895286560059
-0.033292073756456375 0.03848829120397568 1.0414786338806152
-0.1001623347401619 -0.15675018727779388 1.27277410030365
-0.09541767090559006 -0.1561441421508789 1.1692523956298828
-0.16063204407691956 -0.04522085189819336 0.3316099941730499
-0.14425833523273468 -0.06146405637264252 0.26971015334129333
-0.17474085092544556 -0.01165156438946724 0.2641005516052246
-0.06678973883390427 0.05477001890540123 1.5343838930130005
-0.08314429223537445 -0.11024929583072662 0.6955735683441162
-0.10749882459640503 -0.03754065930843353 0.6656484007835388
0.010343650355935097 0.24137699604034424 1.1162967681884766
0.01366301067173481 0.23123326897621155 1.0268629789352417
-0.04659264534711838 -0.18754276633262634 1.1964815855026245
-0.17018693685531616 -0.08035017549991608 0.13308070600032806
0.0057549988850951195 0.1793268322944641 1.0242173671722412
3.5443808883428574e-05 0.1588759869337082 1.0627316236495972
0.003758605569601059 0.05597522109746933 1.5240057706832886
-0.07961564511060715 -0.08850471675395966 1.4083890914916992
0.01758268103003502 0.17885658144950867 1.3467962741851807
0.023538265377283096 0.06768546998500824 1.4385433197021484
-0.0041083768010139465 0.045262906700372696 1.5253747701644897
0.06092442199587822 0.17699278891086578 1.030752182006836
0.07702508568763733 0.16280463337898254 0.9879452586174011
-0.01463175006210804 -0.10643972456455231 1.4042344093322754
0.014305023476481438 0.03850329667329788 1.0397059917449951
-0.020686861127614975 -0.20010104775428772 1.1242649555206299
0.08598901331424713 0.15015330910682678 1.369931936264038
0.014851837418973446 -0.013119876384735107 1.3110148906707764
0.06129536032676697 0.12137717008590698 1.4799411296844482
0.028056148439645767 0.06956467777490616 1.483038067817688
0.03028235398232937 -0.026988789439201355 1.2205487489700317
0.04410209134221077 0.09597985446453094 0.928372859954834
0.0037496350705623627 -0.01358109712600708 1.7642244100570679
0.12170678377151489 -0.07058805972337723 0.10129065811634064
0.11407820135354996 -0.07564041763544083 0.07806938886642456
0.11438845098018646 -0.01842363178730011 0.11204305291175842
-0.0301583930850029 -0.1373746544122696 1.6410609483718872
0.06483157724142075 -0.061940811574459076 0.7263585329055786
0.08717969059944153 0.06170865148305893 1.4503780603408813
0.03694958984851837 -0.049854278564453125 1.5021092891693115
0.07481522113084793 -0.03685956075787544 1.4450026750564575
0.030737321823835373 -0.0008976534008979797 1.4205890893936157
0.10966788977384567 -0.02408462204039097 0.4101163148880005
0.1316615492105484 -0.09801038354635239 0.2511662244796753
0.1284254789352417 -0.008144073188304901 0.2207406610250473
0.13013099133968353 0.16671998798847198 1.0404210090637207
0.12156644463539124 0.1961785852909088 1.0047111511230469
0.10372045636177063 -0.14570501446723938 0.7536492347717285
0.10679656267166138 -0.051920223981142044 0.668615460395813
0.005284804850816727 -0.06333498656749725 1.7524198293685913
0.04427310451865196 -0.07242356985807419 1.70675528049469
0.12207774817943573 -0.12732163071632385 0.5615816116333008
0.02118779718875885 -0.00755242258310318 1.7774262428283691
0.04459717869758606 -0.024846632033586502 1.7276848554611206
0.06796203553676605 -0.0947108119726181 1.1540372371673584
0.07261836528778076 -0.08178479969501495 1.126305103302002
0.06450822949409485 -0.15588492155075073 1.10966956615448
0.031937915831804276 -0.11485828459262848 1.6401517391204834
0.05011996254324913 -0.045795269310474396 1.5298914909362793
0.03817693516612053 -0.08445223420858383 1.5316684246063232
0.1673087179660797 0.14578449726104736 0.9982412457466125
0.07611393183469772 -0.09105338156223297 1.3109290599822998
0.0879913866519928 -0.1577751189470291 1.2700079679489136
0.08120279014110565 -0.09992676228284836 1.258714199066162
0.17483942210674286 0.005510635673999786 0.17044740915298462
0.18130093812942505 -0.0735102966427803 0.1860509216785431
0.19692714512348175 -0.06345123052597046 0.17059384286403656
0.06537340581417084 0.0016416609287261963 1.7490392923355103
0.08629601448774338 -0.10140151530504227 1.3103941679000854
0.1826462298631668 -0.03183057904243469 0.44820138812065125
0.16201527416706085 -0.08813655376434326 0.4989296495914459
0.19164299964904785 -0.042422160506248474 0.39300867915153503
0.08898675441741943 -0.05271100625395775 1.438856840133667
0.076368048787117 -0.046104975044727325 1.4355210065841675
0.0954134464263916 -0.03445480018854141 1.3928883075714111
0.1204189658164978 0.06640958040952682 0.9362678527832031
0.1308165192604065 -0.11610329151153564 0.8726739287376404
0.20283430814743042 -0.018544118851423264 0.2679045498371124
0.21495917439460754 -0.05010981485247612 0.27404898405075073
0.10183373093605042 -0.01427396759390831 1.3886206150054932
0.15969105064868927 0.0948360338807106 1.2854793071746826
0.16778075695037842 0.12128560245037079 1.2588661909103394
0.09847157448530197 -0.2301974594593048 1.1661403179168701
0.15245631337165833 -0.06370760500431061 1.0072553157806396
0.15534932911396027 -0.12166523188352585 1.002177119255066
0.13223083317279816 -0.0017590299248695374 1.2090823650360107
0.16838312149047852 -0.10284821689128876 1.0989058017730713
0.1837131828069687 -0.06417573988437653 1.0840013027191162
0.17457835376262665 -0.14017382264137268 1.1603658199310303
-0.2970265746116638 -0.06482449918985367 1.0660581588745117
-0.3053273856639862 -0.12478522211313248 1.0455456972122192
-0.23359885811805725 -0.11024786531925201 1.1477394104003906
-0.24731552600860596 -0.11246883869171143 1.1947455406188965
-0.2090570330619812 -0.07180388271808624 1.1565330028533936
-0.20890948176383972 -0.030232081189751625 1.1792967319488525
-0.19367840886116028 -0.15429472923278809 0.8832075595855713
-0.11094050109386444 0.1823352724313736 1.0244011878967285
-0.11520762741565704 0.17078006267547607 1.128962755203247
-0.154264897108078 -0.23556965589523315 1.1349279880523682
-0.13909071683883667 -0.16242873668670654 0.968131422996521
-0.26102757453918457 -0.06070709228515625 0.2846820652484894
-0.23742547631263733 -0.11187731474637985 0.29995471239089966
-0.18968594074249268 -0.006096106953918934 0.5057488679885864
-0.15234267711639404 -0.19484645128250122 0.8646876215934753
-0.16878052055835724 -0.062341365963220596 0.6486073732376099
-0.15808220207691193 -0.10114151239395142 0.702811598777771
-0.14415693283081055 -0.04025093838572502 0.7066299915313721
-0.10241972655057907 -0.016570262610912323 1.1070557832717896
-0.11127399653196335 -0.07827691733837128 1.1348915100097656
-0.03299479931592941 0.2209242284297943 1.2036232948303223
-0.11476054787635803 -0.01771763525903225 0.8647829294204712
-0.1944548785686493 -0.1257445365190506 0.31297028064727783
-0.1165677011013031 -0.020746007561683655 1.2149267196655273
-0.09393540024757385 -0.03914402425289154 1.1409910917282104
-0.18008871376514435 -0.10150410979986191 0.45321330428123474
-0.13903677463531494 0.00989023968577385 1.7438786029815674
-0.1443534791469574 -0.027259457856416702 1.7360074520111084
-0.10347409546375275 -0.06487548351287842 1.7457859516143799
-0.12042119354009628 -0.10457727313041687 1.7030375003814697
-0.13489080965518951 -0.09475745260715485 1.60117769241333
-0.16822350025177002 -0.07989125698804855 0.34783631563186646
-0.07950973510742188 -0.12050428986549377 0.7471391558647156
-0.14698664844036102 -0.0902281329035759 0.27801039814949036
-0.16441448032855988 -0.11804064363241196 0.28204768896102905
-0.1815057098865509 -0.03875676542520523 0.21345584094524384
-0.04918066784739494 0.0654984563589096 0.9731154441833496
-0.09156449884176254 0.020741451531648636 1.7914661169052124
-0.107512466609478 0.007191989570856094 1.777337670326233
0.05066315829753876 0.1426558494567871 1.1829962730407715
-0.04006463289260864 0.15367503464221954 1.1881380081176758
0.028384584933519363 0.12692731618881226 1.2442313432693481
-0.00024822354316711426 -0.03144945204257965 1.260845422744751
0.04001817852258682 0.21229378879070282 1.236293077468872
0.04401356726884842 0.16057872772216797 1.0683568716049194
0.10440287739038467 0.22259120643138885 1.1525256633758545
0.015117531642317772 0.11651773750782013 1.6696114540100098
0.07712426036596298 0.1506257951259613 1.075210690498352
0.04322214424610138 -0.21897155046463013 0.915649950504303
0.09651949256658554 -0.0655701607465744 0.2715355157852173
0.12532298266887665 -0.06890273839235306 0.21394862234592438
0.06433126330375671 -0.12866784632205963 0.7087039351463318
0.03436308726668358 0.012803463265299797 1.0760276317596436
0.088197261095047 -0.04694883152842522 0.5794405341148376
0.09216168522834778 0.10340779274702072 1.3162682056427002
0.060179632157087326 -0.0632462427020073 1.4260133504867554
0.04662412032485008 0.10291922837495804 1.6330763101577759
0.040240369737148285 0.03274206817150116 1.6056277751922607
0.04656156152486801 0.04937952756881714 1.576918125152588
0.01927565038204193 0.00039741024374961853 1.8259875774383545
0.06488417088985443 -0.08152934908866882 1.3586570024490356
0.1522265374660492 -0.013941027224063873 0.5146856904029846
0.11779023706912994 -0.002445373684167862 0.5112340450286865
0.1471657007932663 2.2064894437789917e-05 0.3633267879486084
0.16846205294132233 -0.00040347129106521606 0.33589404821395874
0.07263442873954773 -0.03975928947329521 1.5223369598388672
0.058548200875520706 -0.0489034578204155 1.5322773456573486
0.07462215423583984 -0.04874959588050842 1.514525055885315
0.13219504058361053 -0.05277930945158005 0.7745621800422668
0.14657673239707947 -0.09467294067144394 0.64415043592453
0.11917345225811005 0.02688959799706936 0.9765199422836304
0.10399138927459717 -0.07424575090408325 1.1002061367034912
0.097933329641819 -0.12841427326202393 1.0925151109695435
0.1062721312046051 -0.15342393517494202 1.040041208267212
0.07787217944860458 -0.0019488818943500519 1.6455516815185547
0.0884912759065628 -0.009169861674308777 1.5596795082092285
0.08189629018306732 -0.14762398600578308 1.2530953884124756
0.1052890419960022 0.065407395362854 1.5461921691894531
0.09467260539531708 0.039051301777362823 1.5873255729675293
0.19954326748847961 0.011021189391613007 0.10216641426086426
0.21283100545406342 -0.029685653746128082 0.09311162680387497
0.11470478773117065 0.04533177986741066 1.5121166706085205
0.12152349948883057 0.05930572375655174 1.476625680923462
0.1282833218574524 0.047507110983133316 1.4391573667526245
0.1310684084892273 0.06352963298559189 1.4246052503585815
0.0912875086069107 -0.23228442668914795 1.186126708984375
0.1784321516752243 -0.15519818663597107 0.8885634541511536
0.11054370552301407 -0.20569811761379242 1.1979999542236328
0.10750691592693329 -0.23130223155021667 1.184169888496399
0.20719753205776215 -0.11089285463094711 0.9084217548370361
0.20952609181404114 -0.08860240131616592 0.8888466954231262
0.2171558439731598 -0.0535336397588253 0.8985215425491333
-0.2159479558467865 -0.10239128768444061 1.2031916379928589
-0.17454105615615845 -0.10231936722993851 1.2753911018371582
-0.18117378652095795 -0.09918241202831268 1.257513403892517
-0.1721416562795639 -0.0924716591835022 1.2651498317718506
-0.17039638757705688 -0.08880318701267242 1.2819228172302246
-0.19964265823364258 0.0021424228325486183 0.887504518032074
-0.1454676240682602 -0.052366748452186584 1.3023183345794678
-0.14510032534599304 -0.06514732539653778 1.0825953483581543
-0.13978958129882812 0.10107797384262085 1.5522300004959106
-0.1447344422340393 -0.08488381654024124 1.2064836025238037
-0.14210590720176697 -0.08016723394393921 1.1539801359176636
-0.11043484508991241 0.1043747290968895 1.4452561140060425
-0.0988079383969307 0.10104519873857498 1.4044166803359985
-0.13221311569213867 -0.14114385843276978 1.051471471786499
-0.09823282808065414 -0.16759145259857178 1.0103634595870972
-0.13548389077186584 -0.029565686360001564 0.7921072244644165
-0.03752107173204422 0.19588449597358704 1.2757441997528076
-0.08322495222091675 0.13056835532188416 1.6449676752090454
-0.17716346681118011 -0.045870061963796616 0.07684790343046188
-0.1894461065530777 -0.03542473167181015 0.06756281107664108
-0.08502088487148285 0.026523521170020103 0.8749832510948181
-0.001366524025797844 0.09673356264829636 0.8597909212112427
-0.06701797246932983 -0.01822561025619507 0.8527134656906128
0.02029266394674778 0.0976707711815834 1.340015172958374
-0.047830887138843536 -0.08068186044692993 0.7719709873199463
-0.06640025973320007 -0.12307973951101303 1.61920166015625
-0.0087930578738451 0.01586855947971344 0.8795896768569946
-0.006147642619907856 -0.024324219673871994 0.858421266078949
0.016702990978956223 -0.11758586019277573 0.8633855581283569
-0.0801423192024231 -0.16612938046455383 0.8635469079017639
-0.0060580093413591385 -0.22656835615634918 0.8566555380821228
0.03507007658481598 -0.10956351459026337 0.8430604338645935
-0.00611156178638339 -0.16212959587574005 0.8686549663543701
-0.010153766721487045 0.028618421405553818 1.497879981994629
0.02866695076227188 -0.0357670858502388 0.8549546003341675
0.03169562295079231 -0.04980506747961044 0.8392238020896912
0.0010923445224761963 0.039118729531764984 1.5764731168746948
0.005982987582683563 0.04160379618406296 1.5497287511825562
0.043601009994745255 -0.12375830113887787 0.8586201667785645
0.13173308968544006 0.05908163636922836 0.8677305579185486
0.09885450452566147 -0.03633876144886017 0.27280959486961365
0.055604711174964905 -0.03609025850892067 0.8266498446464539
0.09050643444061279 0.1374206840991974 1.2177096605300903
0.12952201068401337 -0.0765230804681778 0.3963504135608673
0.12367892265319824 -0.04883527010679245 0.33447372913360596
0.1405460685491562 -0.07240965217351913 0.3477107882499695
0.13898703455924988 -0.10896886885166168 0.2927902936935425
0.08924786001443863 0.07763385772705078 1.5125010013580322
0.08137620240449905 -0.016310662031173706 0.8620699048042297
0.11071434617042542 -0.036436110734939575 0.8428322076797485
0.07868561148643494 -0.07180790603160858 1.2582447528839111
0.15751239657402039 -0.09035775065422058 0.4434535801410675
0.07770934700965881 0.05183759704232216 1.6225509643554688
0.06464508175849915 -0.02765507996082306 1.311233639717102
0.16969898343086243 -0.07269088178873062 0.350879430770874
0.11721070855855942 0.19646622240543365 1.2130814790725708
0.08286890387535095 -0.051591794937849045 1.231884241104126
0.1635056585073471 -0.003976158797740936 0.22745287418365479
0.15938641130924225 0.1945735514163971 1.1316986083984375
0.15792030096054077 0.0066192373633384705 0.2663601338863373
0.18163569271564484 -0.10972978174686432 0.2647606134414673
0.13482129573822021 0.08563416451215744 1.3333773612976074
0.08566273748874664 -0.035081785172224045 1.4786555767059326
0.0952235609292984 -0.030379444360733032 1.4421162605285645
0.08380739390850067 -0.03507208824157715 1.4755585193634033
0.10945886373519897 -0.025817595422267914 1.4210933446884155
0.10075478255748749 -0.17401516437530518 1.239943504333496
0.08791640400886536 -0.18291939795017242 1.2342156171798706
0.16268526017665863 0.10972744971513748 1.240782380104065
0.18425391614437103 0.14378830790519714 1.176838994026184
0.18065723776817322 0.13558703660964966 1.1431165933609009
0.1098114624619484 -0.0325024276971817 1.263836145401001
0.10414911061525345 -0.06637399643659592 1.2763770818710327
0.16152836382389069 -0.1795986294746399 0.8976480960845947
0.10990168899297714 -0.07877399772405624 1.2838821411132812
0.1172424927353859 -0.09772318601608276 1.178493857383728
0.1324637532234192 -0.027031004428863525 1.1658097505569458
0.12250588834285736 -0.07660467177629471 1.1502091884613037
0.18431049585342407 -0.12272340804338455 1.1940538883209229
0.20789608359336853 -0.09338562935590744 1.0692553520202637
0.18814942240715027 -0.1443866342306137 1.1155730485916138
-0.1587914377450943 -0.2232232689857483 1.1747212409973145
-0.16045279800891876 -0.15185633301734924 1.222511887550354
-0.16624201834201813 -0.13898679614067078 1.2411035299301147
-0.1484002023935318 -0.20783376693725586 1.1745907068252563
-0.12905558943748474 0.10769796371459961 1.473645567893982
-0.13582351803779602 0.09769012778997421 1.4572129249572754
-0.13434572517871857 0.11444427818059921 1.4141101837158203
-0.162530779838562 0.007340945303440094 1.705546498298645
-0.16642294824123383 -0.02933572605252266 1.6209806203842163
-0.22531801462173462 -0.0792461633682251 0.34524625539779663
-0.13380663096904755 -0.06681208312511444 0.8649150133132935
-0.13663581013679504 -0.09126198291778564 0.8442432284355164
-0.09524734318256378 0.19809234142303467 1.002489447593689
-0.11049215495586395 -0.12298925220966339 1.2648991346359253
-0.12078910320997238 -0.028543509542942047 0.8377994298934937
-0.11568579077720642 -0.006714202463626862 1.758191704750061
-0.10221091657876968 -0.12158805131912231 1.1418510675430298
-0.06924289464950562 -0.1847706437110901 1.1397701501846313
-0.039131052792072296 0.17179666459560394 1.1112905740737915
0.03590584546327591 0.1600744128227234 1.1090439558029175
-0.07156829535961151 -0.021614884957671165 1.157179355621338
-0.055538929998874664 -0.11336196959018707 0.8557267189025879
-0.058520764112472534 -0.18819861114025116 1.071829915046692
-0.05195758864283562 0.017525460571050644 1.0624606609344482
-0.05924264341592789 -0.11191286146640778 1.7180144786834717
0.03315850719809532 -0.10248945653438568 0.7794561386108398
-0.030476819723844528 0.11446025967597961 1.3112597465515137
0.11009149998426437 -0.03962380439043045 0.06552127003669739
0.14790166914463043 0.21046492457389832 1.0647867918014526
0.10548132658004761 0.15446868538856506 1.131469964981079
0.09055840969085693 0.23219871520996094 1.0742557048797607
0.10078335553407669 0.0882844626903534 0.8711977005004883
0.17229710519313812 0.03826417773962021 0.09491096436977386
0.12389414012432098 -0.037773504853248596 0.8690270185470581
0.1620369851589203 -0.07898743450641632 0.40032026171684265
0.09209851175546646 -0.056274548172950745 1.4042139053344727
0.09230871498584747 -0.07425406575202942 1.3238900899887085
0.20185258984565735 0.0004457952454686165 0.88950115442276
0.20137694478034973 -0.04931195080280304 0.9538922309875488
0.20127590000629425 -0.12550495564937592 1.082711935043335
-0.2561785578727722 -0.1252971589565277 1.1620317697525024
-0.19848622381687164 -0.08597581833600998 0.946110725402832
-0.21715933084487915 -0.0730927586555481 0.8923312425613403
-0.1378195732831955 0.09590505063533783 1.4099472761154175
-0.11990085244178772 0.13134559988975525 1.2661082744598389
-0.14723871648311615 0.019001010805368423 1.5372052192687988
-0.1376626193523407 -0.05806316062808037 1.0501359701156616
-0.14438790082931519 -0.08559010177850723 1.090644121170044
-0.1469787210226059 0.023739542812108994 1.538368821144104
-0.14807777106761932 0.01054438203573227 1.524155855178833
-0.1459825336933136 0.015313778072595596 1.5317943096160889
-0.14781571924686432 0.015187405049800873 1.5367714166641235
-0.1524198353290558 0.0035128220915794373 1.5251836776733398
-0.21861106157302856 -0.13667652010917664 0.19349749386310577
-0.16299481689929962 -0.06640303879976273 1.6742092370986938
-0.04407403990626335 -0.014853231608867645 1.2125779390335083
-0.18026942014694214 -0.1540902853012085 0.07062976807355881
-0.05939149111509323 -0.020941391587257385 1.255452036857605
-0.015313128009438515 -0.025905825197696686 1.1688145399093628
-0.03739012032747269 0.09388431906700134 0.9358795881271362
-0.05113928020000458 -0.016831785440444946 1.776321291923523
-0.06717102974653244 -0.07501310110092163 0.7110508680343628
-0.004332254640758038 0.11746565252542496 1.2737395763397217
0.00044905394315719604 -0.1920453906059265 1.020286202430725
-0.045639023184776306 -0.1838255524635315 1.2406619787216187
0.04275383800268173 0.14471565186977386 1.153342366218567
0.11936090886592865 -0.03439141809940338 0.20396460592746735
0.06001047044992447 -0.1795976459980011 1.0036470890045166
0.10977312922477722 -0.17295296490192413 0.9891577363014221
0.06133831664919853 0.05065174400806427 1.5454902648925781
0.053702205419540405 -0.16410356760025024 1.1892447471618652
0.027420001104474068 -0.03524751588702202 1.1673604249954224
0.08449718356132507 -0.02772117219865322 1.092193365097046
0.07796922326087952 0.05965287983417511 0.9672549366950989
0.16208508610725403 -0.0620880052447319 0.04118765890598297
0.1373649686574936 -0.0552557036280632 0.040438245981931686
0.19376008212566376 -0.041471414268016815 0.04872528091073036
0.20209883153438568 -0.0836593508720398 0.251871258020401
0.08225545287132263 -0.03445487841963768 1.4745848178863525
0.08094063401222229 -0.03286032751202583 1.472872257232666
0.07639200985431671 -0.04650047793984413 1.3333972692489624
0.09171854704618454 -0.06791006028652191 1.3136359453201294
0.1990073323249817 0.1597961038351059 1.0733709335327148
0.19553686678409576 0.14024600386619568 1.025525689125061
0.2048829197883606 0.14505906403064728 1.02252995967865
0.22288984060287476 -0.08529331535100937 1.0687557458877563
0.20720988512039185 -0.14517401158809662 1.0606845617294312
0.21581804752349854 -0.17089897394180298 1.0541406869888306
-0.25055253505706787 -0.08271364122629166 1.0872771739959717
-0.1679784208536148 -0.18260961771011353 1.2108330726623535
-0.19702136516571045 -0.08482763171195984 0.37274080514907837
-0.058003541082143784 0.1806592345237732 0.9764633178710938
-0.1094924584031105 -0.1424122452735901 1.089914083480835
-0.03695297613739967 -0.040905650705099106 0.8508472442626953
-0.06117263808846474 -0.029438190162181854 0.8171130418777466
-0.055217087268829346 -0.0820450484752655 0.8187438249588013
-0.008280005306005478 0.011564541608095169 1.1078039407730103
0.025806378573179245 -0.20909591019153595 0.847034752368927
0.09746376425027847 0.015245999209582806 0.8779897689819336
0.12476726621389389 0.15282875299453735 1.0950918197631836
0.08293004333972931 0.01399214193224907 1.5626705884933472
0.09457829594612122 0.03630436956882477 1.5387444496154785
0.18862274289131165 -0.11831901967525482 0.9544119834899902
-0.1718362271785736 -0.19507724046707153 1.1791789531707764
-0.14681820571422577 0.07007046788930893 1.5693892240524292
-0.03102170303463936 0.1889335811138153 1.0233137607574463
-0.12641790509223938 0.09782305359840393 1.600935935974121
-0.10215457528829575 0.05793284997344017 1.5907049179077148
-0.06948808580636978 0.04895782470703125 1.5696649551391602
0.025186382234096527 -0.19435927271842957 1.0776946544647217
0.043036818504333496 -0.13962078094482422 1.276466965675354
0.1549110859632492 -0.08288688212633133 0.17455872893333435
0.0811992809176445 -0.1257198005914688 1.2337925434112549
0.09111282974481583 -0.11880677938461304 1.1803280115127563
0.11351877450942993 0.06969685852527618 1.4384920597076416
0.10082559287548065 0.09725736826658249 1.4463748931884766
0.09514366090297699 -0.07279115170240402 1.1865551471710205
0.12848259508609772 -0.07518964260816574 0.8532336950302124
0.07080787420272827 -0.1634204089641571 1.2567219734191895
0.13826750218868256 0.1011548712849617 1.3558509349822998
-0.10921730101108551 0.12524214386940002 1.352554440498352
-0.18868675827980042 -0.007952891290187836 0.3797605037689209
0.04916943609714508 -0.10133823752403259 0.7382829189300537
-0.0020509250462055206 -0.11696508526802063 1.6971797943115234
-0.11035694181919098 0.1921902745962143 1.0729645490646362
-0.163931205868721 -0.09098078310489655 1.2848994731903076
-0.14763246476650238 -0.04838189855217934 0.41584062576293945
0.015330827794969082 0.1385195255279541 1.4776612520217896
0.119134820997715 -0.06557229906320572 0.04503088444471359
0.07492637634277344 -0.04632490128278732 1.5185189247131348
0.07579061388969421 -0.04767979308962822 1.514322280883789
0.08022445440292358 -0.0362076461315155 1.4291861057281494
0.19363798201084137 -0.06626959890127182 0.22417449951171875
0.1916806846857071 -0.03185666352510452 0.2143823504447937
0.1243295669555664 -0.10001061856746674 1.22742760181427
-0.17568230628967285 -0.1591360718011856 0.9437808394432068
-0.12190590798854828 0.11053307354450226 1.38297438621521
-0.12050869315862656 0.10803871601819992 1.3829432725906372
-0.12532131373882294 0.10591474175453186 1.3834216594696045
-0.16226938366889954 -0.07524438947439194 0.21394652128219604
-0.036314718425273895 -0.09585893154144287 0.8518097400665283
0.12850622832775116 -0.060255639255046844 0.1633656919002533
0.14601819217205048 -0.1269727498292923 1.1847131252288818
0.05829799920320511 -0.06937218457460403 1.6547348499298096
0.14618545770645142 -0.09888766705989838 0.802740216255188
0.12862654030323029 0.06061754375696182 1.4051152467727661
0.13666993379592896 0.08040366321802139 1.3683834075927734
0.1178821548819542 0.00777125358581543 0.07512997835874557
0.04263589531183243 -0.47479739785194397 1.0910252332687378
0.0480632483959198 -0.44180357456207275 1.0687479972839355
0.04565326124429703 -0.45472121238708496 1.071471095085144
0.039283785969018936 -0.45137161016464233 1.0754568576812744
0.03672868385910988 -0.4738379716873169 1.0804647207260132
0.04857078939676285 -0.46249863505363464 1.0952229499816895
0.11417900770902634 -0.33288270235061646 1.0685265064239502
0.09893804043531418 -0.3348131775856018 1.0592745542526245
0.10115620493888855 -0.3545936942100525 1.069049596786499
0.09359075129032135 -0.3620765209197998 1.071020483970642
0.16707931458950043 -0.1911887526512146 0.9937416315078735
0.16043621301651 -0.20687277615070343 1.010379672050476
0.15714624524116516 -0.2026163637638092 0.9847756624221802
0.09065020084381104 -0.34941402077674866 1.026989459991455
0.08668526262044907 -0.3620888590812683 1.0399342775344849
0.09128401428461075 -0.38731834292411804 1.095198392868042
0.09459677338600159 -0.37404558062553406 1.0798704624176025
0.13828563690185547 -0.2369593232870102 0.9677525758743286
0.13941003382205963 -0.24233320355415344 0.9939167499542236
0.14674122631549835 -0.2770419120788574 1.0587958097457886
0.14166419208049774 -0.26758742332458496 1.053168535232544
0.06465782970190048 -0.4485902190208435 1.1036021709442139
0.05746779590845108 -0.4358472526073456 1.0562052726745605
0.16431909799575806 -0.206716388463974 0.9764102101325989
0.15643848478794098 -0.2104647159576416 0.9753345847129822
0.2736375033855438 -0.04065458104014397 1.0530216693878174
0.26359739899635315 -0.05258156359195709 1.0514620542526245
0.26797178387641907 -0.04121367260813713 1.0326902866363525
0.0808551013469696 -0.4081575870513916 1.0881606340408325
0.06985907256603241 -0.43025320768356323 1.0948233604431152
0.16040189564228058 -0.20988035202026367 0.9695674180984497
0.16117212176322937 -0.20583385229110718 0.9596802592277527
0.026993785053491592 -0.4921008348464966 1.0437352657318115
0.021777180954813957 -0.5063986778259277 1.0513170957565308
0.278788298368454 -0.03421375900506973 1.0456256866455078
0.27688366174697876 -0.043039873242378235 1.058141827583313
0.2737262547016144 -0.03294187784194946 1.0405967235565186
0.27327167987823486 -0.042324502021074295 1.0301566123962402
0.021490562707185745 -0.5331961512565613 1.1031405925750732
0.018517524003982544 -0.5516253709793091 1.1137363910675049
0.009626735001802444 -0.5513870716094971 1.0964915752410889
0.11793813109397888 -0.2990978956222534 1.00111985206604
0.11399516463279724 -0.3178548812866211 0.9990371465682983
0.10004321485757828 -0.3345675468444824 0.9995220303535461
0.10283827781677246 -0.33655381202697754 0.9902191162109375
0.27754008769989014 -0.04777368903160095 1.0647363662719727
0.278184175491333 -0.03209593519568443 1.0377830266952515
0.09286599606275558 -0.4076404273509979 1.1030950546264648
0.09698528051376343 -0.4094807803630829 1.1014163494110107
0.08385263383388519 -0.41973721981048584 1.103489875793457
0.0825696587562561 -0.4372907876968384 1.1104161739349365
0.13655099272727966 -0.2640746831893921 0.98576819896698
0.1281982660293579 -0.2800520658493042 0.9822959899902344
0.12640300393104553 -0.2820218801498413 0.987026572227478
0.2814362347126007 -0.035108186304569244 1.0423896312713623
0.28033941984176636 -0.05103522539138794 1.0615144968032837
0.2736108899116516 -0.04478657990694046 1.032996416091919
0.16777744889259338 -0.18323078751564026 0.9303045868873596
0.16391058266162872 -0.19082960486412048 0.9228271245956421
0.16275934875011444 -0.20112541317939758 0.9466465711593628
0.16516701877117157 -0.19485235214233398 0.936919629573822
0.16261138021945953 -0.18926683068275452 0.934429943561554
0.0938234031200409 -0.35573941469192505 0.9891834855079651
0.09719698131084442 -0.33940574526786804 0.9855409860610962
0.09355077147483826 -0.3460114002227783 0.9749002456665039
0.09288441389799118 -0.35392433404922485 0.9735539555549622
0.27742689847946167 -0.05150938034057617 1.039421796798706
0.018557269126176834 -0.5608366131782532 1.1213151216506958
0.018647782504558563 -0.5574659109115601 1.1021702289581299
0.017842285335063934 -0.5669567584991455 1.117904543876648
0.012325060553848743 -0.5711832642555237 1.119504451751709
0.014349726028740406 -0.5517110228538513 1.090085744857788
0.18755443394184113 -0.2034030258655548 0.986136257648468
0.1714031845331192 -0.21011856198310852 0.9729558229446411
0.04065260663628578 -0.47774383425712585 1.0324963331222534
0.03114989772439003 -0.4994356632232666 1.0421442985534668
0.02523477002978325 -0.5208522081375122 1.056300401687622
0.16383495926856995 -0.26962631940841675 1.0589585304260254
0.1514033079147339 -0.28398847579956055 1.0589298009872437
0.15416792035102844 -0.2979883551597595 1.055163860321045
0.10493439435958862 -0.4042719900608063 1.1063646078109741
0.09729074686765671 -0.412276953458786 1.0981231927871704
0.07483764737844467 -0.4564197063446045 1.1080577373504639
0.10990625619888306 -0.3771095275878906 1.0903537273406982
0.059463661164045334 -0.4578411281108856 1.0497227907180786
0.044023822993040085 -0.4872771203517914 1.0500712394714355
0.1668795645236969 -0.2715848386287689 1.0519498586654663
0.11103596538305283 -0.3913140892982483 1.074019193649292
0.11507482081651688 -0.37625885009765625 1.0628962516784668
0.10219229757785797 -0.407304584980011 1.0767918825149536
0.03407038003206253 -0.5302625298500061 1.0894043445587158
0.03909491375088692 -0.5218182802200317 1.078514814376831
0.09362262487411499 -0.38001585006713867 1.0193030834197998
0.10406345129013062 -0.3848850727081299 1.0363826751708984
0.09187992662191391 -0.3951496183872223 1.0381559133529663
0.09713314473628998 -0.3978418707847595 1.0484040975570679
0.13630250096321106 -0.3329133689403534 1.059621810913086
0.12002217769622803 -0.36192238330841064 1.063232660293579
0.0755518227815628 -0.4579795002937317 1.0843037366867065
0.0682278573513031 -0.4745824933052063 1.0841524600982666
0.05778900906443596 -0.4805945158004761 1.089570164680481
0.07484452426433563 -0.44909238815307617 1.058934211730957
0.07073159515857697 -0.45672786235809326 1.0560057163238525
0.11903302371501923 -0.3465923070907593 1.0215760469436646
0.1134783923625946 -0.36035245656967163 1.022599458694458
0.11644251644611359 -0.3375850319862366 1.0065269470214844
0.11219055950641632 -0.354178786277771 1.0143678188323975
0.10673065483570099 -0.3694053292274475 1.0259977579116821
0.13178706169128418 -0.333718478679657 1.0291556119918823
0.14191097021102905 -0.3195759952068329 1.034839391708374
0.13319650292396545 -0.30663955211639404 1.00749671459198
0.13529571890830994 -0.31947585940361023 1.024750828742981
0.07084303349256516 -0.4650048017501831 1.0634809732437134
0.06455405056476593 -0.48260125517845154 1.0701009035110474
0.06120128929615021 -0.4737538695335388 1.0633399486541748
0.07340500503778458 -0.47859740257263184 1.066213607788086
0.18857422471046448 -0.2184165120124817 1.0009243488311768
