-0.09418007731437683 -0.1100105494260788 1.561346173286438
-0.06880898773670197 -0.060308389365673065 0.3529258668422699
-0.05915159359574318 0.06691634654998779 1.503045678138733
-0.06982884556055069 0.0152386873960495 1.4979101419448853
-0.04652540758252144 0.13324637711048126 1.4360687732696533
-0.03921196237206459 0.051583122462034225 0.8518298864364624
-0.07029399275779724 0.00818921159952879 0.31032314896583557
-0.022888200357556343 0.15769711136817932 0.8700740337371826
-0.03129439800977707 0.046929534524679184 1.0299086570739746
-0.07506126910448074 -0.16708943247795105 1.2632417678833008
-0.07910866290330887 -0.1547934114933014 1.1615591049194336
-0.05573481321334839 -0.018081750720739365 0.2856934070587158
-0.03341004252433777 -0.026433279737830162 0.22371096909046173
-0.06307882070541382 0.02316175401210785 0.22284696996212006
-0.05279461294412613 0.051491398364305496 1.5290231704711914
-0.033424198627471924 -0.11427928507328033 0.6655031442642212
-0.0554058812558651 -0.04110664874315262 0.6309329271316528
-0.019419459626078606 0.21653157472610474 1.0098471641540527
-0.018851766362786293 0.1996433138847351 0.9154477119445801
-0.024936195462942123 -0.1861620843410492 1.1865626573562622
-0.04291178658604622 -0.008868305012583733 0.08040934056043625
-0.017044445499777794 0.14301446080207825 0.9177651405334473
-0.019718993455171585 0.12017397582530975 0.9684324264526367
0.016055941581726074 0.05454932898283005 1.511824607849121
-0.06258383393287659 -0.11201092600822449 1.4039244651794434
0.0078118969686329365 0.17051514983177185 1.2821977138519287
0.02903493121266365 0.06307318061590195 1.411407709121704
0.008526256307959557 0.0454457588493824 1.5213210582733154
0.0483294352889061 0.14418455958366394 0.9307805299758911
0.061277132481336594 0.12739135324954987 0.8778557777404785
0.004438338801264763 -0.12449517846107483 1.3964085578918457
0.018462851643562317 0.04586699604988098 1.024552822113037
-0.004818460904061794 -0.19519996643066406 1.1175662279129028
0.08520544320344925 0.15192104876041412 1.3092467784881592
0.03103979490697384 -0.00758964940905571 1.3069510459899902
0.06395649909973145 0.12416604161262512 1.4447921514511108
0.03474043682217598 0.06855536252260208 1.4592255353927612
0.04363260418176651 -0.016868077218532562 1.2152082920074463
0.044240470975637436 0.09624867886304855 0.9153451919555664
0.023977894335985184 0.003023013472557068 1.7724047899246216
0.012716121040284634 -0.1939912736415863 0.06881856918334961
0.018086040392518044 -0.23375444114208221 0.04084900766611099
0.017814891412854195 -0.10277349501848221 0.03693963214755058
0.0019948482513427734 -0.1388310045003891 1.6682147979736328
0.04051893204450607 -0.06796012818813324 0.6915942430496216
0.1013818234205246 0.06068890541791916 1.424893856048584
0.05963103845715523 -0.05572477728128433 1.5068871974945068
0.10872077941894531 -0.05666819214820862 1.4403282403945923
0.05712407827377319 -0.020240772515535355 1.4186078310012817
0.048923883587121964 -0.06848642230033875 0.3579598069190979
0.04487742483615875 -0.16427746415138245 0.20788294076919556
0.06231462582945824 -0.06752830743789673 0.160153329372406
0.12147300690412521 0.14460916817188263 0.935542106628418
0.10868475586175919 0.16825324296951294 0.8905504941940308
0.07844415307044983 -0.15344414114952087 0.7201954126358032
0.0748605951666832 -0.06146421283483505 0.6280099749565125
0.029450222849845886 -0.053537897765636444 1.7652828693389893
0.07694783806800842 -0.061282407492399216 1.7195158004760742
0.07125965505838394 -0.14851129055023193 0.5254939198493958
0.044517237693071365 0.015928760170936584 1.7849313020706177
0.07877840846776962 -0.001971900463104248 1.7339569330215454
0.0855405330657959 -0.07882179319858551 1.1423249244689941
0.09008405357599258 -0.0701248049736023 1.111082911491394
0.08195173740386963 -0.14618805050849915 1.0982060432434082
0.06482847779989243 -0.10849811136722565 1.6585345268249512
0.07679097354412079 -0.045186847448349 1.5392709970474243
0.06982119381427765 -0.09122154116630554 1.5451205968856812
0.1691608875989914 0.12584733963012695 0.8932116627693176
0.09931075572967529 -0.11037112772464752 1.2981549501419067
0.10995656996965408 -0.17730572819709778 1.2503739595413208
0.10060320794582367 -0.09810490161180496 1.2472522258758545
0.1009579747915268 -0.07071627676486969 0.09686878323554993
0.08334596455097198 -0.1720144897699356 0.12926603853702545
0.09986133128404617 -0.1686318814754486 0.11069759726524353
0.09078153222799301 0.023634575307369232 1.7543853521347046
0.11164534091949463 -0.12865416705608368 1.2955843210220337
0.12665696442127228 -0.07324184477329254 0.39258551597595215
0.1089848130941391 -0.12106340378522873 0.4523538053035736
0.12762881815433502 -0.09223124384880066 0.33453240990638733
0.12457433342933655 -0.07814554870128632 1.4324061870574951
0.11103902757167816 -0.07228600233793259 1.4280813932418823
0.13107037544250488 -0.04848368838429451 1.388787031173706
0.12455688416957855 0.06721954047679901 0.906722366809845
0.12295608222484589 -0.1148991584777832 0.8357614278793335
0.13440558314323425 -0.08967820554971695 0.20322315394878387
0.14029793441295624 -0.12162357568740845 0.21270868182182312
0.14327165484428406 -0.03833060339093208 1.3813228607177734
0.17284971475601196 0.08786752074956894 1.2264411449432373
0.1794777363538742 0.11937710642814636 1.1907671689987183
0.11288894712924957 -0.24073243141174316 1.1399309635162354
0.16931049525737762 -0.05747018754482269 0.9740761518478394
0.17195968329906464 -0.1176290437579155 0.9660506248474121
0.14129385352134705 -0.0043669939041137695 1.1871099472045898
0.18613864481449127 -0.07965848594903946 1.0314521789550781
0.18225426971912384 -0.025029834359884262 1.0247435569763184
0.22614628076553345 -0.13471724092960358 1.077645182609558
-0.2133249044418335 -0.008777589537203312 0.939445972442627
-0.2294861376285553 -0.07548937946557999 0.9093285202980042
-0.1779310703277588 -0.09943155944347382 1.0672128200531006
-0.21464082598686218 -0.11250678449869156 1.110643744468689
-0.14382007718086243 -0.0656425952911377 1.098467230796814
-0.137836754322052 -0.016451634466648102 1.1244840621948242
-0.1902504861354828 -0.1587270349264145 0.8498220443725586
-0.14932040870189667 0.1307201385498047 0.9253225326538086
-0.15273620188236237 0.12781326472759247 1.045373797416687
-0.09377549588680267 -0.25244152545928955 1.1121773719787598
-0.14551174640655518 -0.16657471656799316 0.9515293836593628
-0.15014053881168365 -0.032243043184280396 0.22622887790203094
-0.1294602006673813 -0.08117158710956573 0.23800991475582123
-0.10720838606357574 -0.002305650385096669 0.4635060727596283
-0.14653706550598145 -0.19786736369132996 0.8426497578620911
-0.11005834490060806 -0.06761953234672546 0.5966745615005493
-0.11152065545320511 -0.10734746605157852 0.6548051238059998
-0.10031832009553909 -0.04590313881635666 0.6648149490356445
-0.10113976895809174 -0.008847285062074661 1.1024694442749023
-0.10309580713510513 -0.07012876868247986 1.1296823024749756
-0.05977734178304672 0.19772373139858246 1.1071298122406006
-0.11103670299053192 -0.021627061069011688 0.8373810052871704
-0.08360722661018372 -0.09399554878473282 0.25425028800964355
-0.10768264532089233 -0.021805044263601303 1.2119158506393433
-0.08623693883419037 -0.03076714091002941 1.1380407810211182
-0.08845116943120956 -0.08732921630144119 0.3992522358894348
-0.1315222680568695 0.013715863227844238 1.7518202066421509
-0.13217000663280487 -0.024309854954481125 1.743774175643921
-0.08575084805488586 -0.06206541508436203 1.7612452507019043
-0.09820454567670822 -0.10628147423267365 1.724361538887024
-0.11409854888916016 -0.10953900218009949 1.6171154975891113
-0.06840130686759949 -0.05501210689544678 0.2962365448474884
-0.039235275238752365 -0.12233135104179382 0.7204771041870117
-0.03654949739575386 -0.05547390133142471 0.22638040781021118
-0.05495921149849892 -0.08574008196592331 0.2266674041748047
-0.06713621318340302 0.010739009827375412 0.17085736989974976
-0.05637174844741821 0.0679359957575798 0.9599607586860657
-0.08443956822156906 0.03628087416291237 1.79734468460083
-0.09574541449546814 0.020526450127363205 1.7865780591964722
0.03835943341255188 0.12361522018909454 1.111534595489502
-0.06587366759777069 0.12481323629617691 1.1080737113952637
0.015310484915971756 0.11322793364524841 1.1760938167572021
0.011127568781375885 -0.02650757133960724 1.2550809383392334
0.02397218532860279 0.20002906024456024 1.1474148035049438
0.029728155583143234 0.1263732612133026 0.9736729264259338
0.09358064085245132 0.21060331165790558 1.0506863594055176
0.025496110320091248 0.13779793679714203 1.6512656211853027
0.07307810336351395 0.11842066049575806 0.983463704586029
0.04370497167110443 -0.2169017493724823 0.9040867686271667
0.016318634152412415 -0.12212058901786804 0.22652578353881836
0.02913977950811386 -0.1387467086315155 0.1669292002916336
0.03242160379886627 -0.13531872630119324 0.679265022277832
0.04485664516687393 0.02069009467959404 1.0605437755584717
0.044261738657951355 -0.06113394722342491 0.5378310084342957
0.0989445149898529 0.09336936473846436 1.2576658725738525
0.08719860017299652 -0.10245387256145477 1.4162003993988037
0.06251723319292068 0.11683779209852219 1.6171433925628662
0.06130535155534744 0.03980664908885956 1.5999314785003662
0.06219692900776863 0.057340607047080994 1.570871353149414
0.039085403084754944 0.02824201062321663 1.8339327573776245
0.08650125563144684 -0.11932089924812317 1.345169186592102
0.10351162403821945 -0.04291180521249771 0.4588048458099365
0.07292775809764862 -0.029222436249256134 0.45660942792892456
0.08574093878269196 -0.04781712591648102 0.3043052554130554
0.10671529918909073 -0.05637954920530319 0.2737405598163605
0.10097919404506683 -0.03977060317993164 1.5299746990203857
0.08866553008556366 -0.04977314546704292 1.5393580198287964
0.10314777493476868 -0.04434068873524666 1.5207964181900024
0.11183057725429535 -0.05972021073102951 0.7342252135276794
0.10824903100728989 -0.10828560590744019 0.6031555533409119
0.13178713619709015 0.0292117428034544 0.9483785629272461
0.12125112116336823 -0.06267676502466202 1.0844680070877075
0.11377502977848053 -0.11893033981323242 1.0772099494934082
0.12281522154808044 -0.1471359133720398 1.0220263004302979
0.10085028409957886 0.012848436832427979 1.6478753089904785
0.11299371719360352 0.0002083033323287964 1.5610345602035522
0.09835153818130493 -0.16421732306480408 1.2347164154052734
0.12678605318069458 0.07390279322862625 1.5313395261764526
0.11738140881061554 0.0448872447013855 1.5811102390289307
0.12071508914232254 -0.10161993652582169 0.0005259346216917038
0.12226937711238861 -0.1759125143289566 0.017453964799642563
0.13716021180152893 0.05015575513243675 1.4952585697174072
0.14183077216148376 0.06220706179738045 1.4610618352890015
0.14970438182353973 0.052011024206876755 1.4167876243591309
0.1493605673313141 0.06505022197961807 1.3934577703475952
0.10827569663524628 -0.24787044525146484 1.1580464839935303
0.1749885529279709 -0.1557568609714508 0.8440362215042114
0.12338393926620483 -0.22115959227085114 1.173467755317688
0.12202750891447067 -0.24700191617012024 1.1577293872833252
0.205974742770195 -0.11128965020179749 0.8571059107780457
0.20467734336853027 -0.08957970142364502 0.837119996547699
0.21612942218780518 -0.054025035351514816 0.8443430662155151
-0.17603567242622375 -0.1104530319571495 1.1430453062057495
-0.14853094518184662 -0.11853884160518646 1.2525218725204468
-0.14993032813072205 -0.11707576364278793 1.229247808456421
-0.14407524466514587 -0.11076445132493973 1.240399956703186
-0.14256945252418518 -0.10907775163650513 1.2612731456756592
-0.20178274810314178 -0.0024838633835315704 0.8465705513954163
-0.12674370408058167 -0.07032819837331772 1.2936902046203613
-0.14160144329071045 -0.058288704603910446 1.0800764560699463
-0.1420724242925644 0.09204384684562683 1.5415300130844116
-0.12985020875930786 -0.09219379723072052 1.2016255855560303
-0.13531586527824402 -0.07861153036355972 1.147372841835022
-0.1190854161977768 0.08499430865049362 1.4216164350509644
-0.11087540537118912 0.07786236703395844 1.3731178045272827
-0.12710118293762207 -0.13869968056678772 1.0452204942703247
-0.09455115348100662 -0.16580727696418762 1.0050965547561646
-0.11366352438926697 -0.032204609364271164 0.7540256977081299
-0.05765153467655182 0.17846238613128662 1.1980681419372559
-0.08149851858615875 0.13844901323318481 1.6281821727752686
-0.04519638791680336 0.032654739916324615 0.012186752632260323
-0.05917869880795479 0.04772975295782089 -0.0014251619577407837
-0.0848253145813942 0.02304179035127163 0.8555184006690979
-0.008019070141017437 0.09640434384346008 0.8456801176071167
-0.05883762985467911 -0.022808797657489777 0.8336912393569946
0.01671328768134117 0.08200901746749878 1.2913825511932373
-0.018408365547657013 -0.08277791738510132 0.7562277317047119
-0.03690170496702194 -0.12995992600917816 1.6365820169448853
-0.012081842869520187 0.01690751314163208 0.869333028793335
-0.0063811857253313065 -0.024663221091032028 0.8482388257980347
0.009527269750833511 -0.11635429412126541 0.8501110076904297
-0.07674242556095123 -0.16646939516067505 0.8550921678543091
-0.0038426946848630905 -0.2263069748878479 0.8510996103286743
0.023114951327443123 -0.10868380963802338 0.8215243816375732
-0.00770020904019475 -0.1610058844089508 0.8622050285339355
0.004862561821937561 0.02432742342352867 1.4945616722106934
0.020074589177966118 -0.03532316908240318 0.8389692306518555
0.022639207541942596 -0.04799206554889679 0.8158418536186218
0.018338659778237343 0.04185071587562561 1.5740619897842407
0.02288661152124405 0.044900111854076385 1.5454586744308472
0.0347726047039032 -0.12197295576334 0.8363437652587891
0.12692216038703918 0.05954746901988983 0.8351709246635437
0.021588951349258423 -0.09285305440425873 0.221697598695755
0.042031481862068176 -0.03526882827281952 0.7983610033988953
0.08670355379581451 0.1254112273454666 1.1437373161315918
0.06362555921077728 -0.11794660985469818 0.3466378450393677
0.05310723930597305 -0.10528553277254105 0.2835276126861572
0.0706561952829361 -0.12735435366630554 0.30055463314056396
0.05713002383708954 -0.16947045922279358 0.24824637174606323
0.10486684739589691 0.08425423502922058 1.498389482498169
0.0750766396522522 -0.014860824681818485 0.8335574269294739
0.09868699312210083 -0.03683493286371231 0.8044368028640747
0.09843546152114868 -0.0666203498840332 1.2514712810516357
0.09488365054130554 -0.13158132135868073 0.3960663080215454
0.09725230187177658 0.0689152181148529 1.6149306297302246
0.08765038847923279 -0.027410879731178284 1.3058176040649414
0.10064090043306351 -0.12950408458709717 0.2997625470161438
0.11036491394042969 0.1943124234676361 1.1238001585006714
0.10310213267803192 -0.04169103130698204 1.2230796813964844
0.10294584929943085 -0.06946666538715363 0.16232040524482727
0.15893934667110443 0.18315449357032776 1.0290911197662354
0.09242427349090576 -0.05673810839653015 0.20316153764724731
0.09701747447252274 -0.1772526204586029 0.21921487152576447
0.14826996624469757 0.08270854502916336 1.2828948497772217
0.11931917816400528 -0.05742921307682991 1.473602056503296
0.13060060143470764 -0.05594407021999359 1.4372812509536743
0.12170816212892532 -0.05638468265533447 1.4715921878814697
0.1438644975423813 -0.036231864243745804 1.4161397218704224
0.11869282275438309 -0.187767893075943 1.2173120975494385
0.10398886352777481 -0.20401689410209656 1.210614800453186
0.17541955411434174 0.10471796244382858 1.1725187301635742
0.19579316675662994 0.1360817551612854 1.0936813354492188
0.19172844290733337 0.12757918238639832 1.0587425231933594
0.1337963044643402 -0.04428158327937126 1.242079257965088
0.12312503904104233 -0.09268968552350998 1.2474313974380493
0.16064584255218506 -0.18037959933280945 0.8584636449813843
0.14116084575653076 -0.11292917281389236 1.2514774799346924
0.14766225218772888 -0.1196913793683052 1.1299432516098022
0.13586801290512085 -0.03555706888437271 1.1329553127288818
0.14208121597766876 -0.08570173382759094 1.104395866394043
0.2361728698015213 -0.1127396896481514 1.1183979511260986
0.225071519613266 -0.04235243424773216 0.9917434453964233
0.2340267151594162 -0.11920780688524246 1.0276192426681519
-0.10743679106235504 -0.24035441875457764 1.1517140865325928
-0.11712637543678284 -0.1699582040309906 1.2046782970428467
-0.12996940314769745 -0.15828192234039307 1.2219029664993286
-0.09743542224168777 -0.22319753468036652 1.157984733581543
-0.13696393370628357 0.09232080727815628 1.4575204849243164
-0.1408972442150116 0.07741360366344452 1.4398608207702637
-0.14607854187488556 0.09192411601543427 1.3863139152526855
-0.15426337718963623 0.007721111178398132 1.7146719694137573
-0.14978723227977753 -0.038337089121341705 1.6289551258087158
-0.1265018880367279 -0.05357684567570686 0.2876463532447815
-0.12560297548770905 -0.07273460924625397 0.8271986246109009
-0.12246711552143097 -0.09799160063266754 0.8080087304115295
-0.13324286043643951 0.1453358232975006 0.8911054730415344
-0.08623014390468597 -0.13270872831344604 1.2581580877304077
-0.10833227634429932 -0.033144425600767136 0.806389331817627
-0.10166696459054947 -0.0011226311326026917 1.7671360969543457
-0.09172199666500092 -0.11850479245185852 1.134857177734375
-0.0531139001250267 -0.17871668934822083 1.1318005323410034
-0.06253571808338165 0.13572388887405396 1.0213407278060913
0.02341434732079506 0.13081254065036774 1.0211035013198853
-0.06366954743862152 -0.014230506494641304 1.1533076763153076
-0.04728442057967186 -0.11663135886192322 0.8435940742492676
-0.04731835424900055 -0.18406397104263306 1.0674164295196533
-0.05014646798372269 0.026923350989818573 1.0532416105270386
-0.02980206534266472 -0.10780981183052063 1.7382140159606934
0.012115126475691795 -0.10458536446094513 0.7544806003570557
-0.04596519097685814 0.09260274469852448 1.2534195184707642
0.0199663694947958 -0.18310123682022095 -0.014575358480215073
0.13521786034107208 0.19506877660751343 0.9521680474281311
0.10371926426887512 0.13719409704208374 1.0427101850509644
0.07083593308925629 0.21201092004776 0.9650358557701111
0.09414993226528168 0.08986108005046844 0.8450292944908142
0.09538447856903076 -0.05489267408847809 -0.019610073417425156
0.11786821484565735 -0.03652164340019226 0.8294069766998291
0.09743338078260422 -0.1251143515110016 0.35081931948661804
0.13304278254508972 -0.09547610580921173 1.3918380737304688
0.11967633664608002 -0.10974384844303131 1.3045785427093506
0.20030826330184937 0.0003550183027982712 0.8389354944229126
0.20858414471149445 -0.047934968024492264 0.9059937000274658
0.2312438040971756 -0.08453734219074249 0.9979438781738281
-0.21551892161369324 -0.11789433658123016 1.068541169166565
-0.20634813606739044 -0.08969022333621979 0.906432032585144
-0.21581682562828064 -0.07971247285604477 0.8478662967681885
-0.14551159739494324 0.07469165325164795 1.3857007026672363
-0.1455685943365097 0.09691236913204193 1.2078821659088135
-0.14016088843345642 0.005923379212617874 1.5388922691345215
-0.1412646472454071 -0.052830662578344345 1.0452889204025269
-0.1386593133211136 -0.08091410249471664 1.0870789289474487
-0.13898302614688873 0.008180543780326843 1.5379540920257568
-0.13451451063156128 -0.006502579897642136 1.526634693145752
-0.139420285820961 0.004026241600513458 1.5352909564971924
-0.13776670396327972 0.00011325255036354065 1.5372376441955566
-0.1424952745437622 -0.018190056085586548 1.527817726135254
-0.09567242860794067 -0.07898695766925812 0.1252232789993286
-0.14699774980545044 -0.07178112864494324 1.6918470859527588
-0.03405337035655975 -0.008238397538661957 1.2104074954986572
-0.04304458945989609 -0.09107623249292374 0.029569528996944427
-0.04961564019322395 -0.020084964111447334 1.2527267932891846
-0.0032827388495206833 -0.013716422021389008 1.163938283920288
-0.04505426436662674 0.09315869957208633 0.9218167066574097
-0.039118148386478424 -0.005611296743154526 1.7840895652770996
-0.02281031385064125 -0.07430334389209747 0.6863973140716553
-0.015350256115198135 0.09627372026443481 1.21477210521698
0.010748516768217087 -0.19061768054962158 1.0139960050582886
-0.023717956617474556 -0.18883128464221954 1.2345314025878906
0.0346541590988636 0.12126121670007706 1.0721611976623535
0.03433062508702278 -0.09254361689090729 0.1537187397480011
0.07068652659654617 -0.17510604858398438 0.9935997724533081
0.1246751993894577 -0.1704050600528717 0.9628462195396423
0.08325450867414474 0.057219862937927246 1.533571720123291
0.07541632652282715 -0.1585397571325302 1.1752209663391113
0.03980114310979843 -0.02013488858938217 1.1612778902053833
0.10102342814207077 -0.016887670382857323 1.0764970779418945
0.08660641312599182 0.06254513561725616 0.949495792388916
0.07652086019515991 -0.2651433050632477 -0.003227250650525093
0.054073937237262726 -0.25117573142051697 -0.02241252362728119
0.10732826590538025 -0.23426227271556854 -0.01987108588218689
0.11726152896881104 -0.1655377447605133 0.19498294591903687
0.11776527017354965 -0.055768247693777084 1.4687259197235107
0.12275256216526031 -0.05625520646572113 1.470908522605896
0.10457155108451843 -0.06913267076015472 1.3237276077270508
0.1141246035695076 -0.09857244044542313 1.296854853630066
0.20295517146587372 0.14979468286037445 0.9714283347129822
0.19907823204994202 0.12011901289224625 0.9238650798797607
0.21097007393836975 0.12755417823791504 0.9228730797767639
0.23223286867141724 -0.02869347482919693 0.994576096534729
0.24121254682540894 -0.09988382458686829 0.9649726748466492
0.2629907727241516 -0.11987677961587906 0.9439197182655334
-0.17083361744880676 -0.04592442512512207 0.9926671981811523
-0.12847261130809784 -0.2010628581047058 1.1891353130340576
-0.09714645147323608 -0.061901990324258804 0.3196256160736084
-0.08577592670917511 0.12742158770561218 0.8686893582344055
-0.1012970507144928 -0.13671468198299408 1.0852487087249756
-0.029865849763154984 -0.043904200196266174 0.8388663530349731
-0.0449594222009182 -0.03210701793432236 0.799440860748291
-0.03726749122142792 -0.08575974404811859 0.8034375905990601
0.00036834459751844406 0.022008411586284637 1.0975096225738525
0.02422158047556877 -0.20934008061885834 0.8389347195625305
0.09390134364366531 0.01629779487848282 0.8497017621994019
0.12085127830505371 0.13336926698684692 1.0031986236572266
0.10865676403045654 0.021469514816999435 1.5592557191848755
0.11694175750017166 0.04274269938468933 1.5305060148239136
0.1950063556432724 -0.11648052930831909 0.9090090394020081
-0.12426578998565674 -0.21216747164726257 1.1559240818023682
-0.1445976048707962 0.060782141983509064 1.5642296075820923
-0.05396965146064758 0.1456419825553894 0.9213162660598755
-0.12644581496715546 0.09254749119281769 1.5922865867614746
-0.09563130885362625 0.05628787353634834 1.5863900184631348
-0.059096284210681915 0.04639149457216263 1.5654010772705078
0.03900553286075592 -0.18671178817749023 1.0700980424880981
0.06444159895181656 -0.14371690154075623 1.2649095058441162
0.047193385660648346 -0.16783300042152405 0.12673860788345337
0.10296928882598877 -0.12164077162742615 1.2216801643371582
0.11170236766338348 -0.10374525189399719 1.166487216949463
0.13076630234718323 0.07282394170761108 1.414764642715454
0.11091609299182892 0.10463035106658936 1.4129242897033691
0.11416816711425781 -0.05956748127937317 1.1740896701812744
0.11830484122037888 -0.07654137909412384 0.814612865447998
0.08592177927494049 -0.18508677184581757 1.2397561073303223
0.1472720205783844 0.0996503159403801 1.3045934438705444
-0.13301172852516174 0.09794408082962036 1.3051732778549194
-0.09186702966690063 0.011777822859585285 0.3373965322971344
0.021715428680181503 -0.10725408792495728 0.7104616165161133
0.028323274105787277 -0.10873697698116302 1.721015214920044
-0.1478099375963211 0.1507539451122284 0.9720957279205322
-0.13721831142902374 -0.11109086871147156 1.2693374156951904
-0.05481588840484619 -0.02958022803068161 0.3702000379562378
0.010340683162212372 0.13603448867797852 1.4377541542053223
0.02915857546031475 -0.24887624382972717 -0.00015623867511749268
0.10571242868900299 -0.04481060802936554 1.5200088024139404
0.10288605093955994 -0.043898165225982666 1.5195728540420532
0.11523836106061935 -0.06071971356868744 1.4249796867370605
0.10999395698308945 -0.15652397274971008 0.16011855006217957
0.11964496970176697 -0.11837637424468994 0.14110371470451355
0.15572644770145416 -0.12765565514564514 1.1801464557647705
-0.17842522263526917 -0.16367089748382568 0.9127434492111206
-0.13957057893276215 0.08385307341814041 1.344041347503662
-0.13704229891300201 0.08211500197649002 1.3477555513381958
-0.1455169916152954 0.07993973791599274 1.3475358486175537
-0.04566628485918045 -0.03294289857149124 0.1637437492609024
-0.028452033177018166 -0.09771347045898438 0.8410201072692871
0.022169144824147224 -0.13409516215324402 0.1188577339053154
0.1873100996017456 -0.132841557264328 1.1226439476013184
0.092267245054245 -0.06032561510801315 1.6668360233306885
0.12798616290092468 -0.10457643866539001 0.7643829584121704
0.14954566955566406 0.06539516896009445 1.3681634664535522
0.14868181943893433 0.08160976320505142 1.3242615461349487
0.028472410514950752 -0.09200461953878403 -0.024658499285578728
0.23008573055267334 -0.5149844288825989 0.9182669520378113
0.21675032377243042 -0.4812246561050415 0.9038984775543213
0.21926181018352509 -0.4904934763908386 0.9034337997436523
0.21087892353534698 -0.4905076324939728 0.9197272658348083
0.21960926055908203 -0.5131126642227173 0.911103367805481
0.2266882061958313 -0.5105333924293518 0.9241054058074951
0.23614650964736938 -0.3391096591949463 0.926225483417511
0.21420374512672424 -0.3448035717010498 0.9256637692451477
0.23631681501865387 -0.3678033649921417 0.9262117147445679
0.23199252784252167 -0.3804360032081604 0.9290876984596252
0.2081994265317917 -0.15511183440685272 0.8923640251159668
0.208227276802063 -0.1668875813484192 0.9091500639915466
0.20641827583312988 -0.16657453775405884 0.8837727308273315
0.2085384875535965 -0.35521912574768066 0.8888148665428162
0.2160814255475998 -0.3744578957557678 0.9001575708389282
0.2485789656639099 -0.40670856833457947 0.9426126480102539
0.24178873002529144 -0.39296194911003113 0.934843122959137
0.19930967688560486 -0.2022787183523178 0.861651599407196
0.20486699044704437 -0.21481853723526 0.8827856779098511
0.24154621362686157 -0.2612660825252533 0.933615505695343
0.2335178703069687 -0.254899799823761 0.9308997988700867
0.2479216754436493 -0.48987877368927 0.933946967124939
0.22441019117832184 -0.46232014894485474 0.8986462354660034
0.2111315131187439 -0.15917441248893738 0.8714063763618469
0.20607812702655792 -0.16584455966949463 0.8664147853851318
0.25958871841430664 0.04590144753456116 0.9753580093383789
0.25889649987220764 0.034577272832393646 0.9717921614646912
0.2476196140050888 0.052065297961235046 0.9550183415412903
0.23744112253189087 -0.43456003069877625 0.9311536550521851
0.24313408136367798 -0.4628356099128723 0.9310790300369263
0.21356074512004852 -0.16391690075397491 0.8642325401306152
0.20583640038967133 -0.1629435122013092 0.8534547686576843
0.21287305653095245 -0.5354547500610352 0.8665452599525452
0.21608638763427734 -0.5501985549926758 0.8684532046318054
0.26500871777534485 0.06537386029958725 0.9699438810348511
0.26299652457237244 0.048754483461380005 0.9790517687797546
0.2569923400878906 0.06594838201999664 0.9656524062156677
0.2517220079898834 0.05779952555894852 0.9533888697624207
0.23547522723674774 -0.5931946039199829 0.9144364595413208
0.24573707580566406 -0.616147518157959 0.9227275252342224
0.23305577039718628 -0.61869215965271 0.9035567045211792
0.21047772467136383 -0.2890773415565491 0.8704966902732849
0.21936537325382233 -0.30956584215164185 0.8687340021133423
0.2047620564699173 -0.32921284437179565 0.8605266809463501
0.21562667191028595 -0.3228561580181122 0.8565444946289062
0.27070632576942444 0.04334631562232971 0.9809721112251282
0.25677525997161865 0.06987235695123672 0.9598428010940552
0.2596643567085266 -0.43036484718322754 0.9440644383430481
0.2643560767173767 -0.4303068220615387 0.9452273845672607
0.252066433429718 -0.45092594623565674 0.9431739449501038
0.2575445771217346 -0.47011932730674744 0.9402900338172913
0.210645854473114 -0.24331845343112946 0.8664970397949219
0.21002182364463806 -0.25685256719589233 0.8611423373222351
0.20671182870864868 -0.26209166646003723 0.8651807904243469
0.26655855774879456 0.06517345458269119 0.963195264339447
0.27334505319595337 0.041268251836299896 0.977741539478302
0.2610059678554535 0.04680882394313812 0.9516482353210449
0.19429351389408112 -0.12697279453277588 0.8266698122024536
0.1922752857208252 -0.13233207166194916 0.8196252584457397
0.20343101024627686 -0.14716000854969025 0.8419708013534546
0.20062914490699768 -0.14317497611045837 0.8305228352546692
0.19081930816173553 -0.13706980645656586 0.8313489556312561
0.21731624007225037 -0.35635626316070557 0.8461191058158875
0.2111278772354126 -0.3358689546585083 0.8471693992614746
0.20719240605831146 -0.3407074213027954 0.8335977792739868
0.1995428055524826 -0.34533604979515076 0.8327329754829407
0.2660652697086334 0.044388480484485626 0.9612138867378235
0.25589945912361145 -0.6212974786758423 0.9225860834121704
0.24068766832351685 -0.6189934015274048 0.9029895067214966
0.25476136803627014 -0.6329740285873413 0.9154834747314453
0.2499600350856781 -0.6372091770172119 0.9204480051994324
0.23909853398799896 -0.6095340251922607 0.8935299515724182
0.23744836449623108 -0.1483287215232849 0.8761978149414062
0.22043967247009277 -0.16062292456626892 0.8633937835693359
0.22093944251537323 -0.512474000453949 0.8569841980934143
0.21502642333507538 -0.5432496070861816 0.8621636629104614
0.2286006212234497 -0.563774585723877 0.8730625510215759
0.2609226107597351 -0.251303493976593 0.9246085286140442
0.25824347138404846 -0.2743828296661377 0.9248472452163696
0.2583659291267395 -0.2805374264717102 0.9163583517074585
0.2656520903110504 -0.42150282859802246 0.941649854183197
0.260585218667984 -0.431166410446167 0.9351931214332581
0.2655690312385559 -0.49153757095336914 0.9350735545158386
0.25267812609672546 -0.39360493421554565 0.9338749051094055
0.2414429634809494 -0.48586443066596985 0.8751646876335144
0.23299650847911835 -0.522574782371521 0.8715015649795532
0.26145631074905396 -0.248586043715477 0.9190519452095032
0.2553345561027527 -0.40009957551956177 0.9108171463012695
0.26596516370773315 -0.38179707527160645 0.9075543880462646
0.26354771852493286 -0.4154750406742096 0.9137518405914307
0.24524810910224915 -0.5804691314697266 0.8992650508880615
0.2465226650238037 -0.5651397109031677 0.890383780002594
0.22896504402160645 -0.3802332878112793 0.8680173754692078
0.24889078736305237 -0.38438719511032104 0.8755052089691162
0.23995628952980042 -0.40865424275398254 0.8824734687805176
0.25126558542251587 -0.4100765585899353 0.8891173005104065
0.2593100368976593 -0.32552337646484375 0.9112562537193298
0.25226521492004395 -0.3657560348510742 0.9111267924308777
0.2569619119167328 -0.4829367399215698 0.9142097234725952
0.25844210386276245 -0.5101653933525085 0.9039698839187622
0.2557847797870636 -0.5139036178588867 0.9146697521209717
0.25351446866989136 -0.4700284004211426 0.8890396952629089
0.2515029311180115 -0.4804341197013855 0.8822156190872192
0.23934045433998108 -0.3430596888065338 0.8753870129585266
0.239402636885643 -0.36090338230133057 0.8729307055473328
0.23616790771484375 -0.3258342444896698 0.8640629649162292
0.23241525888442993 -0.3525434732437134 0.8659667372703552
0.2342064529657364 -0.371774286031723 0.872861385345459
0.2487584352493286 -0.31518203020095825 0.8870261311531067
0.25234538316726685 -0.30225372314453125 0.8900883793830872
0.23596827685832977 -0.29106029868125916 0.8706539273262024
0.24708247184753418 -0.3026820421218872 0.8789420127868652
0.24450530111789703 -0.4908953309059143 0.8866583704948425
0.2524152994155884 -0.5142881870269775 0.8870929479598999
0.24685940146446228 -0.5008034706115723 0.8884180188179016
0.2656524181365967 -0.50404953956604 0.8833053708076477
0.2556510865688324 -0.17148457467556 0.8815543055534363
0.21440324187278748 -0.463065505027771 0.9306285381317139
0.21160823106765747 -0.47732579708099365 0.9199732542037964
0.22238685190677643 -0.38817813992500305 0.9238789677619934
0.2152014523744583 -0.3870484232902527 0.9209758043289185
0.21742446720600128 -0.4072185158729553 0.9300375580787659
0.20780056715011597 -0.3930469751358032 0.9174031019210815
0.2169998288154602 -0.4081048369407654 0.9245562553405762
0.2222190946340561 -0.34941884875297546 0.9054248332977295
0.2168785184621811 -0.35514724254608154 0.9046519994735718
0.21641238033771515 -0.321605384349823 0.9071304798126221
0.22521699965000153 -0.408647358417511 0.9271560907363892
0.213442862033844 -0.49148988723754883 0.8790247440338135
0.217238187789917 -0.5094202756881714 0.9076330661773682
0.21721303462982178 -0.38769280910491943 0.8959197402000427
0.22282946109771729 -0.5359621047973633 0.9111887216567993
0.2262997031211853 -0.5613501667976379 0.90579754114151
0.21888059377670288 -0.5427221059799194 0.9020950794219971
0.22407111525535583 -0.5808788537979126 0.9120535254478455
0.22483395040035248 -0.14463269710540771 0.9075857996940613
0.2579424977302551 -0.20859365165233612 0.961654007434845
0.25378456711769104 -0.21486401557922363 0.9560655951499939
0.26356616616249084 -0.21962392330169678 0.960085391998291
0.21391932666301727 -0.2356375902891159 0.875836968421936
0.24627622961997986 0.04249998927116394 0.946483314037323
0.2676916718482971 0.021331720054149628 0.9843404293060303
0.2631201148033142 0.006433762609958649 0.9741941094398499
0.2528976500034332 0.00877874344587326 0.9684816002845764
0.2509930431842804 -0.3457416892051697 0.9276095628738403
0.2569924294948578 -0.5061265826225281 0.9434576034545898
0.22423575818538666 -0.5849267244338989 0.8898453116416931
0.23701642453670502 -0.028486154973506927 0.9315856695175171
0.23982904851436615 -0.06304903328418732 0.9138453006744385
0.2531079947948456 -0.3194003701210022 0.9367268681526184
0.24618427455425262 -0.32665568590164185 0.9301514029502869
0.24574460089206696 -0.3711610734462738 0.929020345211029
0.22725272178649902 -0.5916575193405151 0.8860740065574646
0.24712693691253662 -0.6258975267410278 0.9269092082977295
0.24527178704738617 -0.6404656171798706 0.9301943778991699
0.23665307462215424 -0.6272777915000916 0.912505030632019
0.2325514703989029 -0.11753398180007935 0.908594012260437
0.23786425590515137 -0.1387789249420166 0.9017427563667297
0.25325968861579895 -0.3720996379852295 0.9223464727401733
0.21439063549041748 -0.14593197405338287 0.8873080611228943
0.22047491371631622 -0.5640426874160767 0.8678104877471924
0.278004914522171 -0.16427293419837952 0.9826607704162598
0.28106921911239624 -0.15947186946868896 0.9777424931526184
0.2716851234436035 -0.17198418080806732 0.966334342956543
0.276502788066864 -0.18302753567695618 0.9715991020202637
0.2808808982372284 -0.19642609357833862 0.9716736674308777
0.2528415620326996 -0.17219087481498718 0.9475181698799133
0.2668243944644928 -0.17182207107543945 0.9479435682296753
0.2491861879825592 -0.64216148853302 0.9314761757850647
0.22600816190242767 -0.3963053226470947 0.8719920516014099
0.22614099085330963 -0.41291114687919617 0.8761407732963562
0.2236846685409546 -0.4164378046989441 0.8768898248672485
0.21849028766155243 -0.37374383211135864 0.8638842105865479
0.28323012590408325 -0.17724108695983887 0.9687679409980774
0.28438445925712585 -0.19473016262054443 0.9680578708648682
0.2134465128183365 -0.1653818041086197 0.8510666489601135
0.2835569679737091 -0.16981840133666992 0.9707735776901245
0.2792380154132843 -0.1729086935520172 0.9615964889526367
0.25928008556365967 -0.40871116518974304 0.9346966743469238
0.20456402003765106 -0.1688220202922821 0.8260889053344727
0.20135720074176788 -0.1637876331806183 0.8196284770965576
0.18888603150844574 -0.1721774935722351 0.8094301223754883
0.19279566407203674 -0.1901726871728897 0.8129638433456421
0.2515169084072113 -0.14738282561302185 0.8958364129066467
0.27576744556427 -0.20546621084213257 0.9504903554916382
0.2560269236564636 -0.4349706768989563 0.9191189408302307
0.2564657926559448 -0.45809781551361084 0.9200038909912109
0.21650248765945435 -0.178611621260643 0.8442579507827759
0.2245192676782608 -0.1910434365272522 0.8428205251693726
0.20716461539268494 -0.18352541327476501 0.8319582939147949
0.26022592186927795 -0.45745301246643066 0.9114096164703369
0.2601160705089569 -0.43230342864990234 0.9038124680519104
0.25391465425491333 -0.4364323318004608 0.8901641964912415
0.2536014914512634 -0.4174776077270508 0.8915085792541504
0.23254123330116272 -0.540202260017395 0.8781119585037231
0.24656158685684204 -0.5405150651931763 0.8810784816741943
0.2333151400089264 -0.18224766850471497 0.8576340079307556
0.25838902592658997 -0.19312572479248047 0.9002269506454468
0.2586495876312256 -0.22111055254936218 0.8914731740951538
0.2516229748725891 -0.20531365275382996 0.8867919445037842
0.2519913911819458 -0.23657745122909546 0.8942779302597046
0.24779166281223297 -0.2451011687517166 0.8838932514190674
0.2552306652069092 -0.46163854002952576 0.8921450972557068
0.26100775599479675 -0.447645902633667 0.8909169435501099
0.26333343982696533 -0.4934151768684387 0.8945004940032959
0.2732212543487549 -0.37942779064178467 0.8928332924842834
0.26828116178512573 -0.4121459722518921 0.9008980989456177
0.26042675971984863 -0.38284626603126526 0.8974905014038086
0.25439369678497314 -0.3926486670970917 0.8854302167892456
0.2610586881637573 -0.4069470763206482 0.8909273147583008
0.25732800364494324 -0.38827627897262573 0.8982377052307129
0.26539191603660583 -0.41206860542297363 0.8929088711738586
0.2657797336578369 -0.5057960748672485 0.8911121487617493
0.26073306798934937 -0.49592363834381104 0.8820440769195557
0.21820074319839478 -0.4839571714401245 0.9313291907310486
0.21140208840370178 -0.5062859654426575 0.9294923543930054
0.2135811448097229 -0.4792282283306122 0.9140149354934692
0.22009997069835663 -0.5040016174316406 0.9177684187889099
0.24257519841194153 -0.20022737979888916 0.9529118537902832
0.20675760507583618 -0.17466682195663452 0.8937265872955322
0.20052117109298706 -0.19093291461467743 0.8850237727165222
0.2225894182920456 -0.1640644669532776 0.9336001873016357
0.23692943155765533 -0.4697491526603699 0.9260392785072327
0.2230721414089203 -0.44599848985671997 0.9075980186462402
0.21529605984687805 -0.238773375749588 0.9039803743362427
0.21050022542476654 -0.2418469786643982 0.8892009258270264
0.23554232716560364 -0.21617981791496277 0.9430831074714661
0.24003541469573975 -0.2363908588886261 0.9353688955307007
0.22452932596206665 -0.43404263257980347 0.9057102203369141
0.24169570207595825 -0.48590219020843506 0.9264500737190247
0.22358733415603638 -0.2724692225456238 0.8933067917823792
0.21749497950077057 -0.31103724241256714 0.8991125822067261
0.21335357427597046 -0.29600343108177185 0.8841459155082703
0.21762007474899292 -0.40798187255859375 0.9009299278259277
0.2379997968673706 -0.5669076442718506 0.9158016443252563
0.23604494333267212 -0.6032450199127197 0.9144510626792908
0.23176147043704987 -0.5983607769012451 0.8999040722846985
0.25951147079467773 -0.19582515954971313 0.9759137630462646
0.26315605640411377 -0.2332853525876999 0.9612132906913757
0.24274522066116333 -0.2827799320220947 0.93174809217453
0.24871231615543365 -0.3101343810558319 0.9337368011474609
0.21100550889968872 -0.3099757432937622 0.8769730925559998
0.2684166431427002 -0.24971604347229004 0.9659469723701477
0.24834255874156952 -0.2273363620042801 0.9398413300514221
0.24463066458702087 -0.2458413541316986 0.9341740608215332
0.2527073621749878 -0.5250993967056274 0.936191976070404
0.24668020009994507 -0.5559900403022766 0.922652006149292
0.22070445120334625 -0.4193476140499115 0.8832504749298096
0.2474079728126526 -0.08740107715129852 0.9389343857765198
0.2450554221868515 -0.06894078850746155 0.9437480568885803
0.20482930541038513 -0.3363633453845978 0.8495573997497559
0.2564900815486908 -0.3020451068878174 0.9284242391586304
0.2633179724216461 -0.32009416818618774 0.9366658926010132
0.25208383798599243 -0.5214150547981262 0.9382941126823425
0.25491294264793396 -0.5265207290649414 0.9355236291885376
0.2501417100429535 -0.5425727963447571 0.9308403134346008
0.20578230917453766 -0.19749581813812256 0.8415327668190002
0.2087508589029312 -0.21490801870822906 0.8368370532989502
0.19631780683994293 -0.21548551321029663 0.8397956490516663
0.19584126770496368 -0.19356916844844818 0.8398391008377075
0.20327192544937134 -0.18754497170448303 0.8340104222297668
0.19418245553970337 -0.1892019510269165 0.8173516392707825
0.21068936586380005 -0.22964359819889069 0.8581525683403015
0.18780802190303802 -0.18794818222522736 0.8180035352706909
0.18513554334640503 -0.19796022772789001 0.8051345348358154
0.25037768483161926 -0.15034502744674683 0.925049364566803
0.25947412848472595 -0.1594945341348648 0.9248407483100891
0.22960077226161957 -0.14675740897655487 0.8955581188201904
0.26795175671577454 -0.2049718052148819 0.9615625143051147
0.2650397717952728 -0.21289725601673126 0.9560492038726807
0.2699044346809387 -0.42671889066696167 0.9557986855506897
0.2680167257785797 -0.4220389425754547 0.9573307633399963
0.26368799805641174 -0.41371965408325195 0.9476232528686523
0.19412852823734283 -0.19280172884464264 0.803841233253479
0.1852177083492279 -0.1751841902732849 0.8080641031265259
0.21148206293582916 -0.2304508090019226 0.8527227640151978
0.2230592668056488 -0.4680325984954834 0.8751702308654785
0.21974080801010132 -0.4894721210002899 0.8673803210258484
0.27651911973953247 -0.17880794405937195 0.9417598247528076
0.2504354417324066 -0.1340733766555786 0.9255748391151428
0.25349852442741394 -0.5079599618911743 0.9194565415382385
0.21221935749053955 -0.3374538719654083 0.8496633768081665
0.2596782445907593 0.0072278231382369995 0.9326363801956177
0.2591637969017029 -0.007765047252178192 0.9286431074142456
0.21964727342128754 -0.3414855897426605 0.853818416595459
0.25757265090942383 -0.12066902965307236 0.9112598299980164
0.2577151656150818 -0.14231066405773163 0.9127610325813293
0.25068143010139465 -0.1395922601222992 0.9029082655906677
0.2541557848453522 -0.45658159255981445 0.8920378088951111
0.2360903024673462 -0.1604529321193695 0.8680514693260193
0.23766274750232697 -0.3164413571357727 0.8700204491615295
0.26612457633018494 -0.16179028153419495 0.908208966255188
0.2625083029270172 -0.18061533570289612 0.9029778242111206
0.2696966826915741 -0.18499743938446045 0.9274674654006958
0.2690131366252899 -0.19870620965957642 0.9118813276290894
0.2593478262424469 -0.14853014051914215 0.8965214490890503
0.24768443405628204 -0.14903166890144348 0.8853368163108826
0.2654102146625519 -0.45794767141342163 0.8958154320716858
0.2144547402858734 -0.36212992668151855 0.9293897151947021
0.20924128592014313 -0.3604741096496582 0.9247180223464966
0.21990583837032318 -0.37558794021606445 0.9297993183135986
0.21381929516792297 -0.3593546152114868 0.9198628067970276
0.20864148437976837 -0.3768325448036194 0.923201322555542
0.22359420359134674 -0.44276806712150574 0.931272566318512
0.22649861872196198 -0.4544031023979187 0.9315874576568604
0.2240169495344162 -0.38395553827285767 0.9148925542831421
0.21031877398490906 -0.3958001136779785 0.9034877419471741
0.2197338342666626 -0.4221642017364502 0.918304979801178
0.22478871047496796 -0.42755740880966187 0.927240252494812
0.21142666041851044 -0.22118383646011353 0.9057320356369019
0.24861201643943787 -0.20128673315048218 0.9633262157440186
0.2510172426700592 -0.18082091212272644 0.9520747661590576
0.23449398577213287 -0.12346768379211426 0.9303638339042664
0.23063412308692932 -0.11092354357242584 0.9241257309913635
0.21173544228076935 -0.3779591917991638 0.8745308518409729
0.21046602725982666 -0.32501673698425293 0.878094494342804
0.1989200860261917 -0.34647831320762634 0.8460700511932373
0.20964233577251434 -0.3482514023780823 0.8777239322662354
0.2648438811302185 -0.0031601116061210632 0.9725825190544128
0.25461652874946594 0.03362724184989929 0.958962082862854
0.25279301404953003 0.01729084551334381 0.9613339900970459
0.2511288821697235 0.01776411384344101 0.9519429802894592
0.2358439713716507 0.007295958697795868 0.946662187576294
0.23660829663276672 -0.06854482740163803 0.9186452627182007
0.23194999992847443 -0.0896964743733406 0.9124637246131897
0.2721983790397644 -0.165227472782135 0.9797012805938721
0.26240962743759155 -0.43040838837623596 0.9573984146118164
0.24900002777576447 -0.47396376729011536 0.9422626495361328
0.2155534029006958 -0.5114421844482422 0.8621734380722046
0.20942705869674683 -0.504879355430603 0.8656938076019287
0.19034546613693237 -0.16263246536254883 0.8204129934310913
0.184120774269104 -0.17560100555419922 0.8142490386962891
0.25972068309783936 -0.06991966813802719 0.9379429817199707
0.25164180994033813 -0.08553590625524521 0.9330639243125916
0.26173511147499084 -0.42231714725494385 0.9627271890640259
0.22262564301490784 -0.29083919525146484 0.8656010031700134
0.229201078414917 -0.305186927318573 0.86336350440979
0.2585335075855255 -0.31135034561157227 0.9260679483413696
0.2546696364879608 -0.3265116214752197 0.9240177869796753
0.2517699897289276 -0.35094788670539856 0.9233636856079102
0.2334481179714203 -0.21805092692375183 0.8587402701377869
0.2669481933116913 -0.027309313416481018 0.937584400177002
0.2570379972457886 -0.03352040797472 0.9241650104522705
0.24891722202301025 -0.5557481050491333 0.8878830671310425
0.2609032392501831 -0.24633383750915527 0.9096388816833496
0.25726136565208435 -0.26354658603668213 0.8970094919204712
0.24350158870220184 -0.22123125195503235 0.8746494054794312
0.22539378702640533 -0.21025940775871277 0.8501098155975342
0.22798652946949005 -0.23768004775047302 0.8656663298606873
0.25886884331703186 -0.20630590617656708 0.9023820757865906
0.2704121470451355 -0.20934468507766724 0.9224926829338074
0.262177050113678 -0.22262105345726013 0.9171640872955322
0.2615547776222229 -0.22732478380203247 0.9001617431640625
0.22638238966464996 -0.19362542033195496 0.9297981262207031
0.2185714691877365 -0.15804918110370636 0.9171311259269714
0.2152307778596878 -0.1783962845802307 0.9249098300933838
0.21436059474945068 -0.18443089723587036 0.9128465056419373
0.21813002228736877 -0.4693208336830139 0.9073281288146973
0.20099587738513947 -0.18047098815441132 0.8783344030380249
0.2360135167837143 -0.5174365043640137 0.9249868392944336
0.20991921424865723 -0.255776584148407 0.885741114616394
0.24813483655452728 -0.02353440225124359 0.9537850618362427
0.23777319490909576 -0.031388770788908005 0.9444023370742798
0.23591725528240204 -0.025056399405002594 0.9379496574401855
0.2522927224636078 -0.22131627798080444 0.9434529542922974
0.26212573051452637 -0.2464941143989563 0.9587409496307373
0.25703883171081543 -0.2314833104610443 0.948115885257721
0.20227114856243134 -0.19375395774841309 0.846260666847229
0.17777776718139648 -0.1911180168390274 0.8077494502067566
0.22694383561611176 -0.4390047490596771 0.8816010355949402
0.21984033286571503 -0.45440149307250977 0.8806518316268921
0.21767395734786987 -0.4684227705001831 0.8833432793617249
0.24582092463970184 -0.15800918638706207 0.9333506226539612
0.27035951614379883 -0.2436419427394867 0.9601653218269348
0.26268771290779114 -0.24901024997234344 0.9574199914932251
0.26416653394699097 -0.24128706753253937 0.9468228816986084
0.25462520122528076 -0.23463967442512512 0.9326835870742798
0.20934532582759857 -0.5403881669044495 0.862015426158905
0.22761304676532745 -0.5792418122291565 0.8785510659217834
0.2548512816429138 0.017518848180770874 0.946446418762207
0.24879027903079987 0.04186386615037918 0.9321764707565308
0.25240689516067505 0.03449171781539917 0.9459869861602783
0.25726673007011414 0.023323431611061096 0.9421025514602661
0.25115031003952026 0.021016567945480347 0.9317321181297302
0.24165143072605133 0.03512118011713028 0.9290884137153625
0.24365077912807465 0.015292122960090637 0.9283565282821655
0.2234048694372177 -0.23834601044654846 0.8648870587348938
0.24469566345214844 -0.0015328899025917053 0.9198811054229736
